ply
format ascii 1.0
element vertex 756
property float x
property float y
property float z
property float nx
property float ny
property float nz
property uchar red
property uchar green
property uchar blue
end_header
215.9984 -209.2781 721.6650 -0.7408 0.0032 -0.6718 255 255 255
189.2866 -216.3786 744.2522 -0.6966 0.1564 -0.7002 255 255 231
108.9665 -243.1102 833.9461 -0.7428 0.1230 -0.6581 219 214 213
73.4805 -251.5749 864.0953 -0.7875 0.1106 -0.6063 206 211 212
-292.1369 -447.6906 1612.3140 0.0378 0.8282 -0.5592 226 230 233
353.9629 -210.4148 722.8628 0.6734 0.1095 -0.7311 255 255 255
285.7782 -190.4634 661.8513 0.5455 0.1444 -0.8256 255 255 255
260.5173 -193.3641 672.0827 -0.7540 0.1206 -0.6458 255 255 255
221.3806 -205.3953 718.4117 -0.7303 0.0691 -0.6796 255 255 255
196.1187 -213.1047 742.0047 -0.5745 0.1646 -0.8018 255 255 236
169.1099 -221.7267 769.5467 -0.6937 0.2394 -0.6793 255 255 212
139.0917 -229.8866 797.6567 -0.7179 -0.0204 -0.6958 255 255 216
-10.2562 -357.7672 1253.7755 -0.5324 0.1828 -0.8265 221 225 229
-277.0840 -443.0802 1543.1997 -0.2320 -0.0285 -0.9723 224 228 231
458.8242 -221.4400 770.3491 0.3219 -0.3510 -0.8793 255 255 200
466.5859 -238.3263 815.4982 0.2024 -0.3764 -0.9041 255 255 209
361.3062 -208.4942 731.0061 0.7087 0.0556 -0.7033 255 255 255
298.1272 -192.7249 672.4013 0.6220 0.1366 -0.7710 255 255 255
266.5906 -190.9559 665.8767 -0.7168 0.2099 -0.6649 255 255 255
243.6334 -196.8723 687.2683 -0.7467 0.0507 -0.6633 255 255 255
203.8211 -211.0280 739.6302 -0.7011 0.0896 -0.7074 255 255 236
175.6169 -217.5279 764.7217 -0.6784 0.2298 -0.6978 255 255 212
146.3548 -225.9072 789.8283 -0.6445 -0.0019 -0.7646 255 255 206
115.3749 -236.1750 824.9406 -0.7768 0.1399 -0.6140 255 228 224
81.4087 -244.6872 853.5005 -0.7147 0.0234 -0.6990 228 233 234
54.9724 -255.9555 891.6645 -0.7036 0.0198 -0.7104 199 203 207
3.7226 -351.8204 1231.7911 -0.6982 0.0804 -0.7113 228 232 236
-53.9067 -368.8470 1290.5414 -0.6801 0.2382 -0.6934 223 230 232
-121.2706 -392.8482 1382.0885 -0.4957 -0.2858 -0.8201 224 227 233
-315.2448 -424.9391 1492.4385 -0.7825 0.1339 -0.6081 220 224 228
-1080.1096 -567.0258 1933.3145 0.0000 0.0000 0.0000 175 188 197
468.6296 -220.4648 771.7017 0.4291 0.1962 -0.8817 255 255 188
411.4276 -213.1941 785.9119 0.3450 -0.0899 -0.9343 255 255 255
377.8187 -212.3634 746.1177 0.6646 0.0043 -0.7472 255 255 255
309.4724 -194.0541 681.8329 0.6283 0.0167 -0.7778 255 255 255
250.5090 -194.7657 684.6497 -0.7159 0.0760 -0.6941 255 255 255
227.7718 -202.3794 709.3112 -0.6935 0.1883 -0.6954 255 255 255
183.4403 -215.3396 763.1501 -0.7681 0.1858 -0.6128 255 255 218
153.4885 -221.7897 783.8764 -0.5827 0.0967 -0.8069 255 255 213
123.0515 -231.5229 816.3454 -0.7675 0.1304 -0.6276 255 238 224
89.8785 -241.0794 846.7349 -0.6202 -0.0428 -0.7833 194 198 201
-40.9020 -373.6684 1290.7704 -0.6580 0.0861 -0.7481 217 221 224
483.9148 -222.4010 782.4578 0.5336 -0.1645 -0.8296 255 255 176
453.6181 -224.1956 796.8254 -0.1197 -0.3806 -0.9170 255 255 210
393.7123 -215.4783 759.4299 0.6334 -0.0716 -0.7705 255 255 255
319.3673 -194.1591 687.9051 0.6534 0.0023 -0.7570 255 255 255
270.2371 -186.5623 660.3703 -0.5047 0.2273 -0.8329 255 255 255
233.5729 -198.8997 705.6624 -0.6831 0.1827 -0.7071 255 255 255
208.7861 -206.0369 729.3113 -0.7349 -0.0076 -0.6781 255 255 255
98.4579 -237.4976 843.6870 -0.6073 -0.0873 -0.7896 203 205 209
62.9614 -248.0108 883.2513 -0.7360 0.1014 -0.6693 209 213 216
16.9141 -352.6084 1234.0851 -0.6806 0.0959 -0.7264 209 216 216
-98.4290 -364.6450 1356.1458 -0.7523 -0.0121 -0.6587 228 232 236
-311.6513 -456.9730 1619.8564 0.0548 0.4199 -0.9059 228 229 233
-290.9360 -405.8727 1546.8180 0.0000 0.0000 0.0000 230 234 237
408.0046 -217.4362 777.1736 0.6795 -0.0892 -0.7282 255 255 255
333.1236 -196.9312 701.6004 0.7105 0.0376 -0.7027 255 255 255
275.4200 -183.4256 659.0635 0.1454 0.2197 -0.9647 255 255 255
253.3549 -189.2446 675.8000 -0.6924 0.0918 -0.7156 255 255 255
211.6046 -198.7647 720.4934 -0.6948 -0.0745 -0.7154 255 255 255
188.9593 -210.2728 749.7603 -0.7134 0.1853 -0.6758 255 255 225
161.4757 -219.4759 781.2708 -0.6256 0.1259 -0.7699 255 255 212
129.5377 -224.3176 804.9178 -0.7676 0.1086 -0.6317 255 240 216
71.1367 -241.7764 871.2664 -0.7836 0.0902 -0.6147 213 217 221
-26.7589 -357.3304 1266.9849 -0.6430 0.0207 -0.7656 221 225 229
-85.7535 -364.0116 1336.7471 -0.7810 0.0362 -0.6235 231 235 238
422.4408 -219.2025 787.7354 0.5279 -0.0211 -0.8491 255 255 255
351.0425 -202.1076 723.3991 0.7018 0.0995 -0.7054 255 255 255
260.0753 -187.2619 674.0884 -0.6707 0.1802 -0.7195 255 255 255
236.0242 -192.5449 695.4666 -0.6985 0.2120 -0.6834 255 255 255
222.5260 -201.0642 721.9180 -0.7124 -0.0946 -0.6954 255 255 255
195.8302 -207.1643 745.1758 -0.6203 0.1120 -0.7763 255 255 231
167.8572 -214.4216 772.6750 -0.6652 0.1982 -0.7199 255 255 210
137.6153 -222.1424 800.2280 -0.7377 0.0938 -0.6686 255 247 212
105.7230 -231.5407 834.6302 -0.6606 -0.0770 -0.7468 223 225 227
-11.3522 -345.4171 1263.2189 -0.5348 -0.1258 -0.8355 221 225 229
-139.2849 -383.2943 1381.0182 -0.0709 -0.2319 -0.9701 218 222 227
-296.9699 -458.0674 1634.5538 0.1754 -0.0403 -0.9837 213 217 223
482.3245 -220.3012 785.4883 0.0000 0.0000 0.0000 255 255 184
448.7397 -208.9360 770.8782 -0.2059 0.2123 -0.9553 255 255 198
430.4998 -217.0801 786.4561 0.3940 -0.0165 -0.9190 255 255 243
365.8965 -204.8932 736.5955 0.6963 0.0597 -0.7153 255 255 255
296.6830 -185.7100 671.9094 0.6287 0.0454 -0.7764 255 255 255
264.6310 -183.6134 668.2236 -0.7481 0.1986 -0.6332 255 255 255
243.5253 -190.9698 691.4395 -0.7595 0.1843 -0.6238 255 255 255
202.5893 -203.9620 740.4841 -0.7070 0.0719 -0.7035 255 255 246
174.8907 -210.9655 768.7485 -0.6618 0.1777 -0.7283 255 255 212
144.2585 -216.8748 790.1553 -0.6911 0.0516 -0.7209 255 255 215
114.4785 -229.5678 829.6501 -0.6812 -0.0414 -0.7309 251 231 228
79.8362 -237.3621 858.0877 -0.7849 0.0962 -0.6121 189 193 196
1.1801 -356.2690 1272.8517 0.0020 0.2077 -0.9782 219 223 226
-60.2748 -371.8035 1325.8977 -0.3762 0.2608 -0.8891 224 228 231
-123.3776 -380.2173 1380.6237 -0.5040 -0.2575 -0.8244 223 227 230
-257.8551 -419.2254 1537.9131 -0.2320 -0.0285 -0.9723 219 223 226
-361.3266 -465.2937 1584.3112 -0.0513 0.9732 -0.2240 232 236 239
441.0645 -216.4508 789.5766 0.2320 0.0887 -0.9687 255 255 222
381.2728 -207.7489 751.4185 0.6376 0.0394 -0.7693 255 255 255
305.2229 -185.0793 679.4700 0.6225 0.0702 -0.7794 255 255 255
248.4687 -187.1530 685.3026 -0.7589 0.2232 -0.6117 255 255 255
223.7519 -192.3304 710.0175 -0.6626 0.0137 -0.7488 255 255 255
152.4675 -214.7999 785.1692 -0.6005 0.0867 -0.7949 255 255 214
121.6450 -224.0719 821.0012 -0.7398 0.1091 -0.6639 255 234 218
87.8817 -231.7847 846.3786 -0.6616 -0.0038 -0.7499 214 215 219
52.4556 -246.2833 889.1612 -0.6347 -0.0912 -0.7673 211 217 219
-105.3749 -366.8803 1357.6368 -0.6830 -0.2334 -0.6922 223 226 232
476.2925 -211.2515 776.2578 0.5544 0.3838 -0.7384 255 255 188
453.0055 -216.6068 791.0674 0.0620 -0.0477 -0.9969 255 255 205
391.2349 -207.0802 758.3632 0.5987 0.0938 -0.7955 255 255 255
318.6834 -187.5905 688.4756 0.6638 0.1102 -0.7398 255 255 255
270.2614 -180.7963 663.6227 -0.6118 0.2589 -0.7474 255 255 255
231.4495 -190.7835 707.1691 -0.6309 0.0669 -0.7730 255 255 255
207.7146 -199.0857 733.0322 -0.7427 0.0936 -0.6631 255 255 255
181.3525 -207.0118 764.8093 -0.7587 0.1858 -0.6244 255 255 218
96.2294 -227.7133 842.3865 -0.6368 -0.0388 -0.7701 210 214 215
60.6315 -238.3529 878.5845 -0.6652 -0.0179 -0.7464 196 200 203
13.4023 -335.1339 1237.8970 -0.4101 -0.0781 -0.9087 206 210 216
-44.5001 -354.0722 1303.6300 -0.3960 0.1249 -0.9097 223 227 230
-167.3489 -394.7939 1466.8535 0.1728 0.5577 -0.8118 220 226 231
417.5649 -187.1206 747.7513 0.0000 0.0000 0.0000 255 255 214
454.5253 -211.0390 783.9811 0.0421 0.1161 -0.9923 255 255 199
403.5952 -207.7743 767.5716 0.6543 0.0456 -0.7549 255 255 255
331.9909 -189.8898 702.7767 0.6880 0.0730 -0.7221 255 255 255
274.5198 -177.1351 660.9134 -0.1114 0.2896 -0.9506 255 255 255
252.2110 -182.4531 677.0757 -0.6776 0.2157 -0.7031 255 255 255
212.7689 -194.2861 726.5607 -0.7075 -0.0202 -0.7064 255 255 255
187.5645 -202.7125 752.3918 -0.7279 0.1865 -0.6598 255 255 225
159.9824 -211.7668 782.2666 -0.5351 0.1513 -0.8311 255 255 208
128.8783 -219.0893 810.6741 -0.7562 0.1701 -0.6318 255 243 220
69.7232 -235.7616 876.2614 -0.7155 0.0595 -0.6961 199 203 207
-29.7023 -338.3104 1261.0942 -0.6335 0.1594 -0.7571 227 233 236
-89.9828 -360.3210 1333.8470 -0.5349 -0.3115 -0.7854 226 230 233
-154.6443 -407.2987 1471.9977 0.1728 0.5577 -0.8118 220 224 230
-301.3292 -421.3424 1625.6168 -0.4124 -0.2980 -0.8609 228 232 236
-293.2753 -386.5020 1502.7701 -0.7315 0.5326 -0.4258 224 228 231
467.6721 -211.5965 787.7485 0.0999 0.1723 -0.9800 255 255 188
441.1573 -215.8273 799.6067 0.5570 -0.0036 -0.8305 255 255 232
419.4351 -210.2865 784.3441 0.5976 0.0754 -0.7982 255 255 255
345.1656 -191.8271 717.6413 0.7326 -0.0241 -0.6802 255 255 255
282.5905 -176.3791 663.2545 0.3661 0.0993 -0.9253 255 255 255
260.4717 -181.7030 677.1190 -0.6538 0.2959 -0.6964 255 255 255
236.3241 -186.9665 701.0272 -0.7132 0.2103 -0.6687 255 255 255
219.0796 -191.1551 720.1506 -0.7565 -0.0632 -0.6509 255 255 255
193.7690 -198.7108 746.1949 -0.6939 0.2025 -0.6910 255 255 238
166.8881 -207.6432 777.6689 -0.5804 0.2167 -0.7850 255 255 207
135.6189 -213.5730 801.7599 -0.7641 0.2090 -0.6103 255 253 220
103.9442 -223.4895 833.7228 -0.6355 -0.0773 -0.7682 210 214 217
-73.9345 -346.9726 1307.8876 -0.2755 -0.3875 -0.8798 216 223 225
-294.0645 -431.5226 1611.8698 0.4030 -0.5825 -0.7059 233 237 240
455.0308 -216.7377 803.2861 0.3850 -0.0173 -0.9227 255 255 212
360.3704 -194.8006 731.3792 0.6735 0.0452 -0.7378 255 255 255
293.8896 -177.6055 667.2222 0.5878 0.0334 -0.8083 255 255 255
264.7493 -177.9016 673.3735 -0.7581 0.2422 -0.6054 255 255 255
244.2034 -185.7652 696.8399 -0.7578 0.2690 -0.5945 255 255 255
173.8201 -203.8575 772.2932 -0.6890 0.1590 -0.7071 255 255 211
143.6808 -211.0656 796.7515 -0.7471 0.1736 -0.6417 255 255 220
111.9620 -219.5463 828.7545 -0.6445 -0.0318 -0.7639 244 227 224
78.0867 -229.6590 863.6044 -0.8027 0.1454 -0.5784 203 207 210
-15.8914 -325.9975 1263.1128 -0.5348 0.2112 -0.8181 220 224 230
-61.6608 -348.0825 1306.4025 -0.2863 -0.3530 -0.8908 231 235 236
-125.6706 -368.0598 1378.6552 -0.3368 -0.5589 -0.7578 214 219 222
-291.7682 -448.4796 1644.0415 0.5241 -0.6356 -0.5668 227 231 235
-353.9924 -431.4544 1656.7384 -0.0492 -0.9439 -0.3264 227 231 237
372.5300 -195.7026 743.0057 0.6852 0.0369 -0.7274 255 255 255
304.1260 -178.2759 679.4824 0.6390 0.0273 -0.7687 255 255 255
248.6020 -181.3292 689.8532 -0.7479 0.3264 -0.5779 255 255 255
222.7262 -185.5942 710.0316 -0.5930 -0.0680 -0.8023 255 255 255
198.7742 -193.7854 738.6623 -0.7484 0.1790 -0.6386 255 255 255
118.8323 -213.6736 820.9937 -0.6475 0.0138 -0.7619 255 243 230
86.2299 -223.8493 850.9988 -0.7551 0.1322 -0.6421 224 228 231
49.6745 -233.6205 887.0225 -0.6632 0.0113 -0.7483 191 197 200
-2.6864 -324.5212 1232.4723 -0.4722 0.0175 -0.8813 206 212 217
-50.0846 -365.0380 1326.0439 0.2543 -0.2472 -0.9350 235 239 245
-350.3946 -443.3397 1692.3805 -0.4198 -0.7995 -0.4297 221 225 229
450.6532 -197.1589 759.8703 0.1163 -0.6882 -0.7161 255 255 183
452.7065 -209.1669 792.3396 0.1346 -0.1617 -0.9776 255 255 201
387.3116 -197.8489 756.9897 0.6326 0.0649 -0.7718 255 255 255
317.5523 -180.7486 691.9193 0.6616 0.0730 -0.7463 255 255 255
268.9128 -173.9481 664.4557 -0.6612 0.2165 -0.7183 255 255 255
232.2740 -185.5465 710.5791 -0.4991 0.0226 -0.8662 255 255 255
207.1474 -192.4680 735.0911 -0.7152 0.1110 -0.6901 255 255 255
179.7587 -199.7781 764.8059 -0.7654 -0.0030 -0.6436 255 255 222
149.7420 -204.7959 784.6901 -0.6232 0.1823 -0.7605 255 255 207
95.0242 -221.1153 843.7566 -0.7025 0.1417 -0.6975 217 221 224
58.9824 -230.4647 882.3404 -0.6416 0.0492 -0.7654 212 217 217
10.0846 -325.3006 1232.3052 -0.3685 -0.0534 -0.9281 214 220 225
-105.8727 -343.8111 1321.2954 -0.3058 0.0406 -0.9512 225 231 233
-172.0843 -387.3347 1480.9385 0.0862 0.5083 -0.8568 225 231 233
459.7901 -206.4934 789.6470 -0.0851 -0.1018 -0.9912 255 255 193
404.2713 -201.1025 769.3525 0.6607 0.1060 -0.7431 255 255 255
329.2369 -181.7897 701.1807 0.6480 0.0133 -0.7616 255 255 255
275.9677 -172.4826 664.0934 -0.2230 0.1206 -0.9673 255 255 255
252.8424 -177.0461 683.1769 -0.7190 0.3402 -0.6060 255 255 255
214.0832 -189.8564 733.1877 -0.7214 0.1534 -0.6754 255 255 255
187.4032 -197.1009 758.1502 -0.6687 -0.0285 -0.7430 255 255 227
157.8618 -203.0830 783.8957 -0.5466 0.1597 -0.8221 255 255 205
128.3788 -213.2583 817.4323 -0.7194 0.1454 -0.6792 255 233 213
68.2650 -228.3405 878.5479 -0.6939 0.0618 -0.7174 206 210 214
-34.0257 -340.3503 1305.8102 -0.7713 0.1109 -0.6267 231 235 238
-87.6064 -382.5536 1312.3506 0.0000 0.0000 0.0000 220 226 229
-93.9842 -348.5623 1336.9285 -0.5214 -0.1768 -0.8348 230 234 237
473.5675 -207.3666 797.3192 -0.0061 -0.1398 -0.9902 255 255 184
480.2924 -222.3137 807.1109 0.0000 0.0000 0.0000 255 255 193
420.2008 -203.5174 782.4276 0.6198 0.1876 -0.7620 255 255 255
342.4860 -183.7416 713.0344 0.6474 -0.1042 -0.7550 255 255 255
281.9412 -170.0040 663.4284 0.1749 0.0414 -0.9837 255 255 255
260.0047 -175.5209 679.9084 -0.6775 0.3450 -0.6496 255 255 255
236.0980 -180.8785 703.5352 -0.6634 0.1212 -0.7384 255 255 255
194.9531 -194.4078 753.6379 -0.6506 0.0152 -0.7593 255 255 255
165.5387 -200.1945 781.3694 -0.5713 0.0861 -0.8162 255 255 210
135.3780 -208.1174 808.2057 -0.7587 0.1886 -0.6235 255 255 228
102.0913 -215.0224 835.0489 -0.6672 0.1018 -0.7379 235 236 240
-19.8578 -332.6788 1280.8115 -0.5992 0.5357 -0.5950 217 221 224
-294.5686 -405.8898 1576.9170 0.8527 -0.4153 -0.3168 228 232 236
434.7981 -205.0578 793.8340 0.4315 0.0366 -0.9013 255 255 236
358.4823 -186.9283 730.8620 0.6938 -0.1073 -0.7122 255 255 255
264.4937 -171.7969 675.8853 -0.7678 0.2439 -0.5924 255 255 255
242.1000 -177.9056 698.2162 -0.7386 0.1429 -0.6588 255 255 255
219.1591 -185.5034 721.3016 -0.8402 -0.0020 -0.5422 255 255 255
174.7830 -199.4812 782.7634 -0.6677 -0.0242 -0.7440 255 255 220
142.1663 -203.3326 799.2224 -0.7757 0.2241 -0.5900 255 255 217
110.2555 -211.2118 829.8801 -0.6765 0.1013 -0.7294 238 224 224
76.5163 -222.6752 869.1492 -0.7715 0.1209 -0.6246 208 215 215
-62.1188 -327.0701 1296.3090 0.4012 -0.0539 -0.9144 222 229 231
-75.1496 -319.2820 1292.8813 0.6084 -0.0002 -0.7936 230 239 240
-130.4131 -349.6933 1346.1245 -0.8005 -0.1890 -0.5687 215 221 226
-380.2101 -439.0897 1727.4951 -0.5530 0.3712 -0.7459 224 228 231
468.9933 -198.9758 789.5976 0.1412 -0.3534 -0.9247 255 255 188
372.3439 -188.7186 741.2051 0.6740 0.1062 -0.7310 255 255 255
301.2255 -170.2696 676.2199 0.6677 -0.0063 -0.7444 255 255 255
289.3207 -168.6975 664.4539 0.5013 0.0109 -0.8652 255 255 255
248.7952 -175.6661 695.3289 -0.6945 0.1885 -0.6944 255 255 255
220.7177 -177.5398 709.1530 -0.6250 -0.0406 -0.7796 255 255 255
202.4090 -191.7041 747.4633 -0.7022 0.0548 -0.7098 255 255 255
176.9284 -190.4361 765.8261 -0.7219 -0.1197 -0.6816 255 255 227
118.3780 -207.7292 823.9678 -0.6650 0.0852 -0.7420 255 226 214
84.4939 -216.7722 857.2292 -0.7935 0.1728 -0.5836 230 234 237
-5.4472 -324.5640 1265.5764 -0.6686 0.5469 -0.5039 216 223 225
457.5735 -204.1060 801.7886 -0.1669 -0.3923 -0.9046 255 255 200
385.1655 -189.6544 754.4187 0.6680 0.0984 -0.7377 255 255 255
314.7917 -172.6651 689.8655 0.6673 0.0051 -0.7448 255 255 255
268.5609 -167.7637 669.9194 -0.7030 0.2162 -0.6775 255 255 255
230.9179 -178.3127 712.6245 -0.4766 0.0110 -0.8790 255 255 255
205.4479 -184.6155 737.1898 -0.7029 0.0469 -0.7097 255 255 255
149.0586 -198.6376 792.6197 -0.6809 0.2367 -0.6930 255 255 208
56.8554 -221.2059 886.9794 -0.6774 0.1383 -0.7225 204 208 211
-38.6095 -357.8524 1359.4727 0.6743 0.2376 -0.6992 226 232 235
-51.1063 -332.9921 1321.2240 0.4901 0.2809 -0.8252 227 233 236
-110.5553 -330.5405 1332.1714 -0.4259 0.0706 -0.9020 227 233 238
-166.6354 -352.9748 1414.1276 -0.7507 0.0192 -0.6603 220 224 228
-174.9889 -342.5484 1413.7578 -0.7720 0.0302 -0.6349 223 227 230
459.6317 -198.8844 795.4744 -0.2017 -0.3934 -0.8970 255 255 193
424.1554 -198.3100 784.3990 0.5937 0.1439 -0.7917 255 255 250
399.6543 -191.4080 768.2053 0.6713 0.1051 -0.7337 255 255 255
326.4658 -173.6924 699.1320 0.6218 -0.0326 -0.7825 255 255 255
274.0901 -165.1092 665.6221 -0.4538 0.2159 -0.8645 255 255 255
253.5700 -171.8397 689.1772 -0.7355 0.1773 -0.6539 255 255 255
237.8586 -176.3313 706.9616 -0.5444 -0.0096 -0.8388 255 255 255
210.4855 -180.1898 733.9272 -0.7114 0.0094 -0.7027 255 255 255
184.5068 -187.7693 758.4222 -0.6307 -0.1379 -0.7637 255 255 255
157.6237 -197.3701 788.2771 -0.5326 0.2374 -0.8124 255 255 207
126.2920 -204.1552 817.7932 -0.6683 0.1013 -0.7370 255 242 223
92.4536 -211.1024 847.7542 -0.7577 0.2283 -0.6113 225 229 232
337.5280 -174.1998 707.2456 0.6055 -0.0274 -0.7954 255 255 255
280.3882 -162.9836 664.0902 -0.0198 0.0210 -0.9996 255 255 255
259.2198 -168.9698 684.1596 -0.7134 0.1507 -0.6844 255 255 255
163.8932 -192.2386 782.8434 -0.5928 -0.0099 -0.8053 255 255 216
134.0880 -200.6935 814.6050 -0.7240 0.0751 -0.6857 255 249 221
100.8704 -208.1719 841.6921 -0.7354 0.1890 -0.6508 212 216 219
66.0635 -218.5300 880.8008 -0.6718 0.0585 -0.7384 212 216 219
-150.2304 -341.9801 1389.2487 -0.0867 -0.4985 -0.8626 227 231 237
461.4067 -193.8130 784.8842 -0.1468 -0.4969 -0.8553 255 255 191
428.7015 -194.4516 791.5020 0.3905 0.1514 -0.9081 255 255 238
348.2350 -174.1198 714.4875 0.6907 -0.0757 -0.7192 255 255 255
264.1019 -165.4786 677.6329 -0.7411 0.1371 -0.6572 255 255 255
240.5306 -170.5331 699.4638 -0.6077 0.0202 -0.7939 255 255 255
217.4615 -177.7259 726.9789 -0.8441 0.0086 -0.5361 255 255 255
191.9877 -185.0883 753.9333 -0.5960 -0.1195 -0.7941 255 255 255
140.8477 -195.8254 803.5327 -0.7666 0.0980 -0.6347 255 255 217
108.5872 -203.5816 835.0814 -0.7030 0.1333 -0.6986 219 217 218
74.3265 -213.0593 870.7947 -0.7328 0.0453 -0.6789 216 223 225
-68.1929 -324.1844 1303.6545 0.8495 0.2264 -0.4765 230 236 241
-84.5707 -286.6790 1332.7402 0.0000 0.0000 0.0000 212 218 223
457.0047 -185.9782 775.8387 0.1444 -0.6059 -0.7823 255 255 190
431.6080 -189.7103 795.7988 0.2361 0.0504 -0.9704 255 255 225
373.5116 -182.5320 745.6062 0.6805 0.0899 -0.7272 255 255 255
300.4959 -163.6478 675.9269 0.6715 -0.0202 -0.7407 255 255 255
285.0589 -159.9791 661.1048 0.2617 0.0058 -0.9651 255 255 255
248.2037 -169.0429 696.0960 -0.6515 0.1310 -0.7472 255 255 255
220.8055 -171.9243 711.6187 -0.6725 -0.1298 -0.7286 255 255 255
199.3739 -182.4000 747.2518 -0.6331 -0.0725 -0.7707 255 255 255
169.7514 -187.3386 776.4881 -0.7245 -0.1050 -0.6812 255 255 220
83.0555 -209.6689 864.9859 -0.7502 0.0758 -0.6568 223 230 230
46.2132 -292.2149 1225.2407 -0.8595 0.1865 -0.4760 207 213 218
-9.1051 -315.6622 1289.5756 0.2549 -0.0478 -0.9658 210 214 217
-56.4662 -331.9325 1337.8387 0.5510 -0.1527 -0.8204 225 231 233
-125.0945 -318.0585 1346.1245 -0.7183 0.1384 -0.6819 217 221 224
-186.6566 -344.6757 1431.4634 -0.7466 0.2108 -0.6310 219 225 230
-267.7898 -364.5426 1502.9149 -0.1376 0.7518 -0.6449 234 238 241
474.5963 -188.4256 784.9922 -0.1724 -0.3937 -0.9029 255 255 181
442.9611 -189.2718 799.4566 -0.1682 -0.4003 -0.9008 255 255 212
384.8871 -182.5869 755.5638 0.6706 0.1677 -0.7226 255 255 255
311.2223 -164.2351 684.7899 0.6658 -0.0178 -0.7460 255 255 255
268.6712 -161.9575 673.6607 -0.7000 0.0787 -0.7098 255 255 255
227.8977 -169.6907 710.9835 -0.5304 -0.0525 -0.8461 255 255 255
204.3029 -177.5070 739.3082 -0.6663 0.0179 -0.7455 255 255 255
174.1014 -181.1624 768.8994 -0.7114 -0.1486 -0.6869 255 255 229
147.6768 -191.2241 794.3093 -0.6838 0.1264 -0.7186 255 255 210
116.7713 -199.5317 827.5490 -0.6679 0.0767 -0.7403 255 239 231
55.3467 -215.1384 893.0212 -0.7622 0.1564 -0.6281 204 208 211
4.2813 -316.0495 1303.6025 0.5193 -0.2749 -0.8091 205 211 214
-118.9201 -330.3499 1370.8641 -0.6660 0.3852 -0.6388 220 226 229
400.4554 -184.7862 769.8337 0.6760 0.1109 -0.7285 255 255 255
321.9776 -164.5801 695.8997 0.6617 0.0080 -0.7497 255 255 255
273.4671 -158.7659 668.2139 -0.5590 0.0528 -0.8275 255 255 255
252.2906 -164.8138 690.2158 -0.7436 0.1024 -0.6608 255 255 255
210.7267 -174.4877 735.7565 -0.7311 0.1242 -0.6708 255 255 255
181.6172 -178.5127 759.8774 -0.6627 -0.0892 -0.7436 255 255 253
155.4837 -188.5208 792.0534 -0.5914 0.1075 -0.7991 255 255 216
124.0095 -194.9586 817.5101 -0.5995 0.0843 -0.7959 255 238 224
90.8600 -203.6041 854.9477 -0.7452 0.1423 -0.6515 209 216 218
-41.2057 -322.5469 1350.5015 0.2327 -0.1614 -0.9591 209 215 220
471.4582 -181.4609 782.3040 -0.6720 -0.4710 -0.5715 255 255 178
409.9095 -183.5769 780.9390 0.6548 0.0418 -0.7547 255 255 255
335.7849 -166.6137 705.8438 0.6356 0.0891 -0.7669 255 255 255
280.2896 -157.0246 666.7420 -0.2050 -0.0027 -0.9788 255 255 255
256.7289 -161.0147 684.6650 -0.7509 0.1075 -0.6516 255 255 255
233.9293 -166.9533 705.3683 -0.4727 -0.0683 -0.8786 255 255 255
162.9731 -185.2409 787.9785 -0.6937 0.0253 -0.7198 255 255 220
132.1592 -192.0858 814.8889 -0.6775 0.1105 -0.7272 255 247 219
99.3661 -200.5423 845.4507 -0.7387 0.1254 -0.6623 217 221 224
63.7259 -208.9321 881.0683 -0.7466 0.1021 -0.6574 222 229 231
-343.3104 -425.0128 1654.6558 0.0000 0.0000 0.0000 234 238 241
431.5018 -188.4282 795.0045 0.2695 0.1708 -0.9477 255 255 224
347.2973 -167.0484 714.6102 0.6623 0.1716 -0.7293 255 255 255
262.1528 -158.0769 678.5165 -0.7524 0.0986 -0.6513 255 255 255
240.2632 -164.2897 702.6458 -0.4852 -0.0041 -0.8744 255 255 255
215.6867 -169.9637 726.5901 -0.8416 0.1580 -0.5164 255 255 255
189.0347 -175.8518 751.0627 -0.6444 -0.0543 -0.7627 255 255 253
107.0146 -195.4545 838.8786 -0.7210 0.1292 -0.6807 229 231 232
72.7216 -205.1767 873.4719 -0.7060 -0.0139 -0.7081 205 211 214
-143.2412 -336.9067 1440.5898 -0.5494 0.8339 0.0529 219 225 230
-385.7701 -399.4681 1716.8408 -0.0183 -0.3319 -0.9431 227 233 238
463.3743 -181.6028 779.1708 0.0013 -0.5492 -0.8357 255 255 188
440.9338 -186.9233 800.7500 0.1288 0.0752 -0.9888 255 255 214
360.3974 -168.5286 731.5112 0.7553 0.1053 -0.6468 255 255 255
284.6885 -153.7242 661.7242 0.1644 0.0013 -0.9864 255 255 255
246.1541 -161.3546 698.5391 -0.6405 0.1707 -0.7488 255 255 255
222.3378 -167.4620 719.4623 -0.6798 0.1277 -0.7222 255 255 255
196.3557 -173.1854 746.7581 -0.5890 0.0283 -0.8076 255 255 253
168.0504 -179.3990 773.3315 -0.7554 -0.0357 -0.6543 255 255 223
139.1094 -187.5160 805.3745 -0.7708 0.0490 -0.6352 255 250 209
80.6660 -199.5473 866.3366 -0.7208 0.0077 -0.6931 218 224 226
44.2627 -286.1598 1231.1357 -0.8595 0.1865 -0.4760 214 220 223
-11.6570 -300.8260 1293.0540 0.2772 -0.5213 -0.8071 211 217 219
-202.9123 -346.9330 1461.9342 -0.5622 0.7767 -0.2842 218 224 226
-264.6972 -342.1949 1531.4062 -0.1087 0.6980 -0.7078 225 231 233
435.7589 -178.5203 793.1081 -0.1755 -0.1878 -0.9664 255 255 216
379.5780 -172.6864 752.6335 0.6929 0.0741 -0.7172 255 255 255
296.1746 -154.7582 669.9805 0.6471 0.0179 -0.7622 255 255 255
268.4936 -155.8311 674.8542 -0.7286 0.0872 -0.6793 255 255 255
202.8512 -170.2301 743.0740 -0.6294 0.0502 -0.7755 255 255 255
175.7816 -176.8765 771.8322 -0.7294 -0.0241 -0.6836 255 255 243
146.5904 -184.0792 798.2197 -0.7007 0.0310 -0.7128 255 255 219
114.2371 -190.4854 826.8347 -0.6900 0.1618 -0.7054 255 234 229
53.9946 -209.6019 898.7228 -0.8228 0.1765 -0.5402 222 229 231
3.3169 -293.4771 1290.0311 0.2187 -0.5976 -0.7714 190 195 202
-58.1557 -309.7249 1320.5815 0.5604 -0.3232 -0.7626 213 219 224
-124.8116 -322.9447 1411.9210 -0.8261 -0.0514 -0.5612 223 230 232
453.2605 -171.5851 763.2271 0.5167 -0.4126 -0.7502 255 255 185
397.2542 -175.9538 768.5925 0.6512 0.0715 -0.7555 255 255 255
321.2044 -157.7807 693.4324 0.6673 0.0552 -0.7427 255 255 255
307.7355 -155.8675 682.2570 0.6751 0.0499 -0.7360 255 255 255
271.9164 -151.7191 669.8604 -0.6435 0.0396 -0.7645 255 255 255
251.2000 -157.8612 692.6492 -0.7252 0.1884 -0.6623 255 255 255
222.5085 -158.8537 706.4792 -0.6014 0.1770 -0.7791 255 255 255
209.9868 -167.7425 740.7373 -0.7197 0.1529 -0.6773 255 255 255
182.5974 -173.6256 766.5505 -0.7368 0.0952 -0.6694 255 255 249
153.7455 -180.2579 792.6540 -0.6346 0.0009 -0.7728 255 255 216
122.4853 -187.2952 821.6138 -0.6322 0.1677 -0.7564 255 232 218
89.3905 -196.1312 858.2241 -0.7158 0.0044 -0.6983 217 221 224
-42.3178 -295.9544 1328.4769 0.5572 -0.3397 -0.7578 223 229 234
-340.5929 -383.1084 1635.1168 -0.4596 0.0019 -0.8881 231 235 238
409.6932 -176.2147 778.1924 0.6379 0.0282 -0.7696 255 255 247
334.1836 -159.1646 706.7469 0.6850 0.1373 -0.7155 255 255 255
277.8851 -149.3519 665.8501 -0.4412 0.0615 -0.8953 255 255 255
257.1218 -155.2320 687.8254 -0.7647 0.1510 -0.6264 255 255 255
231.1849 -158.6163 704.3687 -0.4185 0.1468 -0.8963 255 255 255
162.3197 -178.4561 790.3538 -0.6842 -0.0313 -0.7286 255 255 220
130.5928 -184.4772 818.3216 -0.6905 0.1565 -0.7062 255 242 220
97.4802 -191.9659 848.7175 -0.7249 0.0199 -0.6885 207 214 216
61.9245 -200.0033 883.6680 -0.7958 0.1768 -0.5792 208 214 219
427.1212 -178.7458 793.2383 0.4820 0.0474 -0.8749 255 255 227
346.6947 -160.2199 720.7834 0.6951 0.2422 -0.6769 255 255 255
263.1893 -152.6970 682.5670 -0.7748 0.1132 -0.6219 255 255 255
239.5894 -157.5607 705.0729 -0.4710 0.1715 -0.8653 255 255 255
214.5777 -162.9382 730.0707 -0.8146 0.1587 -0.5579 255 255 255
187.2563 -167.9667 756.1281 -0.7128 0.1313 -0.6890 255 255 247
138.6369 -181.6581 812.1934 -0.7636 0.1027 -0.6375 255 255 224
105.0378 -186.8207 841.1645 -0.7237 0.0662 -0.6869 225 229 232
70.9121 -196.2326 873.9431 -0.7506 0.1096 -0.6516 222 229 231
-284.5059 -329.0021 1533.2715 0.6814 -0.1647 -0.7131 225 229 232
439.1182 -178.5501 797.9014 0.1310 0.1279 -0.9831 255 255 214
363.2983 -163.2663 734.6201 0.7123 0.1716 -0.6806 255 255 255
283.6438 -146.9862 663.2658 0.1080 0.1023 -0.9889 255 255 255
245.8487 -154.9435 701.5337 -0.6672 0.1908 -0.7201 255 255 255
220.6612 -159.7407 723.7767 -0.6963 0.2175 -0.6840 255 255 255
194.6174 -165.5689 748.7591 -0.5833 0.1511 -0.7981 255 255 254
167.0924 -172.3886 779.2055 -0.7205 0.0313 -0.6927 255 255 216
78.8030 -190.6017 865.1317 -0.7313 0.0930 -0.6757 206 212 215
39.5981 -252.5433 1196.6812 0.4101 0.6306 -0.6589 232 238 240
442.9893 -174.4888 797.3286 0.0096 -0.0201 -0.9998 255 255 208
381.9799 -167.0045 754.5349 0.6913 0.0566 -0.7203 255 255 255
292.2857 -146.3501 668.3824 0.5796 0.1322 -0.8041 255 255 255
266.5628 -148.4611 675.6017 -0.7526 0.0866 -0.6527 255 255 255
229.6083 -158.9293 723.6472 -0.6374 0.3562 -0.6833 255 255 255
202.3630 -163.4804 746.7641 -0.5920 0.1111 -0.7982 255 255 255
173.5009 -168.2259 769.7525 -0.7021 0.0633 -0.7092 255 255 243
144.6127 -175.5857 799.3389 -0.7360 0.0610 -0.6743 255 255 225
113.1923 -183.5052 832.8225 -0.6535 0.1475 -0.7424 240 225 221
53.2271 -204.5815 900.3332 -0.8533 0.2495 -0.4578 226 232 235
-1.4624 -277.0359 1260.2041 -0.1611 -0.5583 -0.8139 188 196 200
-59.5390 -288.8270 1311.0970 0.3236 -0.0176 -0.9460 212 221 225
-124.7948 -302.8834 1389.5519 0.4006 -0.0940 -0.9114 230 237 239
-188.5046 -331.2270 1484.3013 0.1751 0.7954 -0.5802 225 231 235
-257.2209 -312.8638 1439.4916 -0.5616 0.8222 -0.0923 223 230 232
-348.0831 -352.4022 1675.8383 0.1130 0.9934 0.0180 231 235 238
393.2713 -166.7476 765.3257 0.6364 0.0390 -0.7704 255 255 255
318.1936 -149.6439 693.3376 0.6657 0.0835 -0.7415 255 255 255
306.3184 -148.7455 682.1678 0.6909 0.0965 -0.7165 255 255 255
272.1048 -145.7458 672.2773 -0.6074 0.0998 -0.7881 255 255 255
251.7264 -152.1010 696.2944 -0.7104 0.1960 -0.6760 255 255 255
209.4758 -161.0133 743.0700 -0.6988 0.0944 -0.7091 255 255 255
181.3319 -165.9320 764.1032 -0.7633 0.0672 -0.6426 255 255 245
151.4055 -171.1320 792.6165 -0.6630 0.0505 -0.7469 255 255 219
121.2917 -180.1705 827.4290 -0.6248 0.1295 -0.7700 255 237 225
87.2356 -186.8069 858.0510 -0.7008 0.1154 -0.7040 201 209 213
52.6523 -256.1018 1207.1831 0.6065 0.6955 -0.3852 228 234 237
12.9630 -282.6703 1253.2916 -0.2776 -0.7444 -0.6073 197 203 207
-47.6943 -292.8387 1317.3022 0.3560 -0.2651 -0.8961 230 237 239
-109.9159 -297.3553 1386.8978 -0.4569 -0.1002 -0.8839 228 234 239
435.2028 -165.3191 778.9585 0.2984 -0.4126 -0.8606 255 255 201
406.2422 -167.2272 775.7444 0.6336 0.0389 -0.7727 255 255 243
332.9609 -151.9844 705.3884 0.7102 0.0967 -0.6973 255 255 255
276.1958 -142.2277 665.1569 -0.4383 0.1568 -0.8850 255 255 255
256.3915 -148.5245 692.4401 -0.7245 0.2072 -0.6573 255 255 255
232.0179 -153.1008 709.6528 -0.5260 0.4044 -0.7482 255 255 255
129.7365 -177.2746 821.8191 -0.7082 0.0404 -0.7049 255 247 228
95.6706 -183.2968 850.3845 -0.7516 0.0812 -0.6546 226 230 233
60.0681 -192.9603 891.8928 -0.8450 0.2347 -0.4806 216 222 227
-33.3750 -288.4952 1279.8491 -0.4553 -0.2359 -0.8585 226 232 235
-332.3332 -365.3188 1540.7103 0.0000 0.0000 0.0000 228 232 236
422.7736 -169.2351 788.2200 0.5877 0.0229 -0.8088 255 255 222
345.1549 -152.8063 721.1507 0.7180 0.1461 -0.6806 255 255 255
261.4968 -145.3713 683.9890 -0.7858 0.1509 -0.5997 255 255 255
238.6070 -150.6628 706.6775 -0.5437 0.3323 -0.7707 255 255 255
214.3846 -156.6042 734.8849 -0.7479 0.0992 -0.6563 255 255 255
185.9560 -160.6249 758.4020 -0.7392 0.0760 -0.6692 255 255 248
159.1274 -168.6740 786.0267 -0.6532 0.0080 -0.7571 255 255 211
103.4814 -178.7649 843.3533 -0.7550 0.1048 -0.6473 216 220 223
69.0529 -189.6939 884.4828 -0.8260 0.2414 -0.5093 202 209 211
-92.2349 -282.2839 1375.1940 -0.7078 0.2452 -0.6625 220 226 231
-153.4921 -285.3798 1354.9209 0.5070 0.2800 -0.8152 230 237 239
435.0426 -169.1314 796.8026 0.3869 0.1370 -0.9119 255 255 210
363.3116 -156.3209 737.9117 0.7160 0.1523 -0.6813 255 255 255
283.1891 -140.6134 663.4857 0.0403 0.2820 -0.9586 255 255 255
245.3631 -148.5179 704.9708 -0.7138 0.1594 -0.6820 255 255 255
220.1551 -153.0611 728.9526 -0.5547 0.1594 -0.8166 255 255 255
194.0570 -158.8706 753.4075 -0.6000 0.0762 -0.7964 255 255 255
165.4579 -164.4691 780.4201 -0.7093 0.0855 -0.6997 255 255 214
136.1454 -172.0201 811.7541 -0.7463 0.0504 -0.6637 255 255 224
37.6332 -255.9700 1218.1991 0.2570 0.8540 -0.4523 226 232 235
-67.9408 -302.4139 1324.1504 0.0000 0.0000 0.0000 211 217 221
-74.5460 -272.1261 1324.1506 0.0880 -0.2631 -0.9607 221 227 232
-144.2271 -289.5004 1362.8037 0.5195 0.4707 -0.7131 227 233 236
-209.4451 -316.3353 1484.3013 0.3313 -0.3132 -0.8900 228 234 237
446.9342 -168.6973 801.0151 0.1335 -0.0540 -0.9896 255 255 197
375.3228 -156.6013 749.6541 0.6978 0.0986 -0.7095 255 255 255
292.0745 -140.0807 667.7617 0.5134 0.1952 -0.8356 255 255 255
265.3390 -141.5345 677.9540 -0.8093 0.1468 -0.5688 255 255 255
226.1481 -149.6936 723.3920 -0.5463 0.3554 -0.7585 255 255 255
201.1617 -156.1329 748.6814 -0.5984 0.0533 -0.7994 255 255 255
173.3168 -162.0512 777.8651 -0.7230 0.1263 -0.6792 255 255 238
144.0504 -168.9192 807.0339 -0.7010 0.0671 -0.7100 255 255 225
110.8523 -174.0459 835.4534 -0.6020 0.0953 -0.7928 236 225 224
77.4653 -183.5403 869.9344 -0.7664 0.1894 -0.6138 200 207 209
52.4467 -261.8275 1236.4299 0.6335 0.6449 -0.4276 225 231 233
-5.0553 -275.3641 1242.7377 -0.3596 -0.3935 -0.8461 208 216 220
-16.2875 -253.8975 1238.5444 0.1762 0.0458 -0.9833 195 202 204
-128.8632 -288.0929 1385.3727 0.1698 0.4486 -0.8775 233 239 241
-270.2810 -307.4996 1482.6187 -0.4309 0.3079 -0.8483 228 234 237
-376.6575 -358.3771 1744.4033 0.6791 -0.0298 -0.7335 235 239 243
451.6360 -165.1238 796.0186 0.0583 -0.0912 -0.9941 255 255 187
390.7134 -158.3426 763.0488 0.6445 0.0247 -0.7642 255 255 247
305.6528 -142.0866 682.3109 0.6789 0.0404 -0.7331 255 255 255
270.7455 -138.8069 673.1478 -0.6399 0.2514 -0.7262 255 255 255
249.4457 -144.2779 695.7812 -0.7034 0.0928 -0.7047 255 255 255
179.8246 -158.2704 766.4038 -0.7797 0.1637 -0.6044 255 255 240
149.9517 -163.4088 795.0530 -0.7302 0.1619 -0.6638 255 255 215
119.9022 -172.5359 833.0250 -0.6017 0.0862 -0.7941 255 235 225
85.6504 -178.7646 862.8185 -0.7058 0.2314 -0.6695 223 227 230
-116.4849 -287.0064 1389.4508 -0.4519 0.2904 -0.8435 229 235 240
-193.2719 -313.2800 1508.0884 0.3313 -0.3132 -0.8900 228 232 238
-265.6339 -318.9300 1500.7046 -0.5168 0.2665 -0.8136 228 232 236
403.0725 -158.4398 774.3307 0.6354 0.0606 -0.7698 255 255 231
316.6922 -142.4372 692.5815 0.6624 -0.0020 -0.7491 255 255 255
276.8721 -136.5847 670.6836 -0.4198 0.3374 -0.8426 255 255 255
255.2487 -141.4969 693.6187 -0.6966 0.0879 -0.7121 255 255 255
233.5869 -148.0499 721.7430 -0.6117 0.2721 -0.7428 255 255 255
205.9597 -151.6063 742.6230 -0.6477 0.0176 -0.7617 255 255 255
159.8558 -163.3223 793.3457 -0.7164 0.1877 -0.6720 255 255 210
128.3035 -169.5345 823.6089 -0.7134 -0.0673 -0.6975 255 245 226
94.6950 -176.7169 858.7381 -0.7505 0.1827 -0.6352 223 230 230
58.6159 -186.4595 901.1227 -0.8055 0.2417 -0.5411 216 223 223
8.8494 -252.0398 1209.3472 0.0760 0.9866 -0.1442 223 230 232
-48.1065 -260.3504 1282.0701 0.1651 0.3053 -0.9379 223 230 232
-55.8691 -236.6611 1289.6345 0.1058 0.5296 -0.8416 212 218 221
444.3030 -156.6582 784.7238 0.3781 -0.2365 -0.8950 255 255 187
421.2671 -161.0936 788.4189 0.5936 0.0960 -0.7990 255 255 214
341.8438 -144.3159 718.4182 0.7349 0.1099 -0.6693 255 255 255
326.6090 -142.1186 701.7139 0.6635 -0.0213 -0.7479 255 255 255
262.8216 -140.0312 691.4973 -0.7733 0.1076 -0.6248 255 255 255
238.4476 -144.3329 712.4539 -0.6826 0.2344 -0.6922 255 255 255
212.4620 -148.5878 734.5837 -0.6660 0.0104 -0.7459 255 255 255
185.7442 -154.2433 759.7817 -0.7358 0.1710 -0.6552 255 255 255
67.2049 -179.8422 886.3025 -0.8198 0.2636 -0.5083 200 208 212
-34.3185 -255.1128 1277.1636 -0.4098 -0.3611 -0.8377 185 191 196
-166.4668 -289.5798 1418.7611 -0.7138 0.5060 -0.4843 227 233 236
-293.2098 -301.8006 1495.5796 0.1988 0.3743 -0.9058 231 235 238
-503.9501 -365.5238 1719.4385 0.0000 0.0000 0.0000 229 236 238
453.1672 -155.1338 773.1692 -0.0689 0.3746 -0.9246 255 249 188
430.1541 -159.4221 796.3504 0.5141 0.1456 -0.8453 255 255 206
359.1310 -147.2853 734.4503 0.6693 0.1367 -0.7303 255 255 255
281.5459 -133.6086 667.9426 -0.0453 0.4203 -0.9062 255 255 255
244.1961 -141.2558 706.1965 -0.7705 0.2049 -0.6035 255 255 255
220.5497 -147.0647 733.2388 -0.6081 0.0340 -0.7931 255 255 255
192.1347 -150.7672 754.6878 -0.6263 0.1248 -0.7695 255 255 255
164.0622 -156.5782 782.5274 -0.6640 0.1806 -0.7256 255 255 212
133.2539 -162.0753 810.0345 -0.7155 -0.0617 -0.6958 255 255 228
101.4433 -169.9192 843.2578 -0.7748 0.1090 -0.6227 220 224 228
-20.6139 -255.3156 1262.3730 -0.3964 0.2737 -0.8763 200 207 209
-78.4012 -256.2458 1279.6963 -0.3755 0.6900 -0.6188 220 226 231
-147.1427 -280.4600 1398.7650 -0.0758 0.8504 -0.5206 230 237 239
-288.3543 -310.0237 1548.6554 -0.6854 0.5941 -0.4211 227 233 236
472.6416 -157.7539 783.6650 0.3869 0.3532 -0.8518 255 242 193
445.7677 -160.5135 801.4554 0.2127 0.2896 -0.9332 255 255 194
288.9089 -132.2686 669.6913 0.3702 0.3098 -0.8758 255 255 255
264.7611 -135.0046 679.4512 -0.7963 0.1234 -0.5921 255 255 255
225.6749 -143.1083 724.9111 -0.5125 0.0901 -0.8540 255 255 255
199.3012 -148.0126 749.1636 -0.6758 0.1274 -0.7260 255 255 255
172.3333 -154.7220 780.9678 -0.7034 0.1674 -0.6908 255 255 236
142.4172 -161.0128 809.0364 -0.6283 -0.0008 -0.7780 255 255 223
109.7828 -166.5649 837.3652 -0.6292 0.0700 -0.7741 235 228 228
75.7258 -174.5356 875.4824 -0.7988 0.2608 -0.5422 226 232 237
-8.3499 -252.9997 1265.2723 0.4762 0.1724 -0.8623 215 222 224
-139.6926 -290.1798 1431.8644 -0.4838 0.3805 -0.7882 229 236 238
-379.8953 -339.5061 1671.7926 -0.2772 0.4323 -0.8581 232 236 239
-452.5987 -335.3237 1699.1655 0.0000 0.0000 0.0000 234 240 243
389.0138 -150.3382 763.7411 0.6451 0.0590 -0.7618 255 255 236
362.3600 -143.4746 742.9554 0.6972 0.1230 -0.7062 255 255 248
300.7350 -133.0501 677.5854 0.5830 0.1591 -0.7967 255 255 255
269.6325 -131.9032 675.1832 -0.5880 0.2568 -0.7670 255 255 255
248.2238 -137.1451 698.7325 -0.7004 0.1228 -0.7031 255 255 255
237.2497 -144.3043 726.7036 -0.5982 0.0482 -0.7999 255 255 255
179.9400 -152.0547 773.7800 -0.7888 0.1378 -0.5990 255 255 250
149.7946 -157.6314 803.6530 -0.7022 0.0665 -0.7089 255 255 221
117.5923 -162.8021 831.7064 -0.6561 0.0008 -0.7547 255 234 223
83.9330 -170.4268 866.7571 -0.7281 0.2636 -0.6328 220 226 231
63.9483 -254.1124 1268.5607 0.7549 0.4289 -0.4961 223 230 232
47.1222 -247.9416 1236.4299 0.6866 0.5326 -0.4949 220 226 229
-58.9574 -275.5975 1353.4591 0.3996 0.7760 -0.4879 226 232 235
-64.5505 -248.8954 1274.7729 0.1058 0.5296 -0.8416 214 220 223
-121.1423 -280.2324 1418.6002 -0.5738 0.4121 -0.7077 208 214 219
-194.1872 -292.8132 1472.3815 -0.3527 -0.4718 -0.8081 232 238 240
402.8074 -151.0249 773.5540 0.6424 0.0421 -0.7652 255 255 220
313.5162 -134.2498 688.5842 0.6553 0.0245 -0.7550 255 255 255
274.9328 -129.2909 673.1350 -0.3832 0.3173 -0.8675 255 255 255
255.3741 -135.3290 695.3709 -0.6721 0.1401 -0.7271 255 255 255
204.3313 -143.9738 743.0184 -0.6732 0.1269 -0.7285 255 255 255
127.4672 -162.3235 826.4268 -0.7449 -0.0275 -0.6666 255 244 228
92.6741 -168.1859 862.8547 -0.7474 0.2627 -0.6102 214 215 219
56.6827 -177.1420 902.1982 -0.7908 0.1719 -0.5874 225 231 233
-41.9347 -276.2758 1372.8854 -0.3230 0.1779 -0.9295 201 207 212
-109.4003 -282.9488 1423.2485 -0.4873 0.1451 -0.8611 230 236 241
-178.2336 -287.6409 1460.0856 -0.4101 0.3925 -0.8233 225 231 235
-362.0579 -332.7359 1581.3975 0.0000 0.0000 0.0000 233 239 241
451.6220 -152.1790 790.3828 -0.3073 0.1592 -0.9382 255 254 191
417.2225 -151.8614 785.8122 0.6323 0.0705 -0.7715 255 255 210
343.4433 -138.3873 719.9553 0.7606 0.0818 -0.6440 255 255 255
324.8681 -134.6678 698.0783 0.6507 0.0179 -0.7591 255 255 255
286.4937 -130.1548 674.0984 -0.0934 0.2423 -0.9657 255 255 255
259.8189 -131.9089 690.7122 -0.7647 0.1055 -0.6357 255 255 255
237.5138 -137.2684 716.8044 -0.7669 -0.0331 -0.6409 255 255 255
212.1326 -141.9464 739.6547 -0.6609 0.1187 -0.7410 255 255 255
183.8421 -146.1927 761.2663 -0.7455 0.1886 -0.6392 255 255 255
155.9802 -152.5340 793.1992 -0.6947 0.1709 -0.6987 255 255 211
65.7053 -172.8347 899.0022 -0.7942 0.1761 -0.5815 222 229 231
-155.7429 -276.1525 1443.3917 -0.4688 0.3443 -0.8134 233 239 241
-241.6090 -280.3760 1503.3940 -0.7106 0.5788 -0.4000 228 234 237
-316.6981 -304.6511 1588.6504 -0.6050 0.3215 -0.7285 225 231 233
-541.9009 -370.7302 1828.6514 0.0000 0.0000 0.0000 231 235 238
454.9979 -148.4501 780.0471 0.0689 0.2862 -0.9557 255 242 190
429.9429 -151.7272 797.1155 0.5584 0.2398 -0.7941 255 255 201
356.2346 -139.0127 732.3987 0.6823 0.2318 -0.6934 255 255 245
243.2079 -134.3173 707.8228 -0.7927 0.1201 -0.5977 255 255 255
218.2449 -138.8527 733.0136 -0.7014 0.0773 -0.7086 255 255 255
191.5862 -143.9133 759.3862 -0.6639 0.2408 -0.7080 255 255 255
163.3278 -149.6777 787.6392 -0.6318 0.1903 -0.7514 255 255 207
131.7635 -153.9650 811.1304 -0.6640 0.0108 -0.7476 255 255 228
100.6174 -162.9068 852.2136 -0.7930 0.1911 -0.5784 212 219 219
-86.8203 -257.2002 1349.9070 0.0606 0.2858 -0.9564 213 219 222
-408.1682 -332.4226 1761.6368 -0.2488 0.9008 -0.3560 232 236 239
466.7282 -147.8876 783.9104 0.4240 0.1442 -0.8941 255 224 187
450.8874 -154.9264 805.6673 0.2226 0.5352 -0.8149 255 255 187
370.5017 -140.2769 746.8421 0.6626 0.1641 -0.7308 255 255 236
289.7640 -126.5028 670.9100 0.3285 0.2179 -0.9190 255 255 255
264.4130 -128.4866 685.0752 -0.7873 0.1126 -0.6062 255 255 255
223.7393 -135.3765 728.6022 -0.5451 -0.0749 -0.8350 255 255 255
198.3926 -141.0691 751.6590 -0.6912 0.2340 -0.6838 255 255 255
170.7088 -146.7386 782.4175 -0.6938 0.1985 -0.6923 255 255 245
140.5498 -152.4522 809.7461 -0.5918 0.0667 -0.8033 255 255 222
108.1582 -158.5930 839.8193 -0.7178 0.2047 -0.6655 227 227 227
74.5018 -168.2522 884.7792 -0.8020 0.1902 -0.5663 227 233 236
-11.4768 -256.6840 1358.9265 0.5288 0.8476 0.0444 207 213 218
-74.5516 -262.4694 1346.7864 0.0373 0.5029 -0.8635 229 236 238
-143.1802 -273.1373 1443.0596 -0.5423 0.1318 -0.8298 218 224 228
-205.3319 -269.7469 1473.4092 -0.4184 0.0341 -0.9076 226 232 235
-288.7257 -288.6154 1592.2191 -0.1740 0.2943 -0.9397 235 241 244
-366.7607 -307.7714 1625.9004 -0.2505 0.1442 -0.9573 229 236 238
-492.5348 -340.2401 1788.2031 -0.0957 0.0341 -0.9948 237 244 246
483.8531 -149.2253 792.1088 0.2981 -0.0295 -0.9541 255 209 174
452.8923 -150.3360 807.5438 0.0479 0.4206 -0.9060 255 252 188
383.5874 -140.6876 759.0751 0.6160 0.0601 -0.7855 255 255 227
299.3058 -125.9959 677.7741 0.5533 0.1068 -0.8261 255 255 255
270.9085 -126.4388 678.6849 -0.5780 0.2488 -0.7772 255 255 255
248.5922 -131.1740 702.4583 -0.7049 0.1483 -0.6936 255 255 255
147.7674 -148.8358 803.6083 -0.6662 0.0823 -0.7412 255 255 214
116.2412 -154.9551 835.3618 -0.6982 0.1920 -0.6897 255 237 231
82.6114 -162.9599 871.9849 -0.7328 0.2422 -0.6359 211 217 219
3.7970 -241.2539 1303.5916 -0.1093 -0.5050 -0.8562 224 233 235
-58.9127 -257.5200 1380.9799 0.1168 -0.0974 -0.9884 206 212 215
-192.6369 -268.3266 1451.7003 -0.2947 -0.0664 -0.9533 229 236 238
-282.5465 -294.7964 1600.6528 0.5360 0.2683 -0.8005 231 235 238
397.9389 -141.5782 771.3187 0.6327 0.0445 -0.7731 255 255 216
310.6330 -126.3868 686.8399 0.6419 0.0863 -0.7619 255 255 255
275.7707 -123.5219 675.2896 -0.3663 0.2132 -0.9058 255 255 255
253.6873 -127.9736 697.1313 -0.6647 0.2184 -0.7144 255 255 255
231.4604 -133.8208 727.0075 -0.5350 -0.0569 -0.8429 255 255 255
203.7959 -137.1030 746.1795 -0.6730 0.2448 -0.6979 255 255 255
176.7566 -142.6393 774.9457 -0.7915 0.1506 -0.5923 255 255 255
90.6633 -158.4274 863.8965 -0.7248 0.2528 -0.6409 220 224 228
-115.2042 -246.6121 1410.0483 -0.3436 -0.0716 -0.9364 228 234 237
-185.7705 -280.9519 1456.2911 -0.3613 0.0072 -0.9324 229 236 238
-265.1201 -290.5972 1581.6932 -0.3178 0.2329 -0.9191 228 234 237
-328.3697 -285.0672 1584.7831 -0.6440 0.4596 -0.6116 229 236 238
-405.5883 -289.4417 1636.9985 -0.2126 0.7434 -0.6342 233 239 241
481.6608 -143.5053 795.6385 -0.0257 -0.3945 -0.9185 255 204 170
414.4471 -143.1557 782.4907 0.6527 0.1076 -0.7500 255 255 204
322.2431 -126.8296 696.9532 0.6455 0.0883 -0.7586 255 255 255
284.1570 -122.5458 675.2784 -0.1983 0.1256 -0.9721 255 255 255
259.1689 -125.1422 692.3166 -0.7128 0.2476 -0.6562 255 255 255
236.0614 -129.7542 719.2739 -0.6612 -0.1221 -0.7402 255 255 255
211.0738 -134.7226 742.8509 -0.6618 0.2261 -0.7147 255 255 255
183.5139 -139.3254 767.6085 -0.7640 0.1181 -0.6343 255 255 255
154.3649 -144.6123 795.7790 -0.6622 0.1481 -0.7345 255 255 210
123.0251 -150.3364 825.3450 -0.7559 0.1283 -0.6420 255 244 232
99.1767 -155.4052 858.9011 -0.7988 0.2141 -0.5622 221 227 230
64.1525 -164.9020 900.9294 -0.7581 0.0814 -0.6470 226 232 235
16.8702 -233.9127 1267.3462 -0.7598 0.2134 -0.6141 218 224 228
-28.0579 -246.9986 1360.4756 -0.2550 -0.2827 -0.9247 198 204 209
-259.5113 -298.6775 1582.5721 -0.6255 0.2752 -0.7301 233 239 241
-336.2256 -301.3294 1604.2975 -0.5213 0.5744 -0.6312 232 236 239
-427.2756 -311.5132 1682.1489 0.7725 -0.5823 -0.2533 235 239 243
431.3501 -144.6949 798.3845 0.6070 0.2234 -0.7626 255 255 196
354.9924 -131.5642 734.8974 0.7186 0.0608 -0.6928 255 255 233
335.2145 -127.7416 708.0134 0.6949 0.0343 -0.7183 255 255 243
241.9820 -127.0005 709.9583 -0.7632 0.0302 -0.6455 255 255 255
216.8576 -131.4232 735.8032 -0.7424 0.1216 -0.6589 255 255 255
190.3775 -136.3511 761.3089 -0.6984 0.1650 -0.6964 255 255 255
162.0974 -142.0173 791.4901 -0.6365 0.2240 -0.7380 255 255 210
130.8607 -147.0963 817.0840 -0.7268 0.1731 -0.6647 255 247 223
29.1139 -217.6427 1229.8220 -0.5187 0.0067 -0.8550 215 222 224
-155.4536 -253.2475 1440.3475 -0.0913 0.0589 -0.9941 232 238 242
-414.8129 -313.5587 1809.7910 -0.9347 0.2988 -0.1927 230 237 239
-482.0150 -305.9138 1790.0601 -0.5445 0.3181 -0.7761 232 238 242
473.1157 -142.5762 786.5002 0.4241 0.2091 -0.8811 243 180 149
451.1251 -147.2040 814.4645 0.3632 0.3564 -0.8609 255 254 191
374.1433 -134.7360 753.8356 0.5802 0.0533 -0.8128 255 255 227
286.9383 -118.6853 669.9497 0.1819 0.1130 -0.9768 255 255 255
263.1940 -121.4681 685.4116 -0.7635 0.2402 -0.5995 255 255 255
198.5975 -134.6848 757.1087 -0.6824 0.1365 -0.7181 255 255 255
169.8869 -139.4906 788.0078 -0.7416 0.1462 -0.6548 255 255 253
138.8328 -144.1207 810.6255 -0.6561 0.1825 -0.7322 255 255 222
106.3942 -149.4674 846.5132 -0.7839 0.1698 -0.5972 228 233 234
72.7423 -159.7708 888.9800 -0.7957 0.1079 -0.5960 206 212 217
42.0000 -226.7177 1237.9028 0.2082 -0.3481 -0.9140 212 218 221
-15.2234 -239.9190 1308.0044 -0.4670 -0.1216 -0.8759 221 227 232
-150.6774 -265.1640 1441.9679 -0.5006 0.1172 -0.8577 207 215 219
-299.8785 -279.1155 1565.5649 0.1973 0.3525 -0.9148 233 237 240
-417.8560 -326.4651 1819.0980 -0.8552 -0.1550 -0.4945 232 238 240
-494.5509 -320.9513 1868.6680 0.5857 -0.4044 -0.7025 230 237 239
477.0052 -139.0763 788.5969 0.3641 0.1335 -0.9218 228 171 145
453.8254 -142.9153 812.1729 0.3029 0.1390 -0.9428 255 241 187
381.3453 -132.4841 757.8641 0.5801 0.0142 -0.8144 255 255 218
297.5165 -118.8712 677.2425 0.5095 0.1237 -0.8516 255 255 255
267.8847 -118.3987 681.5096 -0.6702 0.2372 -0.7033 255 255 255
247.7129 -124.2097 705.7380 -0.7041 0.1788 -0.6872 255 255 255
222.7270 -128.2452 727.3967 -0.6371 0.0317 -0.7701 255 255 255
114.3249 -146.0700 837.8772 -0.7445 0.1655 -0.6467 255 237 232
80.9301 -154.4863 878.6338 -0.7585 0.2085 -0.6174 213 219 222
-132.0875 -255.7696 1418.4066 -0.3555 -0.5183 -0.7778 229 236 238
-198.8183 -257.6717 1469.6348 -0.4629 0.0576 -0.8845 229 236 238
-288.4318 -280.7298 1593.2882 0.3977 0.4694 -0.7883 233 239 241
-399.7198 -322.4612 1728.9259 -0.8723 0.4210 -0.2487 230 237 239
452.8185 -137.4331 804.5610 -0.1285 -0.0820 -0.9883 255 238 194
394.5650 -132.8205 767.8107 0.6689 -0.0074 -0.7434 255 255 212
309.0776 -119.2188 686.4284 0.6360 0.1324 -0.7602 255 255 255
274.2025 -116.3286 679.2584 -0.5421 0.1321 -0.8299 255 255 255
252.3868 -120.7695 701.0975 -0.6334 0.2753 -0.7232 255 255 255
226.6647 -123.9113 719.7886 -0.5513 0.0912 -0.8293 255 255 255
203.4377 -130.4512 750.3450 -0.6340 0.1389 -0.7608 255 255 255
176.4879 -135.9444 778.4326 -0.7875 0.0986 -0.6084 255 255 255
146.0069 -140.4070 804.7042 -0.6757 0.1480 -0.7222 255 255 210
124.1563 -145.7529 836.9417 -0.7236 0.1644 -0.6704 255 244 230
89.5307 -151.4890 871.7070 -0.7268 0.2292 -0.6475 216 223 225
53.5747 -206.8892 1215.0903 -0.6162 -0.1002 -0.7811 218 224 226
0.6948 -222.9464 1298.0038 -0.3463 0.0164 -0.9380 221 227 230
-184.4473 -256.3667 1447.0381 0.0351 -0.4362 -0.8991 230 236 241
-270.5666 -275.5412 1629.7223 0.2811 0.5334 -0.7978 230 236 241
476.7626 -134.2358 778.5168 0.4027 -0.1915 -0.8951 235 190 173
411.3988 -134.4161 782.8879 0.6753 0.0768 -0.7336 255 255 208
321.1654 -119.7605 697.4758 0.6477 0.1126 -0.7535 255 255 241
259.4864 -118.9490 697.6649 -0.6947 0.3018 -0.6530 255 255 255
236.7684 -123.8106 720.1812 -0.6333 0.0065 -0.7739 255 255 255
210.4754 -127.8145 746.9316 -0.6501 0.1547 -0.7439 255 255 255
182.1644 -131.8719 770.9421 -0.7231 0.0777 -0.6864 255 255 255
153.9624 -137.9441 801.8438 -0.6174 0.1742 -0.7671 255 255 208
97.8196 -147.7662 864.0381 -0.7775 0.1988 -0.5966 223 230 232
61.8562 -154.9945 902.9700 -0.7196 0.0327 -0.6936 204 210 214
12.8401 -223.2676 1305.0374 -0.0825 0.1571 -0.9841 228 234 239
-46.3484 -234.5547 1357.4048 -0.3947 -0.3271 -0.8586 195 204 205
-333.3122 -277.2585 1650.8385 0.6775 0.3740 -0.6334 233 239 244
-422.4350 -287.2556 1640.9740 0.4373 -0.5908 -0.6780 232 238 240
447.2627 -130.5779 799.5617 -0.2372 0.0393 -0.9707 255 232 193
426.2621 -135.0322 799.0677 0.6719 0.0030 -0.7407 255 255 198
382.5712 -131.0092 754.1888 0.5777 -0.0552 -0.8144 255 255 218
351.2253 -122.9609 727.2321 0.7202 -0.1407 -0.6793 255 255 222
333.3887 -120.2144 707.8025 0.6826 0.0892 -0.7253 255 255 229
281.5569 -114.8888 676.7519 -0.3818 0.0825 -0.9206 255 255 255
240.7186 -119.7741 712.7343 -0.7596 0.0718 -0.6465 255 255 255
215.8868 -124.2605 739.6363 -0.7764 0.1070 -0.6211 255 255 255
189.1934 -129.0640 764.1299 -0.6996 0.0484 -0.7129 255 255 255
161.4345 -134.9320 796.8658 -0.5917 0.2115 -0.7779 255 255 216
129.7798 -139.2603 821.0341 -0.7155 0.1992 -0.6697 255 249 221
26.7417 -214.8820 1253.8817 -0.5561 0.2528 -0.7918 219 225 228
-31.1585 -229.4041 1327.3969 -0.6962 -0.2576 -0.6700 229 236 238
-93.7828 -232.9370 1371.0137 0.3313 -0.1746 -0.9272 205 216 219
