ply
format ascii 1.0
element vertex 751
property float x
property float y
property float z
property float nx
property float ny
property float nz
property uchar red
property uchar green
property uchar blue
end_header
-128.3702 -353.4791 1158.5221 -0.3231 -0.0724 -0.9436 174 176 180
-182.7980 -384.5438 1205.8351 -0.1092 -0.3567 -0.9278 227 229 230
-182.0243 -357.9662 1177.3516 0.0162 0.9242 -0.3816 224 226 230
-535.9340 -437.6375 1588.3424 0.0000 0.0000 0.0000 217 219 223
-778.1837 -520.3983 1707.7588 0.0000 0.0000 0.0000 209 210 217
417.7222 -230.4224 753.6660 -0.1979 -0.0218 -0.9800 168 163 167
403.7829 -243.3917 799.9539 -0.0469 -0.2386 -0.9700 161 158 161
363.5166 -239.0640 785.1660 -0.0353 -0.6678 -0.7435 224 222 222
357.2314 -253.3491 822.6045 -0.0969 -0.5551 -0.8261 194 191 194
319.6531 -251.7435 831.5081 -0.5854 -0.4855 -0.6493 247 245 246
254.0453 -260.4148 882.0148 -0.5528 -0.2980 -0.7782 246 246 246
249.0747 -288.9817 940.0583 0.0034 -0.4393 -0.8984 208 208 210
82.5959 -309.7104 1019.7520 -0.3184 0.1714 -0.9323 175 177 183
25.8491 -315.9172 1068.2184 -0.3329 0.0432 -0.9420 225 224 227
-693.4661 -523.4227 1637.0181 0.0000 0.0000 0.0000 193 194 198
-802.4938 -544.0322 1746.8602 0.0000 0.0000 0.0000 207 209 210
452.3727 -225.2713 751.3438 -0.1730 0.2843 -0.9430 209 206 207
401.7350 -234.5512 789.5850 -0.1999 -0.2541 -0.9463 249 249 247
376.4467 -240.6981 797.7399 0.1223 -0.4911 -0.8625 205 205 205
295.6685 -253.4725 850.1398 -0.3934 -0.3520 -0.8493 129 129 129
266.6953 -262.3567 872.3347 0.1016 -0.2550 -0.9616 155 152 158
165.1611 -292.0686 976.0939 -0.4076 0.2531 -0.8774 192 191 196
123.7429 -297.1078 991.3010 -0.5044 0.2156 -0.8361 144 144 146
0.0872 -335.5711 1093.0675 -0.2297 -0.4779 -0.8479 157 161 165
-10.0733 -319.4828 1092.1964 -0.1069 -0.5686 -0.8157 179 180 184
-227.9189 -379.1653 1247.2246 0.0223 0.1991 -0.9797 208 210 214
-291.7694 -388.5425 1327.3374 -0.5230 0.2617 -0.8111 164 168 174
470.3602 -229.0337 742.3102 -0.3684 -0.4926 -0.7885 163 158 157
421.6850 -226.3091 751.6170 -0.1426 -0.2797 -0.9494 159 156 159
416.2290 -236.6229 783.2103 -0.3648 -0.3504 -0.8627 152 147 149
413.8763 -250.5330 820.5623 0.5486 -0.3652 -0.7521 114 109 113
381.7715 -236.7321 808.1170 0.0539 -0.4174 -0.9071 206 204 207
351.1982 -239.5800 803.4050 -0.2075 -0.6507 -0.7305 165 165 167
320.4799 -243.1564 812.6976 -0.3354 -0.3508 -0.8744 151 151 151
246.4016 -271.8979 901.7859 -0.3229 -0.3071 -0.8952 147 146 151
228.9120 -287.3231 951.0486 0.3876 0.0751 -0.9188 150 151 155
209.6844 -276.4880 926.8690 0.2955 0.6226 -0.7246 168 167 172
176.4472 -291.2902 967.9914 -0.4297 0.1878 -0.8832 204 203 206
134.7709 -296.3946 988.7554 -0.4266 0.0766 -0.9012 212 211 214
91.9093 -300.3333 1015.4044 -0.3294 0.1731 -0.9282 212 211 214
-214.1658 -375.8858 1194.4731 -0.5276 0.5330 -0.6615 181 185 188
-271.8343 -379.3651 1283.1158 -0.7986 0.4808 -0.3620 217 221 224
-602.7625 -464.8562 1561.4092 -0.7122 0.3175 -0.6261 220 222 223
424.0099 -220.9380 742.0943 0.0927 -0.2742 -0.9572 128 126 129
359.8165 -237.5783 796.5731 -0.4310 -0.6375 -0.6387 212 210 211
329.0369 -240.9978 807.1581 -0.0085 -0.2968 -0.9549 199 199 199
300.9320 -247.8515 836.7820 -0.6194 -0.3301 -0.7123 169 168 171
293.4814 -267.1794 895.2073 -0.0186 -0.7505 -0.6607 190 187 191
253.0621 -265.3098 895.9778 -0.0927 -0.2758 -0.9567 165 162 165
147.6929 -299.6022 996.1976 -0.3280 0.2698 -0.9053 165 165 167
104.0918 -304.6248 1022.5163 -0.5211 -0.0251 -0.8531 221 221 223
58.3973 -301.2581 1028.1156 -0.5200 0.2393 -0.8200 213 214 218
12.6821 -320.4789 1083.1854 -0.1829 -0.0998 -0.9781 186 185 190
-36.0972 -323.6592 1089.0752 -0.3751 -0.2872 -0.8814 252 254 255
-88.4483 -336.6597 1136.1903 -0.6064 0.3758 -0.7007 211 215 218
-145.6602 -349.0411 1174.3203 -0.1230 0.5338 -0.8366 221 223 224
-605.5507 -475.4093 1565.8463 -0.6671 -0.1320 -0.7332 195 197 199
483.7674 -223.7669 728.8264 0.0000 0.0000 0.0000 0 0 0
463.8998 -219.7077 728.8264 -0.2618 -0.6609 -0.7033 136 131 135
412.0911 -227.0210 766.9089 -0.5169 -0.5472 -0.6583 106 104 107
409.9630 -240.1064 806.6708 0.0599 -0.5549 -0.8298 254 254 254
337.0939 -238.4762 807.5613 -0.1578 -0.3453 -0.9251 197 194 198
309.5132 -245.7497 832.6096 -0.5628 -0.2162 -0.7978 179 179 179
301.8034 -263.2164 881.1507 -0.5394 -0.7374 -0.4066 218 217 220
228.5175 -270.7984 936.7156 0.2624 -0.3203 -0.9103 175 174 177
153.6540 -286.1142 982.6964 -0.2177 -0.0554 -0.9744 163 163 165
113.5006 -298.3634 1005.6691 -0.5434 -0.2529 -0.8005 221 223 224
70.3384 -303.1043 1035.4191 -0.2986 0.3783 -0.8762 193 192 197
24.3827 -323.0330 1092.5778 0.0000 0.0000 0.0000 213 212 217
-24.8845 -321.0574 1091.3928 -0.2620 -0.3730 -0.8901 154 156 160
-74.7683 -322.9897 1128.9314 -0.2554 0.7146 -0.6512 188 190 192
-187.6177 -351.8755 1192.6426 -0.4929 0.4120 -0.7663 180 181 188
-250.7532 -379.9171 1220.8522 0.3993 -0.6135 -0.6813 217 221 224
-245.6905 -355.4165 1215.9015 0.2444 -0.2251 -0.9432 190 192 194
421.0616 -225.6631 759.7149 -0.4799 -0.4282 -0.7658 144 139 143
354.8473 -225.8179 778.0214 -0.0499 -0.4381 -0.8976 152 154 156
322.1529 -246.9809 833.2824 -0.6520 -0.2014 -0.7310 194 191 192
253.7301 -253.7094 882.0150 0.0000 0.0000 0.0000 149 149 151
169.2218 -292.9445 994.4747 -0.2227 0.2128 -0.9514 152 152 155
82.7881 -307.9821 1038.3011 -0.3335 0.3814 -0.8622 239 238 241
-66.0184 -337.2736 1143.7100 -0.3190 -0.1779 -0.9309 173 175 179
-181.1132 -359.2478 1235.6594 -0.1558 -0.6657 -0.7297 244 246 248
-863.7291 -562.1934 1734.2260 0.0000 0.0000 0.0000 170 171 175
405.6392 -230.0726 791.8879 -0.0678 -0.3091 -0.9486 199 197 198
372.3652 -230.5744 784.2037 0.2536 -0.2526 -0.9338 239 239 239
339.9388 -232.2928 795.7234 -0.3742 -0.4468 -0.8126 166 166 168
290.6761 -241.6799 844.5353 -0.5917 -0.0890 -0.8012 148 145 149
267.1708 -256.4025 875.6865 -0.0951 -0.3654 -0.9260 254 253 255
232.7419 -261.7397 904.6250 -0.6908 -0.3821 -0.6138 205 204 207
198.9951 -271.3781 937.3151 -0.2664 -0.1365 -0.9542 179 178 183
122.0673 -289.2443 998.7100 -0.3723 -0.2415 -0.8961 222 222 224
20.2410 -272.9229 1028.9025 0.0000 0.0000 0.0000 252 254 255
-12.5191 -307.0308 1065.7631 0.2339 -0.4721 -0.8499 194 197 203
-52.2450 -327.7787 1124.1873 -0.4919 0.1222 -0.8620 216 218 220
-223.5430 -354.6350 1219.0741 -0.2832 0.1789 -0.9422 186 188 189
-289.3995 -386.4645 1326.4249 -0.5766 0.3109 -0.7555 219 223 228
441.7832 -212.6238 759.5283 -0.0421 -0.1499 -0.9878 203 201 201
417.9940 -217.2213 749.1735 -0.2708 -0.5633 -0.7806 128 126 127
412.7628 -227.2234 786.7976 0.2371 -0.1863 -0.9534 105 104 107
378.4928 -227.1288 789.2701 0.2436 -0.4923 -0.8356 190 189 192
351.5434 -232.6572 800.0369 -0.2117 -0.6643 -0.7169 189 189 189
312.4166 -229.6103 803.2399 -0.1252 0.2835 -0.9508 158 153 155
305.4339 -245.0074 842.8201 -0.6809 0.0298 -0.7317 223 223 223
275.7869 -253.3871 879.4331 -0.0517 -0.4021 -0.9141 187 184 187
226.8252 -224.5941 871.7038 0.0000 0.0000 0.0000 178 173 173
240.2547 -256.9790 892.1857 -0.1932 0.0931 -0.9767 137 133 139
207.5189 -266.7436 934.8323 -0.3008 -0.2291 -0.9257 230 230 232
170.2638 -274.0594 991.4106 -0.1376 0.0383 -0.9898 243 243 245
134.9066 -291.1269 999.0273 -0.3333 -0.2324 -0.9137 154 151 155
91.5570 -300.6691 1030.6202 -0.4057 -0.0341 -0.9134 156 156 158
46.5072 -307.6005 1054.1721 -0.3969 0.5482 -0.7362 173 175 179
-1.6758 -313.5234 1082.3993 -0.1369 -0.0843 -0.9870 207 207 209
-96.4117 -341.5890 1163.2587 -0.2468 0.1161 -0.9621 194 198 201
-646.4539 -475.3742 1590.0826 -0.4732 0.4909 -0.7315 203 205 207
-596.8193 -428.4259 1483.3481 0.0000 0.0000 0.0000 190 192 194
449.8185 -210.9556 746.6066 -0.1274 -0.0545 -0.9904 183 181 182
419.5437 -211.5655 738.7747 0.1264 -0.3288 -0.9359 112 110 111
389.2122 -226.8157 789.3857 -0.0918 -0.6649 -0.7412 255 255 255
361.2320 -231.4516 794.8259 -0.3603 -0.5794 -0.7310 192 194 195
329.7573 -234.5472 814.3961 0.0828 0.0645 -0.9945 179 177 175
251.4311 -256.6424 894.8879 -0.1701 0.0615 -0.9835 158 155 158
242.4750 -281.2490 957.1599 0.6910 -0.4309 -0.5804 187 189 191
218.3782 -265.4581 937.8049 -0.1251 -0.3425 -0.9312 173 173 175
143.3543 -284.9475 986.5059 -0.2023 -0.3678 -0.9076 180 180 184
100.9793 -288.3451 1008.4998 -0.4445 -0.4143 -0.7942 162 161 166
56.8946 -298.7074 1046.9285 -0.6050 0.3186 -0.7297 160 162 166
11.1574 -309.2935 1087.8625 -0.3240 -0.1460 -0.9347 215 215 219
-37.6169 -309.9426 1100.9722 -0.6368 0.4446 -0.6300 207 212 213
-197.6238 -353.0254 1223.2716 -0.2576 -0.5219 -0.8132 197 199 203
-273.1334 -379.4737 1303.7161 -0.3736 -0.2119 -0.9031 223 225 229
449.9530 -205.1408 720.0598 -0.3392 -0.7035 -0.6246 147 145 145
330.6074 -226.0647 806.2419 -0.2508 0.4417 -0.8614 129 129 129
307.3192 -236.5562 834.0594 -0.4033 -0.1894 -0.8952 132 129 132
276.4807 -241.9073 863.5962 -0.4740 -0.3687 -0.7996 158 158 158
265.8382 -259.4724 907.1763 -0.3729 0.1497 -0.9157 242 244 243
112.0062 -286.5076 998.7532 -0.2370 -0.4893 -0.8393 176 175 178
-81.0721 -328.8341 1155.5409 0.1407 -0.3779 -0.9151 156 157 161
-192.3880 -363.5252 1242.1022 0.3635 -0.4134 -0.8348 244 246 248
394.4842 -223.1004 790.5112 -0.1445 -0.6845 -0.7145 226 224 225
361.3593 -223.4317 782.9128 0.2039 -0.3161 -0.9266 174 171 174
313.0084 -231.9880 823.5386 -0.5040 -0.3548 -0.7874 91 88 92
284.9259 -239.6323 859.4566 -0.4043 0.1790 -0.8969 177 177 179
165.2657 -280.5533 979.5865 -0.0428 -0.2730 -0.9611 177 177 179
152.7842 -280.5529 976.0464 -0.1506 -0.3677 -0.9177 172 172 174
66.3129 -287.9750 1048.4053 -0.4361 0.3803 -0.8156 200 200 202
20.8595 -292.9387 1080.8661 -0.6537 -0.0675 -0.7537 232 231 234
-16.6287 -331.8369 1133.4178 0.2022 -0.1804 -0.9626 255 255 255
-70.4483 -333.9406 1164.3717 0.0299 -0.0003 -0.9996 209 211 215
-123.2240 -330.2793 1182.2483 -0.5534 0.4595 -0.6947 255 255 255
-236.0596 -341.3866 1210.5239 0.0096 0.0077 -0.9999 182 186 189
-316.2497 -383.9540 1340.3495 -0.4722 0.4101 -0.7803 170 176 179
394.5061 -215.9255 786.7614 -0.1200 -0.5115 -0.8509 201 201 201
362.9213 -216.9675 777.6019 0.2178 -0.0586 -0.9742 133 132 135
296.5160 -240.0661 858.7775 -0.4731 0.1569 -0.8669 147 144 148
267.2076 -248.6557 880.6426 -0.3933 -0.0551 -0.9177 194 194 196
231.9277 -253.9335 917.5219 -0.6382 -0.5237 -0.5642 165 162 165
219.3605 -276.3781 955.0598 -0.1452 -0.3880 -0.9102 206 206 208
199.8394 -266.3715 951.1072 -0.4776 -0.2523 -0.8416 249 251 252
120.7525 -281.2053 1003.7112 -0.1200 -0.4532 -0.8833 197 197 197
32.5698 -297.8329 1054.7065 -0.4411 0.0474 -0.8962 189 191 195
-57.5130 -331.2454 1150.2020 -0.3768 0.0371 -0.9255 208 210 212
-225.2321 -341.5526 1224.4883 -0.1145 -0.7904 -0.6017 235 237 238
-678.1253 -468.8367 1674.1172 0.0000 0.0000 0.0000 188 190 194
411.2895 -206.4650 740.6470 -0.2910 -0.2709 -0.9176 173 173 173
416.4940 -222.3563 794.8740 0.4763 -0.2634 -0.8389 147 147 147
381.4706 -222.2039 785.5259 0.2288 -0.1409 -0.9632 227 227 227
317.0805 -226.3855 810.7026 0.0239 0.5546 -0.8317 131 128 131
271.8849 -241.6299 872.1700 -0.6137 0.0408 -0.7885 131 128 133
237.8111 -247.1516 895.4658 0.1547 -0.2461 -0.9568 169 166 170
164.9681 -258.0572 952.4315 0.2074 0.3807 -0.9011 228 228 230
88.4956 -287.4203 1032.6616 -0.6953 -0.0313 -0.7180 203 202 207
44.6918 -297.1136 1066.6598 -0.3536 0.0477 -0.9342 203 202 207
-3.6023 -300.2064 1091.0177 -0.0836 0.1119 -0.9902 243 243 245
-44.1552 -329.1775 1126.2360 -0.4199 0.1300 -0.8982 222 224 226
-107.4906 -317.6973 1159.6606 -0.7009 -0.2216 -0.6780 188 190 194
-164.0943 -326.1525 1247.1182 -0.5453 0.7882 -0.2853 194 196 200
-275.5465 -348.5077 1286.2042 0.2389 -0.5993 -0.7640 188 191 197
-618.0538 -436.1317 1590.0826 -0.5605 -0.1398 -0.8163 193 194 198
-752.1901 -474.1063 1709.0817 0.0000 0.0000 0.0000 188 192 193
454.5960 -206.7401 746.6009 -0.1648 0.0531 -0.9849 174 171 172
418.4523 -204.3748 733.4761 0.1375 -0.2430 -0.9602 174 171 172
425.0692 -220.6510 798.7447 0.2867 -0.0515 -0.9566 108 105 108
328.5071 -226.6316 818.0214 0.2675 0.3287 -0.9058 129 129 129
252.2538 -250.2926 907.3987 0.0160 -0.0133 -0.9998 255 255 255
215.9603 -255.6115 924.5333 -0.3496 -0.4088 -0.8430 158 158 160
124.4034 -262.2227 981.2971 -0.1201 -0.4636 -0.8779 154 156 158
54.9248 -291.0985 1065.1318 -0.4796 -0.0153 -0.8773 255 255 255
7.8611 -311.0397 1102.9261 -0.2769 0.1763 -0.9446 217 219 221
-92.3081 -308.9252 1139.0781 -0.0864 -0.2616 -0.9613 202 204 208
-275.7628 -363.8654 1291.4838 -0.0512 -0.6321 -0.7732 179 180 184
375.8930 -211.1526 773.5851 -0.4563 -0.2583 -0.8515 190 187 191
276.4152 -234.9235 859.4992 -0.4828 0.2945 -0.8247 210 209 212
227.5604 -255.9637 904.5693 -0.4880 -0.6912 -0.5329 197 196 199
190.9835 -263.4855 964.3818 0.2293 0.2895 -0.9293 243 243 245
175.9772 -258.0628 945.1951 0.3425 0.3745 -0.8616 162 161 164
138.1434 -267.4707 980.1096 -0.2925 -0.3365 -0.8951 211 210 213
95.3068 -268.0695 998.9059 -0.2194 -0.5269 -0.8211 208 208 212
-30.3225 -304.5235 1125.7362 -0.4831 -0.1580 -0.8612 214 216 217
-84.2664 -317.8044 1150.6239 0.0955 -0.3424 -0.9347 157 161 165
-139.4586 -323.8682 1187.8970 -0.6864 -0.2568 -0.6804 182 184 188
-193.8910 -327.2452 1215.3721 -0.0972 -0.1709 -0.9805 255 255 255
445.1100 -206.5794 764.8956 0.1522 -0.5655 -0.8106 255 254 255
385.6848 -210.3907 772.7805 -0.0810 -0.2783 -0.9571 197 197 197
357.5311 -213.8979 784.4670 0.4187 -0.0505 -0.9067 101 101 101
312.2837 -224.3453 833.2055 0.6265 -0.5249 -0.5761 78 75 81
287.7936 -235.2164 867.7180 -0.0018 0.2286 -0.9735 160 157 158
249.5788 -235.1791 904.3140 -0.1581 -0.1560 -0.9750 184 184 186
148.9128 -266.2348 971.5690 -0.3193 -0.4782 -0.8182 176 175 180
106.3295 -264.0281 990.4084 -0.0724 -0.3378 -0.9384 184 183 188
62.8816 -272.8327 1010.8918 -0.7558 0.2804 -0.5917 180 182 184
18.8635 -288.7966 1072.0894 -0.5987 -0.0929 -0.7955 225 224 227
-18.6748 -307.6650 1120.6083 -0.6934 -0.3599 -0.6242 204 206 208
-128.1953 -325.8817 1199.5708 -0.6471 -0.3247 -0.6899 246 248 250
-182.9224 -325.6992 1209.2488 -0.4384 -0.2107 -0.8737 228 230 231
-526.4022 -375.7872 1367.3375 0.5964 -0.7419 -0.3064 213 214 218
461.4338 -209.2123 770.6014 -0.0805 -0.8673 -0.4913 192 190 191
390.2263 -206.3528 773.0733 0.1677 0.0337 -0.9853 172 172 172
370.0463 -214.8110 788.1860 0.1496 0.0708 -0.9862 186 183 186
266.6934 -240.9797 893.7297 -0.6817 -0.0859 -0.7265 115 117 118
230.6893 -245.0062 880.2846 0.1709 -0.6554 -0.7356 223 220 225
196.5149 -254.3622 959.7137 -0.1343 -0.0072 -0.9909 182 179 182
153.2751 -251.4918 947.8343 -0.4295 -0.1751 -0.8859 183 182 185
116.6302 -265.7368 987.7840 0.0638 -0.3241 -0.9439 206 206 208
30.0831 -288.4869 1063.7827 -0.4539 -0.1664 -0.8754 255 255 255
-68.6269 -302.5660 1141.9916 0.0469 -0.3693 -0.9281 195 197 201
-119.4551 -334.5630 1194.9519 -0.7720 -0.2936 -0.5637 189 193 196
-177.7682 -335.6121 1247.1187 0.6134 -0.2016 -0.7636 176 178 182
-501.7538 -365.4720 1390.3429 0.4056 -0.8587 -0.3132 242 244 245
381.3123 -214.7638 788.6865 -0.1366 -0.0771 -0.9876 165 162 163
268.7580 -231.4529 881.8276 -0.7079 0.1764 -0.6839 249 249 249
241.9338 -244.1644 875.2666 0.6157 -0.1579 -0.7720 161 156 160
203.6264 -247.8620 931.3909 -0.6259 -0.3890 -0.6760 189 188 191
126.5315 -261.4571 988.9038 -0.1763 -0.2479 -0.9526 223 223 226
41.6519 -286.3454 1062.0231 -0.3383 -0.2236 -0.9141 185 184 189
-6.5505 -288.7228 1089.9878 -0.3794 -0.1594 -0.9114 211 213 217
-57.0387 -300.5099 1154.9215 -0.1318 -0.4912 -0.8610 206 208 209
-284.4587 -340.9441 1274.7117 -0.2287 -0.6134 -0.7559 217 219 223
-508.5572 -377.2914 1447.3842 0.0000 0.0000 0.0000 228 228 230
417.2662 -196.7519 735.9541 -0.0238 0.0420 -0.9988 110 107 110
397.7338 -204.1164 789.4854 0.3521 0.1007 -0.9305 207 207 209
329.7008 -220.2540 832.9545 -0.1169 0.6988 -0.7057 165 160 164
280.9510 -232.3565 876.2932 -0.4673 0.4451 -0.7639 169 169 169
213.3310 -244.6972 912.5190 -0.7266 -0.4704 -0.5007 160 157 160
162.7026 -248.9236 949.9815 -0.1105 0.6841 -0.7209 182 179 182
140.8427 -267.6117 997.7746 -0.4604 -0.0938 -0.8828 189 186 191
83.8468 -265.0734 995.6382 -0.3248 0.1498 -0.9338 154 153 158
-46.4686 -305.5929 1136.7881 -0.4403 -0.2670 -0.8572 185 186 190
-96.8844 -301.4604 1137.9131 -0.3994 0.0583 -0.9149 197 201 204
-524.3557 -398.9689 1519.2867 0.5243 -0.6648 -0.5322 196 198 202
454.8891 -194.1667 744.1243 -0.4788 -0.1362 -0.8673 113 111 112
422.7572 -193.7131 732.2901 0.1976 0.0482 -0.9791 227 225 226
411.5414 -205.5742 795.2303 0.2843 -0.2433 -0.9274 204 202 203
336.3056 -216.5629 825.7549 -0.0989 0.6568 -0.7475 139 137 137
308.7622 -223.6222 860.5286 -0.1333 0.5071 -0.8515 182 179 182
243.1673 -233.1047 898.9355 0.1523 0.0589 -0.9866 177 175 178
199.1809 -213.9673 830.1834 -0.4336 -0.4088 -0.8030 136 131 135
190.8076 -257.4901 976.7078 -0.1799 -0.1994 -0.9633 219 216 220
176.0321 -251.7290 953.0911 0.3807 0.3245 -0.8659 236 236 238
94.6671 -263.7179 1004.2567 -0.4668 -0.1494 -0.8716 201 201 205
50.8721 -264.5817 1029.9607 -0.8715 0.2220 -0.4373 247 250 251
16.8195 -287.1530 1086.3707 -0.6064 -0.0384 -0.7942 202 204 206
5.4107 -279.6955 1081.9825 -0.5226 0.0783 -0.8489 210 212 216
-34.1367 -301.8451 1130.8062 -0.4488 0.0085 -0.8936 214 216 217
-83.7981 -296.2038 1142.3296 -0.4434 -0.1071 -0.8899 200 202 203
-555.5648 -370.2537 1629.4507 0.0000 0.0000 0.0000 177 181 186
434.6461 -194.1038 745.5720 0.5070 0.0063 -0.8619 183 181 182
347.8180 -216.6609 825.5023 -0.2119 0.5023 -0.8383 170 170 170
321.8184 -224.5375 856.7139 -0.1419 0.1913 -0.9712 203 203 203
283.2446 -223.7858 867.3435 -0.0025 0.6116 -0.7912 181 178 179
256.3227 -235.1194 901.0384 -0.3407 -0.1138 -0.9333 134 128 132
144.1943 -248.6852 962.3345 0.1481 -0.5142 -0.8448 169 168 171
102.3294 -252.9156 976.8098 -0.2013 0.1483 -0.9683 163 163 165
60.7999 -263.1567 1012.4588 -0.6567 0.1782 -0.7328 154 153 158
-133.8971 -316.8039 1201.9578 -0.3185 -0.1408 -0.9374 196 200 203
-188.2580 -317.4123 1217.7386 -0.4469 -0.1204 -0.8864 203 205 209
-315.7758 -334.3411 1285.8577 -0.2765 -0.0561 -0.9594 197 199 203
-645.6359 -391.1376 1627.1758 0.0000 0.0000 0.0000 213 214 218
428.9830 -202.3503 768.0859 0.2261 -0.6835 -0.6940 117 112 114
393.7428 -201.3638 774.3931 0.1874 0.1107 -0.9760 208 208 210
362.3773 -202.6160 786.1141 0.1846 0.1606 -0.9696 156 155 162
332.6474 -224.0186 858.8088 -0.5353 0.1341 -0.8340 145 140 142
294.7693 -223.7482 868.9229 0.2785 0.4752 -0.8347 151 146 150
263.4066 -230.5679 890.4647 -0.6506 0.0621 -0.7569 197 195 196
196.1412 -247.4718 961.9505 0.0403 -0.2636 -0.9638 199 197 200
156.8244 -252.2390 966.3633 -0.1694 -0.1379 -0.9759 195 192 195
115.4087 -257.5005 990.7908 0.1279 0.0715 -0.9892 173 170 173
26.8257 -273.0984 1062.4701 -0.5508 0.0137 -0.8345 194 196 198
-20.9677 -282.4724 1097.9993 -0.2333 -0.2862 -0.9293 232 236 239
-62.3934 -305.6074 1148.4449 -0.2540 -0.3878 -0.8861 207 208 212
-73.3825 -297.4312 1149.4436 0.0169 -0.2493 -0.9683 221 222 226
-293.1132 -320.6034 1261.8733 -0.2855 -0.6349 -0.7179 193 195 196
440.9385 -191.5654 757.9699 0.0733 -0.3028 -0.9502 220 218 221
416.0403 -207.4329 792.9097 0.2314 0.0734 -0.9701 210 208 208
374.4334 -203.1322 788.0867 0.0977 -0.2419 -0.9654 169 169 169
349.3982 -209.7243 814.3174 -0.2648 0.0978 -0.9593 210 210 210
334.9463 -216.7049 844.5270 -0.7796 0.1044 -0.6175 202 199 200
311.7329 -228.3399 883.3519 -0.2051 -0.0803 -0.9754 131 126 130
272.2123 -227.8469 887.8213 -0.6980 0.0957 -0.7097 142 135 139
219.9841 -226.4718 827.4236 -0.3261 -0.3485 -0.8788 133 130 134
164.0335 -243.9564 960.8667 -0.0238 0.7268 -0.6864 244 244 246
127.3720 -257.8900 1000.6190 0.0372 0.0722 -0.9967 164 163 168
70.8229 -253.8425 1001.5051 -0.2371 -0.2055 -0.9495 217 216 219
38.3981 -273.3676 1057.8203 -0.6890 -0.1482 -0.7095 200 202 203
-10.1435 -291.0323 1100.3701 -0.3660 -0.2689 -0.8909 213 215 216
-114.8498 -298.9090 1164.4213 -0.7739 0.2901 -0.5630 181 183 187
-172.5334 -307.5491 1196.0540 -0.5799 0.4646 -0.6693 218 220 222
448.4427 -189.6500 753.7159 -0.2380 -0.5178 -0.8217 143 138 140
417.1472 -189.9454 737.4255 -0.1662 0.4617 -0.8713 116 112 109
424.2297 -205.3614 803.2710 -0.1722 -0.1983 -0.9649 196 194 194
317.7274 -223.2990 876.1641 -0.6779 -0.2707 -0.6835 197 194 198
248.0107 -231.0410 850.1965 0.0000 0.0000 0.0000 192 187 191
215.1647 -207.6949 821.7656 -0.0361 -0.1467 -0.9885 161 159 159
196.5624 -232.3352 932.3311 -0.8648 -0.1474 -0.4800 232 228 229
81.4233 -255.6960 1007.8516 -0.3383 0.2258 -0.9135 191 191 193
2.1338 -279.5583 1092.1442 -0.4113 -0.0990 -0.9061 201 203 207
-48.3770 -290.1360 1124.2189 -0.2697 -0.6529 -0.7078 213 215 216
-103.3373 -298.7013 1167.6991 -0.5827 0.4921 -0.6467 255 255 255
-634.2506 -406.1598 1625.4781 -0.2384 0.7250 -0.6462 200 201 207
458.5424 -189.0744 745.0061 -0.0754 -0.4303 -0.8995 145 145 145
425.7444 -188.3958 735.1351 0.2272 0.3182 -0.9204 145 142 143
374.6578 -196.4350 777.8641 0.0948 -0.3150 -0.9443 100 92 99
363.3776 -203.5647 810.5363 0.0177 0.7238 -0.6898 173 173 175
340.1049 -211.9529 837.8472 -0.4860 0.3343 -0.8075 121 116 120
275.5458 -219.6333 877.4753 -0.5175 0.3647 -0.7741 227 225 226
175.2805 -244.1225 958.5129 0.2425 0.3582 -0.9016 198 196 199
129.4085 -237.4105 946.5476 0.2613 -0.2286 -0.9378 145 142 147
92.1093 -252.8475 1003.6227 -0.6323 0.2760 -0.7239 156 155 160
49.7519 -263.3352 1044.5416 -0.8157 -0.1418 -0.5608 171 170 175
-90.2214 -295.3299 1156.4806 -0.5001 0.4900 -0.7140 224 226 228
-601.4488 -390.1514 1670.2074 0.0000 0.0000 0.0000 173 177 180
441.6704 -190.7710 746.7505 0.3802 -0.0501 -0.9235 223 220 221
413.8171 -193.2341 784.5983 -0.4499 -0.5665 -0.6904 144 139 141
387.7424 -197.4981 774.5770 -0.1102 -0.3228 -0.9400 158 160 161
343.1427 -206.0784 829.2425 -0.1726 0.4773 -0.8616 239 239 239
320.9979 -216.7285 864.8017 -0.4782 -0.1433 -0.8665 205 202 206
287.0785 -219.6724 874.9497 -0.0498 0.3030 -0.9517 115 110 114
253.9742 -225.6309 903.1286 -0.3320 -0.0306 -0.9428 184 177 177
181.4315 -236.0981 951.5681 -0.1906 0.4568 -0.8689 193 188 192
142.7186 -241.5708 963.0115 0.6246 0.5282 -0.5752 138 135 138
102.0424 -248.6219 986.3826 -0.1706 0.1538 -0.9733 186 185 190
60.9529 -261.6288 1024.6810 -0.7072 0.0670 -0.7038 186 185 190
13.8284 -271.0486 1076.2887 -0.5683 0.0575 -0.8208 189 191 195
-34.7516 -275.2887 1100.6820 -0.3672 -0.1940 -0.9097 182 186 187
-134.4344 -302.0453 1207.9062 -0.4335 -0.1711 -0.8848 194 196 200
-198.4410 -315.7196 1243.4490 -0.3487 0.2122 -0.9129 220 222 223
-315.6142 -318.5298 1305.3574 0.4391 0.3363 -0.8331 179 185 190
426.5255 -193.7668 768.7404 -0.2558 -0.5077 -0.8227 120 120 118
396.8727 -196.0407 780.3709 0.1183 -0.1409 -0.9829 190 188 189
359.8765 -209.2459 836.0568 -0.0454 0.5433 -0.8383 124 129 127
327.3245 -212.3358 858.9509 -0.4382 -0.0597 -0.8969 236 233 234
297.2631 -218.4531 881.9915 0.2449 0.3852 -0.8897 152 149 152
262.2429 -222.2492 893.4769 -0.5605 -0.0815 -0.8242 161 157 158
194.4415 -237.0056 957.4490 -0.2082 -0.6741 -0.7087 155 148 148
157.1763 -246.7741 984.2739 0.2760 0.0540 -0.9596 189 188 191
113.5112 -249.2367 1001.4004 0.3312 0.1290 -0.9347 142 140 143
70.8782 -253.2503 1013.5183 -0.3174 0.2082 -0.9252 165 165 169
24.8157 -270.1289 1076.7516 -0.6723 -0.0306 -0.7396 185 187 188
-73.6001 -277.9199 1142.6090 -0.5532 -0.0550 -0.8313 201 203 207
438.2709 -183.4125 742.9233 -0.0573 -0.1339 -0.9893 195 192 195
377.4389 -197.7953 797.4182 0.5018 -0.0366 -0.8642 144 139 143
333.9546 -208.7622 850.2164 -0.6265 -0.3097 -0.7152 153 149 150
305.3527 -215.3610 885.0457 -0.2617 0.0426 -0.9642 234 232 233
268.0577 -216.3747 887.5787 -0.5840 -0.0234 -0.8114 228 223 225
166.9553 -242.8289 980.7169 -0.4962 0.3946 -0.7734 230 227 230
34.8043 -262.6622 1063.1329 -0.7374 -0.1009 -0.6678 255 255 255
-22.3310 -256.9100 1088.7946 -0.2943 0.2191 -0.9303 210 214 215
-61.0146 -269.2404 1124.6068 -0.3912 -0.4920 -0.7777 231 233 235
-120.3532 -295.0625 1184.8092 -0.7765 0.1396 -0.6145 201 203 207
-182.7852 -307.8304 1236.0322 -0.5090 0.2986 -0.8073 190 194 195
440.4720 -179.0279 736.9758 -0.0733 -0.1512 -0.9858 186 183 184
414.5826 -181.7317 745.5671 0.0375 0.6877 -0.7250 139 137 137
391.6514 -186.7586 778.2902 0.0651 -0.1739 -0.9826 178 173 177
354.6574 -198.2069 818.7766 -0.3345 0.6072 -0.7207 237 237 237
176.5026 -240.2645 979.6047 0.0000 0.0000 0.0000 140 132 137
120.3071 -236.9112 983.0955 -0.0291 -0.5913 -0.8059 173 168 172
81.1373 -250.6538 1017.6613 -0.2410 0.4062 -0.8814 211 210 213
-11.9282 -260.2735 1091.1654 -0.2186 0.1311 -0.9670 219 218 221
-106.0853 -286.3408 1177.8524 -0.6061 0.1555 -0.7801 177 181 186
-160.5589 -289.9817 1208.1479 -0.7071 0.4269 -0.5637 253 255 255
-678.6399 -423.4344 1706.2728 0.4058 -0.0708 -0.9112 209 211 213
-650.4604 -398.2874 1648.4908 0.0158 0.3673 -0.9300 206 207 211
443.9484 -175.2812 736.1110 0.2703 0.0365 -0.9621 86 91 90
405.6489 -188.0408 785.9487 0.1425 -0.2279 -0.9632 251 248 249
371.6269 -187.6312 782.4061 -0.0924 -0.0584 -0.9940 182 179 182
368.9900 -199.8460 822.9061 0.0013 0.2800 -0.9600 184 182 185
337.7854 -203.0655 839.8320 -0.3112 -0.2967 -0.9028 234 232 233
308.0364 -208.0305 874.1763 -0.5601 -0.5228 -0.6426 198 196 197
279.9482 -216.4438 887.9407 -0.4236 -0.0308 -0.9053 125 117 120
187.0085 -180.8938 782.6047 0.0000 0.0000 0.0000 255 174 94
128.9739 -230.3071 948.9086 0.7207 0.2694 -0.6388 158 153 157
46.9195 -254.8835 1041.2673 -0.6823 0.0230 -0.7307 193 193 195
-0.3095 -265.1960 1093.3973 -0.4728 0.1112 -0.8742 196 198 202
-48.4831 -266.4613 1100.0880 -0.2666 0.2755 -0.9236 165 166 170
-210.6806 -299.1690 1246.7900 -0.5026 0.2498 -0.8276 156 160 164
438.4679 -182.0275 749.9066 -0.0700 0.3230 -0.9438 215 215 215
411.4904 -184.9338 778.6968 -0.2645 -0.2924 -0.9190 152 149 152
384.6243 -188.4431 776.0166 -0.0160 -0.1324 -0.9911 162 159 163
378.4660 -198.1965 820.6392 -0.3606 0.2612 -0.8954 97 92 96
348.5692 -202.2476 840.1276 0.1818 -0.0457 -0.9823 134 128 134
317.7712 -206.4068 861.1375 -0.4200 -0.5139 -0.7480 231 228 229
282.5014 -233.0406 907.5163 0.0000 0.0000 0.0000 191 189 192
211.7974 -197.4908 816.6578 0.2530 -0.6734 -0.6947 212 196 172
141.0854 -233.0077 973.1789 0.7457 0.3082 -0.5906 244 241 242
56.2982 -239.3973 1009.2404 -0.2919 -0.3723 -0.8810 181 176 182
11.1559 -260.1998 1082.7623 -0.6270 0.0111 -0.7789 187 189 191
-38.1140 -266.7299 1105.7229 -0.3092 0.1769 -0.9344 211 210 213
-83.4440 -288.6190 1176.0549 -0.4665 0.1094 -0.8777 186 187 191
-93.0032 -278.6679 1167.0487 -0.5936 0.0893 -0.7998 194 198 201
417.2036 -181.7898 766.5729 -0.0398 -0.2403 -0.9699 122 117 117
352.9568 -197.0517 840.3521 0.2303 0.0318 -0.9726 230 227 228
328.8728 -205.6804 858.7462 -0.4695 -0.5588 -0.6836 199 197 198
298.3060 -212.0361 891.6310 0.2389 0.4128 -0.8789 237 234 235
212.2375 -187.7097 800.2148 0.4011 -0.7446 -0.5336 138 76 52
153.3153 -234.3011 986.2136 0.4255 0.2465 -0.8708 230 227 228
22.4860 -263.5236 1087.6875 -0.6869 -0.0644 -0.7238 161 163 167
-27.8844 -271.6296 1111.6078 -0.3336 0.4107 -0.8486 195 197 199
-189.6699 -282.4601 1235.9329 -0.4210 0.3474 -0.8379 207 212 213
-255.3781 -310.6867 1320.6562 -0.6441 -0.2321 -0.7288 234 236 237
-641.9031 -414.2892 1615.5635 0.0000 0.0000 0.0000 188 192 195
438.2567 -176.4155 744.9202 -0.1213 0.2105 -0.9700 206 204 205
378.6214 -191.1576 807.1359 -0.4456 0.3921 -0.8048 146 143 146
299.9644 -203.5197 881.9355 -0.2855 -0.5128 -0.8096 174 169 171
267.6133 -208.4274 880.6223 -0.0931 -0.6917 -0.7161 131 120 121
219.7289 -185.1285 789.9095 0.6318 -0.4005 -0.6636 159 113 101
150.0463 -165.2939 703.6912 -0.0031 -0.2797 -0.9601 255 255 234
67.4802 -240.9788 1014.0181 -0.3656 0.0384 -0.9300 211 210 213
-15.0607 -265.7206 1108.2391 -0.3264 0.5136 -0.7935 187 188 195
-181.2648 -286.2108 1235.2772 -0.6627 0.1225 -0.7388 173 177 180
-305.7982 -301.8207 1299.5186 0.0278 0.6846 -0.7284 213 215 216
-383.6211 -328.2001 1363.6829 0.0000 0.0000 0.0000 196 200 203
448.8752 -175.9311 742.6032 0.0508 0.2937 -0.9545 179 181 180
423.2506 -179.0746 759.6043 0.3072 -0.0301 -0.9512 145 142 143
415.7408 -185.9439 788.1050 -0.0698 -0.0748 -0.9948 205 202 206
392.2386 -180.1443 770.1339 -0.0062 -0.3386 -0.9409 242 242 242
380.5081 -185.5001 795.7148 0.2800 -0.0425 -0.9591 131 128 131
362.6946 -195.8291 839.2098 -0.0673 -0.0135 -0.9976 192 190 191
323.0684 -193.3066 840.3924 -0.2419 -0.6356 -0.7331 209 207 205
283.0371 -211.7374 879.6424 -0.1656 -0.4472 -0.8790 93 87 84
237.3922 -192.0234 820.2380 -0.4561 0.4557 -0.7644 230 221 221
160.2952 -167.3653 717.6899 0.4582 -0.2092 -0.8639 255 255 210
32.5587 -248.6120 1056.6913 -0.7354 -0.0543 -0.6755 185 184 189
-175.7406 -297.4389 1229.6349 -0.7666 0.0625 -0.6391 245 247 249
-237.6718 -301.5441 1289.7908 -0.7800 -0.1429 -0.6092 211 213 215
-447.0590 -325.3553 1426.0599 0.0000 0.0000 0.0000 199 200 204
-554.5878 -362.0641 1544.0698 -0.4700 -0.4688 -0.7479 187 191 194
-696.1051 -413.7315 1678.6929 0.0397 -0.9344 -0.3539 184 188 191
449.6335 -170.8710 747.1107 0.1847 0.2329 -0.9548 156 153 159
433.4043 -178.2078 756.5248 -0.1565 0.2088 -0.9654 97 97 95
368.1201 -191.7210 830.2298 -0.2572 0.0669 -0.9640 159 154 156
335.4186 -193.5457 834.4057 -0.1586 -0.5472 -0.8218 162 162 162
306.2368 -199.2928 862.4575 -0.4280 -0.6204 -0.6572 225 223 223
168.9799 -166.7154 723.6364 0.6337 -0.2881 -0.7180 255 172 99
124.6978 -160.9284 694.8889 0.0000 0.0000 0.0000 218 208 173
45.1438 -241.2645 1038.0359 -0.7323 0.1776 -0.6575 240 239 242
-3.0203 -255.3981 1107.8485 -0.4692 0.2832 -0.8364 210 212 214
-53.7280 -259.7805 1107.0792 -0.0504 0.0728 -0.9961 210 212 214
-107.0525 -268.4948 1167.2120 -0.6014 -0.0611 -0.7966 187 191 194
-154.5342 -280.1229 1206.8938 -0.3947 -0.2918 -0.8713 180 184 187
-213.0872 -284.6915 1251.8131 -0.5964 0.0982 -0.7966 251 253 255
-439.2892 -327.2923 1409.7699 -0.2223 0.0850 -0.9713 230 232 236
464.3720 -172.1520 744.1146 0.2302 0.1108 -0.9668 172 169 172
432.0641 -171.9829 748.0891 -0.2585 0.1369 -0.9563 197 195 196
413.7564 -178.9126 785.9026 -0.0258 -0.1845 -0.9825 201 198 199
381.9141 -179.7197 781.1480 0.4176 -0.2194 -0.8817 110 105 107
341.8298 -190.0736 831.0718 0.1189 -0.4667 -0.8764 199 199 197
311.5133 -194.3512 852.2651 -0.2625 -0.6235 -0.7364 172 168 174
282.0403 -200.4681 837.8187 0.6589 0.4036 -0.6348 223 220 221
180.7106 -169.4346 739.4993 0.7102 -0.3300 -0.6219 235 144 61
135.8872 -164.5718 715.6782 -0.0601 0.4085 -0.9108 255 255 232
55.4572 -241.2507 1042.7856 -0.6817 0.2071 -0.7017 159 154 160
8.8327 -253.3483 1094.3503 -0.6865 0.0669 -0.7240 234 236 237
-40.5018 -257.8681 1115.4620 0.0664 0.5543 -0.8296 216 218 222
-96.5478 -267.2488 1163.8484 -0.3586 -0.0339 -0.9329 201 203 207
-205.5228 -291.5070 1257.8575 -0.4986 0.1079 -0.8601 255 255 255
-276.3407 -304.7362 1323.0746 -0.5265 -0.3462 -0.7765 221 222 226
422.6379 -177.3231 778.1480 -0.3201 0.1910 -0.9279 144 141 142
368.6606 -184.9822 819.8275 -0.4878 0.1764 -0.8550 201 198 199
357.7164 -192.3179 845.9897 0.1619 -0.2546 -0.9534 178 173 173
292.2484 -199.1020 848.2566 0.5790 -0.0712 -0.8122 205 200 199
191.0340 -169.8616 770.2475 0.0801 -0.7783 -0.6227 255 168 84
144.0416 -163.6428 717.5632 -0.4535 0.1521 -0.8782 255 255 228
67.1477 -241.5080 1038.8196 -0.7630 0.1028 -0.6381 155 152 156
-28.6350 -251.2155 1117.0031 -0.2586 0.5648 -0.7837 199 201 202
-143.2621 -279.6758 1198.7219 -0.3895 -0.0283 -0.9206 217 221 222
-264.7333 -304.9127 1326.0399 -0.5265 -0.3462 -0.7765 231 233 235
-566.9214 -339.6478 1598.6689 -0.1912 0.9693 -0.1547 227 228 232
462.3404 -166.2440 732.7318 0.5290 0.3196 -0.7862 158 155 158
380.2350 -184.8858 814.8625 -0.7493 0.1919 -0.6338 129 124 128
369.1638 -192.0077 847.3987 -0.2342 -0.2053 -0.9503 175 172 175
313.7889 -187.5958 835.6037 -0.4416 -0.5648 -0.6971 170 165 166
297.9114 -194.1538 859.6396 -0.0495 -0.4801 -0.8758 197 195 194
216.4217 -175.2417 782.0114 0.7333 -0.3686 -0.5712 251 185 116
200.4703 -169.6857 765.1104 0.4474 -0.5835 -0.6777 248 160 71
149.8281 -159.6804 708.4835 -0.1966 -0.0729 -0.9778 255 255 236
119.2353 -161.0747 717.1101 -0.0947 0.5973 -0.7964 255 255 226
20.5103 -234.9703 1071.3695 -0.7790 0.0896 -0.6205 214 213 218
-128.1156 -273.5253 1188.5665 -0.4669 0.0944 -0.8792 174 178 181
-194.4033 -289.0625 1256.5128 -0.6225 0.0038 -0.7826 207 208 212
-523.9598 -375.7751 1531.7777 0.0000 0.0000 0.0000 223 227 230
-499.8250 -347.5309 1543.1133 0.0000 0.0000 0.0000 223 225 229
-566.0724 -345.6403 1551.5542 -0.4425 -0.5359 -0.7191 230 232 236
445.6536 -167.3684 749.6068 0.0956 0.3348 -0.9374 207 207 207
409.9981 -156.6793 729.7960 -0.2319 0.9119 -0.3386 151 148 151
443.6770 -175.7142 764.4754 -0.4951 0.1628 -0.8535 219 217 218
424.5815 -172.5214 768.2796 -0.1273 0.0512 -0.9905 170 168 169
383.0757 -179.5371 806.6206 -0.6867 0.3489 -0.6377 155 152 156
316.2998 -181.1287 826.3025 -0.1808 -0.3289 -0.9269 107 102 104
229.0919 -177.0117 798.2424 0.7386 -0.0870 -0.6685 255 182 153
158.4686 -159.4867 710.6287 0.3264 -0.1648 -0.9308 255 255 206
30.8087 -239.6930 1068.9816 -0.7131 -0.0803 -0.6964 244 244 246
-17.2203 -244.2417 1105.0563 -0.3561 0.5395 -0.7630 211 213 215
-63.9670 -239.5050 1090.8147 0.7265 0.1799 -0.6632 179 180 184
-115.2697 -267.0102 1184.3279 -0.2418 0.4152 -0.8770 206 207 211
-171.0277 -271.0488 1225.9362 -0.7046 -0.0423 -0.7083 180 183 189
-237.9142 -286.5224 1295.2968 -0.5503 -0.3735 -0.7468 204 206 212
-517.1094 -380.2337 1472.0624 0.0000 0.0000 0.0000 158 159 164
-681.7508 -374.7877 1629.2358 0.0000 0.0000 0.0000 253 255 255
460.1864 -168.4607 757.4365 -0.0229 0.3223 -0.9464 201 198 199
403.2474 -172.3289 771.2650 0.3009 0.0128 -0.9536 219 217 218
392.0156 -177.7714 797.6425 0.7097 -0.4336 -0.5554 118 114 115
366.3863 -183.2130 831.7500 -0.2789 -0.3798 -0.8820 218 216 217
333.0862 -184.6470 827.0253 -0.1080 -0.4857 -0.8674 172 172 172
298.0976 -185.5178 845.7419 -0.1094 -0.3620 -0.9257 115 112 115
243.6994 -180.5411 827.3006 0.7144 -0.3740 -0.5914 255 167 92
166.7503 -158.5378 715.1600 0.5030 -0.1920 -0.8427 255 165 86
127.6069 -160.5401 720.7335 -0.2153 0.2224 -0.9509 255 255 220
93.5225 -154.9230 720.6657 0.5143 0.8511 -0.1055 255 255 222
42.7536 -235.0180 1055.4447 -0.5354 0.3838 -0.7523 152 152 157
-6.6687 -246.5580 1118.6122 -0.2483 0.5681 -0.7846 255 255 255
-45.8695 -258.6587 1131.9506 0.1321 0.4746 -0.8702 223 225 229
-55.5991 -248.1484 1120.4611 0.0306 0.3057 -0.9516 210 212 214
-105.4279 -269.4914 1198.5425 -0.0002 0.4811 -0.8767 208 208 210
-220.4790 -277.5518 1259.0127 -0.3893 0.0977 -0.9159 228 229 233
-353.9603 -294.1805 1332.2915 0.0000 0.0000 0.0000 220 221 225
-635.4895 -354.6234 1595.1747 -0.3552 -0.0638 -0.9326 243 243 245
458.0934 -162.4187 743.6389 0.0103 0.2738 -0.9617 78 76 77
436.4519 -166.8177 753.4673 -0.0893 0.0944 -0.9915 153 151 151
411.1472 -170.2436 784.9875 0.2063 -0.0127 -0.9784 180 175 177
375.0248 -181.2306 828.0352 -0.3891 -0.2153 -0.8957 172 172 172
342.3032 -182.8236 823.1624 -0.1311 -0.5204 -0.8438 164 159 161
312.4258 -187.1451 844.5777 -0.0954 -0.3743 -0.9224 170 168 169
260.2865 -185.0924 843.7054 0.5115 -0.5623 -0.6498 234 153 89
177.1333 -159.4064 724.9314 0.7194 -0.2459 -0.6496 255 168 82
134.9264 -158.5625 720.1460 -0.3695 0.1674 -0.9140 255 255 234
103.9680 -159.2107 733.7285 -0.2213 -0.2468 -0.9435 255 255 224
53.6582 -234.9742 1059.5613 -0.2626 0.5035 -0.8231 230 230 230
5.6467 -248.1067 1112.8138 -0.6166 0.3414 -0.7094 194 194 196
-150.2999 -257.0679 1194.0944 -0.0455 -0.2441 -0.9687 175 177 181
-359.6911 -309.3840 1400.4520 -0.2866 0.7541 -0.5909 200 201 205
-636.8038 -428.4197 1688.3335 0.0000 0.0000 0.0000 237 239 241
420.0883 -168.7626 782.3257 -0.1069 0.1191 -0.9871 230 227 228
383.8217 -167.3010 778.1330 -0.0039 -0.2591 -0.9658 154 146 151
270.0911 -183.6317 838.3431 0.3958 0.1040 -0.9124 118 102 103
189.2631 -162.0092 745.1309 0.7270 -0.2487 -0.6400 255 165 76
141.9022 -155.7109 717.9865 -0.4390 0.0938 -0.8936 255 255 239
113.2124 -160.7768 738.1862 -0.5807 0.1868 -0.7924 255 255 228
17.7591 -233.4436 1079.5293 -0.7365 0.0946 -0.6698 255 255 255
-33.5147 -246.7481 1131.0082 -0.2323 0.3676 -0.9005 255 255 255
-91.6928 -264.6474 1195.3411 -0.6055 0.0087 -0.7958 185 187 188
-144.7929 -263.0219 1195.0475 -0.2431 -0.0222 -0.9697 181 185 188
-199.1398 -281.3248 1269.2500 -0.4223 0.0724 -0.9036 204 206 210
-201.7348 -267.5691 1240.9626 -0.1241 0.1921 -0.9735 253 255 255
-341.2791 -302.4637 1393.2308 -0.4789 0.5203 -0.7071 206 210 214
-416.7203 -308.3618 1427.6543 -0.2197 0.5434 -0.8102 205 210 210
440.2898 -163.1861 748.4846 -0.1369 0.3842 -0.9131 222 219 220
397.5148 -168.1149 767.0126 -0.3084 -0.0554 -0.9496 196 196 196
381.5919 -178.0326 822.1126 -0.5443 -0.1628 -0.8230 147 144 148
345.5700 -177.5445 818.9744 -0.1140 -0.7020 -0.7030 139 136 139
307.9091 -176.2103 826.4636 -0.5301 0.0898 -0.8432 154 152 150
274.9899 -178.0950 842.0376 0.2078 0.1359 -0.9687 255 194 126
199.9590 -162.8391 756.8577 0.5650 -0.3879 -0.7283 255 168 82
148.4650 -152.6466 711.4848 -0.3233 -0.0301 -0.9458 255 255 238
-20.1693 -241.6888 1130.8687 -0.3489 0.2554 -0.9017 255 255 255
-71.5924 -246.6488 1142.6815 -0.7231 0.2920 -0.6260 188 190 192
-128.9478 -253.9035 1183.8861 -0.1818 -0.0097 -0.9833 211 213 217
-256.4891 -276.9308 1281.7732 -0.3211 -0.4051 -0.8561 178 179 183
442.9225 -159.1382 751.7680 0.2805 0.2242 -0.9333 174 171 172
424.0059 -164.9982 775.6976 -0.2812 0.1799 -0.9426 152 150 146
386.3506 -173.7597 814.2259 -0.3406 -0.1966 -0.9194 125 123 123
351.7719 -174.1292 812.6790 0.1711 -0.6552 -0.7358 187 184 185
319.5230 -176.1750 827.0466 -0.1922 0.1418 -0.9711 158 155 156
289.5657 -180.2993 851.8521 0.1600 -0.0661 -0.9849 183 176 174
227.6137 -169.1017 795.9272 0.7420 -0.0838 -0.6652 245 177 148
211.6276 -164.2985 767.3042 0.7385 -0.2738 -0.6162 246 154 64
117.9696 -154.6718 723.8320 -0.5982 0.1859 -0.7795 255 255 236
88.4491 -157.4208 749.5251 -0.6104 0.3086 -0.7295 255 255 226
28.8351 -230.7229 1081.3750 -0.7257 0.0967 -0.6812 159 156 157
-8.0429 -241.3050 1127.2096 -0.1530 0.2722 -0.9500 208 208 210
-174.3106 -259.0820 1224.5728 -0.7310 -0.2124 -0.6484 214 219 222
-247.4387 -279.0830 1290.2057 -0.1052 -0.3386 -0.9350 223 225 229
-571.9059 -335.8290 1532.7460 -0.5042 -0.6143 -0.6070 209 213 216
444.2650 -154.6681 748.0375 0.1170 0.3038 -0.9455 170 168 169
427.8729 -161.2268 762.8943 -0.4541 0.0818 -0.8872 129 129 129
397.1699 -162.0813 764.0119 -0.0533 0.2074 -0.9768 145 140 144
395.6138 -172.0711 806.9580 -0.2475 -0.1413 -0.9585 121 116 120
329.7267 -174.9942 825.1553 -0.2503 -0.1622 -0.9545 109 104 106
298.4944 -178.3941 849.8675 0.0520 0.2810 -0.9583 110 105 107
239.1659 -169.7939 808.5604 0.7925 -0.2103 -0.5725 240 147 64
155.1744 -150.2488 708.5517 -0.0408 -0.0160 -0.9990 255 255 243
126.9545 -154.8802 725.4924 -0.3339 0.3621 -0.8703 255 255 236
97.1726 -159.8500 748.2006 -0.5849 0.1369 -0.7995 255 255 222
40.6109 -223.5695 1056.6776 -0.5126 0.1240 -0.8496 252 249 250
-58.1942 -236.0969 1125.0023 -0.2611 0.3476 -0.9006 213 214 218
-106.6899 -257.1257 1188.6576 -0.4384 -0.1320 -0.8891 236 238 239
-117.8958 -254.0568 1188.3645 -0.3825 0.1195 -0.9162 194 196 198
459.8126 -156.0292 745.6335 0.3106 0.4181 -0.8536 109 109 109
410.6022 -162.7674 768.2986 0.3092 0.0436 -0.9500 210 208 208
310.3527 -178.1227 852.7090 -0.1078 0.3807 -0.9184 125 120 124
254.8917 -173.5045 830.1755 0.6422 -0.2343 -0.7299 245 153 72
161.8228 -147.3740 708.1303 0.3270 -0.0450 -0.9439 255 249 140
133.1453 -150.3808 720.1791 -0.3935 0.2365 -0.8884 255 255 236
103.7330 -155.4750 740.9932 -0.4894 0.1104 -0.8650 255 255 234
71.0873 -155.8081 752.6424 -0.2317 0.6179 -0.7513 255 255 218
3.1737 -229.7300 1115.1428 -0.5257 -0.1509 -0.8372 238 235 236
-47.3924 -235.1161 1128.8948 -0.0859 0.2728 -0.9582 255 255 255
-157.7994 -249.1057 1201.6388 -0.4392 -0.1493 -0.8859 215 217 219
-215.4723 -268.2908 1264.9835 -0.5468 0.0743 -0.8339 202 204 208
-363.5123 -293.8330 1426.4506 -0.0941 0.7743 -0.6258 163 164 168
455.9686 -162.5852 772.0451 0.3761 -0.7006 -0.6064 203 199 198
423.2887 -162.9983 785.0242 -0.0926 0.0094 -0.9957 193 193 193
390.9565 -163.4793 788.7283 0.2979 -0.2426 -0.9233 144 139 143
364.0022 -167.4331 823.2612 -0.2438 -0.6065 -0.7568 234 232 233
332.7051 -169.3351 814.9949 -0.4366 -0.5069 -0.7432 167 164 165
322.3982 -177.9880 850.4473 -0.6535 0.4834 -0.5824 140 138 136
272.1963 -177.7123 845.4037 0.5328 -0.0555 -0.8444 241 151 59
184.0252 -150.9003 732.0536 0.7743 -0.1616 -0.6118 255 174 93
171.9473 -148.5186 718.2463 0.6472 -0.0930 -0.7566 255 216 200
140.6420 -148.5850 718.6099 -0.4908 0.0670 -0.8687 255 255 239
111.2056 -152.9035 738.2453 -0.5550 0.0998 -0.8259 255 255 236
80.1848 -157.5843 759.2136 -0.2908 0.5743 -0.7653 255 255 218
14.9892 -224.4069 1087.7499 -0.7564 0.1218 -0.6427 180 177 178
-35.9533 -235.6501 1132.9834 -0.1598 0.0808 -0.9838 213 213 215
-89.2247 -241.1408 1165.9469 -0.6907 -0.0561 -0.7209 189 188 193
-147.0537 -249.4815 1202.8759 -0.2389 -0.0739 -0.9682 169 175 177
-257.9192 -251.0306 1228.0085 -0.1027 -0.6995 -0.7072 210 214 217
-354.0344 -292.1068 1432.0640 -0.2866 0.7541 -0.5909 217 219 223
-427.7592 -300.4349 1441.0459 -0.1002 0.4403 -0.8922 216 218 220
-398.6672 -271.9762 1378.4569 0.1599 0.2758 -0.9478 205 210 210
-511.1936 -310.4208 1504.1782 -0.5654 0.1299 -0.8145 227 232 232
458.7538 -158.4988 767.2542 0.2723 -0.2075 -0.9396 247 245 244
394.6518 -159.3936 779.7557 -0.3406 -0.2058 -0.9174 115 109 116
379.7709 -169.3972 821.3942 -0.3449 -0.6097 -0.7136 194 190 196
333.6992 -163.1056 803.3917 -0.3518 -0.6424 -0.6809 131 126 130
280.9800 -175.3151 852.9145 0.3081 0.1432 -0.9405 232 163 123
196.0813 -152.9158 750.6255 0.7664 -0.1482 -0.6251 253 184 136
147.7683 -146.3119 714.5532 -0.4777 -0.0184 -0.8783 255 255 240
117.9538 -149.5693 732.8387 -0.5723 0.0199 -0.8198 255 255 236
87.7907 -154.4805 752.9370 -0.6300 0.2791 -0.7247 255 255 232
55.3755 -156.2261 775.2141 -0.5705 0.2207 -0.7911 255 255 255
26.7272 -230.1606 1081.9326 -0.6918 0.0893 -0.7165 170 168 169
-23.5119 -231.4053 1130.3258 -0.2815 -0.0904 -0.9553 200 200 202
-139.3375 -255.2846 1221.7711 0.0236 0.1757 -0.9842 200 202 203
-199.1378 -259.6908 1268.0798 -0.5250 -0.3271 -0.7857 232 234 238
-497.8268 -307.1138 1511.1646 0.3334 -0.6320 -0.6996 183 189 189
445.5854 -161.5988 779.0726 -0.2706 0.1022 -0.9572 135 135 135
421.7478 -156.7524 783.6707 -0.2790 -0.0237 -0.9600 211 211 211
375.6075 -160.6783 806.6755 -0.3189 -0.6247 -0.7128 195 192 195
320.6954 -169.2399 839.0488 -0.4903 0.4736 -0.7316 133 126 128
209.3768 -155.7263 766.7822 0.7428 -0.0394 -0.6684 255 183 113
156.2771 -145.5087 709.5904 -0.2468 -0.0791 -0.9658 255 255 245
63.6524 -156.3132 769.5461 -0.6861 0.4024 -0.6061 255 255 152
-75.3502 -232.6722 1155.4366 -0.6597 -0.2257 -0.7169 218 220 222
-121.9201 -244.8629 1206.1647 -0.3137 -0.0549 -0.9479 190 192 196
-237.3812 -252.4166 1273.0188 -0.1857 -0.3443 -0.9203 210 214 217
-400.5598 -287.6739 1448.9102 0.1958 -0.2840 -0.9386 216 220 221
461.0300 -154.3556 760.1463 0.3931 -0.0175 -0.9193 182 180 180
398.5111 -155.5541 767.4738 -0.1275 0.4165 -0.9002 158 155 158
389.5797 -161.4347 809.0334 0.0243 -0.4205 -0.9070 184 183 188
356.9778 -162.8980 814.4263 0.0000 0.0000 0.0000 230 230 230
335.4596 -157.5388 790.5278 -0.2301 -0.4850 -0.8437 107 99 106
327.5833 -165.9339 830.5317 -0.7313 0.3677 -0.5745 156 154 155
303.6105 -174.3482 869.3753 0.2778 0.4767 -0.8340 94 84 85
124.8981 -146.4397 727.9943 -0.4169 0.1948 -0.8878 255 255 238
95.0797 -151.4185 748.4915 -0.6507 0.2002 -0.7324 255 255 236
0.9994 -241.5413 1177.6948 0.0000 0.0000 0.0000 252 249 250
-11.0083 -219.3960 1115.4034 -0.5252 -0.1678 -0.8343 176 173 177
-63.0487 -232.4193 1139.8331 -0.5267 -0.0549 -0.8483 199 200 204
-235.7825 -263.0352 1313.3022 -0.3512 -0.0071 -0.9363 206 207 211
-583.0443 -330.8819 1579.0020 0.6330 0.7710 0.0700 200 201 205
-536.6395 -296.5550 1497.0005 0.2148 -0.8363 -0.5044 180 184 187
469.4247 -152.7352 761.3107 0.2689 0.1981 -0.9426 154 152 152
430.7352 -149.9942 759.1594 0.0646 0.0497 -0.9967 178 173 177
347.7865 -157.4398 790.8354 0.2780 -0.4450 -0.8513 165 160 162
312.9516 -172.0917 867.8320 0.0114 0.2257 -0.9741 129 117 121
248.2956 -161.0471 820.2057 0.7786 -0.1296 -0.6140 255 197 147
233.9104 -158.4633 796.5136 0.7407 -0.0319 -0.6711 245 232 225
161.3303 -141.2743 710.5538 0.3261 -0.0711 -0.9426 255 255 198
132.0106 -143.9531 724.6497 -0.3589 0.1732 -0.9172 255 255 238
101.7885 -147.4291 741.6167 -0.5834 0.1020 -0.8058 255 255 236
71.1247 -152.0271 761.8224 -0.4662 0.3727 -0.8023 255 255 229
-49.4401 -224.6963 1126.0233 -0.2065 -0.2739 -0.9393 215 217 217
-105.1479 -235.9366 1172.4855 -0.6805 -0.0345 -0.7320 218 217 222
-222.1459 -260.8829 1278.6062 -0.6139 -0.3963 -0.6826 204 206 208
439.6208 -148.5397 757.7280 -0.4390 0.0779 -0.8951 247 247 247
419.9761 -154.0017 779.2073 0.1069 0.0843 -0.9907 250 248 246
363.2576 -159.4236 812.0812 0.0309 -0.6338 -0.7729 203 199 200
334.1669 -162.7264 821.9936 -0.8556 0.0991 -0.5081 159 154 156
264.3152 -164.4573 841.9272 0.7437 0.0073 -0.6685 247 157 64
169.8650 -140.6501 717.0941 0.6399 -0.0477 -0.7670 255 248 244
138.7626 -141.0988 719.8847 -0.5168 0.0935 -0.8510 255 255 240
109.3593 -144.7458 738.9482 -0.5495 -0.0041 -0.8355 255 255 236
79.0486 -150.5494 763.4230 -0.3498 0.3895 -0.8520 255 255 234
45.7438 -154.5894 783.9985 -0.4736 0.4117 -0.7786 255 255 175
-92.4042 -231.6036 1161.8569 -0.6989 -0.3006 -0.6490 206 208 209
-481.1069 -329.6131 1505.4077 0.0000 0.0000 0.0000 202 206 207
-418.6614 -268.1349 1367.6343 -0.2187 0.6868 -0.6931 236 237 241
-561.5096 -332.0435 1544.4528 0.0000 0.0000 0.0000 216 220 223
-484.6199 -277.8756 1496.4869 -0.0578 -0.7159 -0.6958 224 228 231
425.3977 -150.9563 783.5234 -0.2347 -0.1119 -0.9656 176 174 175
368.1361 -155.6896 802.2246 -0.2804 -0.6322 -0.7223 209 206 207
335.4315 -156.6753 809.8560 -0.8245 0.1527 -0.5450 84 79 80
313.8730 -165.0352 857.3842 -0.4712 0.3972 -0.7875 172 167 169
278.3461 -166.0283 856.4581 0.5535 0.2259 -0.8016 216 179 168
180.1150 -141.1773 728.3530 0.7439 -0.0735 -0.6643 255 228 218
116.8936 -142.6411 734.0494 -0.5771 -0.1213 -0.8076 255 255 238
86.2901 -147.3875 759.9609 -0.5963 0.1945 -0.7788 255 255 236
54.1766 -152.8411 783.6443 -0.5915 0.2091 -0.7787 255 255 255
-27.1374 -222.9245 1136.0508 -0.2162 -0.4549 -0.8639 219 216 220
-37.7617 -215.7825 1115.4993 0.1913 -0.6273 -0.7549 188 185 186
-142.4505 -224.0460 1158.1254 -0.1936 0.6722 -0.7146 254 255 255
-196.0800 -239.3543 1239.2443 -0.6404 -0.1404 -0.7551 194 198 201
-328.0211 -254.8029 1311.6224 -0.3010 -0.0709 -0.9510 218 222 225
-410.5500 -269.6674 1375.3956 0.1013 0.7513 -0.6521 232 234 236
435.8912 -142.1550 749.7604 -0.0215 -0.1024 -0.9945 185 185 183
345.2137 -155.3093 801.0049 0.0353 -0.2375 -0.9707 132 127 131
322.7611 -162.8867 848.5285 -0.7862 0.2246 -0.5758 191 184 184
318.0352 -175.6928 890.9235 -0.0396 -0.6659 -0.7450 133 124 127
295.9865 -169.7974 881.0483 0.4670 -0.2348 -0.8525 214 208 203
206.2060 -146.4427 759.6267 0.7489 -0.1112 -0.6533 255 255 255
191.9127 -143.0168 742.0362 0.7896 -0.1030 -0.6049 255 209 181
144.1138 -136.6266 711.6487 -0.5381 0.0483 -0.8415 255 255 243
61.7676 -148.4654 775.8152 -0.6812 0.1933 -0.7061 255 255 227
27.7458 -152.8745 797.4846 -0.6299 0.4401 -0.6399 255 255 216
-78.2741 -220.5589 1150.8125 -0.5331 -0.4473 -0.7182 241 243 244
-129.8684 -222.0329 1160.7767 0.2000 0.5452 -0.8141 255 255 255
-251.6373 -248.8916 1295.5837 -0.1552 -0.1338 -0.9788 237 239 243
-246.4219 -233.4577 1211.2471 -0.7506 -0.1273 -0.6484 201 204 210
-314.4166 -253.5999 1269.4924 0.0000 0.0000 0.0000 176 178 184
-498.6919 -297.9893 1518.2692 0.9200 0.3618 0.1508 228 234 237
-470.4739 -272.9268 1457.6561 -0.6209 0.5620 -0.5465 218 222 223
449.7394 -142.6662 761.6094 0.2725 -0.1828 -0.9446 166 166 166
427.0207 -146.3191 772.6179 -0.7238 -0.0280 -0.6895 121 116 120
367.9388 -149.5439 799.6984 -0.0087 -0.4568 -0.8895 190 187 191
332.7321 -161.2523 840.8320 -0.6462 0.2903 -0.7058 167 162 164
219.0232 -148.8594 784.2878 0.7901 -0.1169 -0.6017 255 255 255
152.1129 -135.5634 709.5730 -0.3801 -0.0572 -0.9232 255 255 245
122.6311 -137.9500 726.5063 -0.4774 -0.1331 -0.8686 255 255 241
93.5155 -143.4891 750.8632 -0.6815 0.1541 -0.7154 255 255 236
-124.0062 -230.7943 1212.0255 -0.2159 -0.3111 -0.9255 223 225 227
-180.7657 -233.4371 1216.5059 -0.7123 0.1510 -0.6855 255 255 255
459.9926 -141.7556 750.6997 0.3054 -0.2496 -0.9189 143 143 145
