ply
format ascii 1.0
element vertex 750
property float x
property float y
property float z
property float nx
property float ny
property float nz
property uchar red
property uchar green
property uchar blue
end_header
208.4950 -299.5047 890.1343 0.2546 0.3455 -0.9032 223 220 221
113.5219 -343.9041 993.0649 -0.0705 -0.1066 -0.9918 182 181 186
70.2827 -353.8236 1031.8013 0.1803 -0.4442 -0.8776 190 189 192
23.4524 -372.3176 1062.3307 -0.8741 -0.0762 -0.4798 206 208 209
-73.7594 -373.1035 1098.2642 -0.5269 -0.5903 -0.6115 160 161 168
-394.5352 -468.8158 1350.4717 -0.3980 -0.0971 -0.9122 176 180 185
402.5195 -254.9127 746.7202 -0.1918 0.0005 -0.9814 180 180 182
377.5336 -260.7115 774.9438 -0.3211 -0.3583 -0.8766 182 181 184
358.8486 -264.3799 792.0654 -0.6036 -0.3963 -0.6919 130 134 137
334.9025 -273.7511 807.2188 0.0099 0.0949 -0.9954 199 197 200
289.5815 -290.9626 859.8224 -0.3444 -0.3287 -0.8794 180 180 182
186.3558 -311.1918 921.6850 -0.3588 0.2513 -0.8990 239 239 239
150.8493 -326.0583 955.8032 -0.6847 -0.0092 -0.7287 152 152 155
437.7009 -249.8093 738.9541 -0.2296 0.4627 -0.8563 215 215 217
405.4850 -249.7642 737.2873 -0.2662 0.2011 -0.9427 159 161 163
381.3177 -255.7162 763.8045 -0.4702 -0.3478 -0.8111 240 240 240
345.5502 -273.6299 806.9521 0.1745 -0.0338 -0.9841 213 213 213
313.9095 -277.3165 826.0106 0.0464 0.2203 -0.9743 159 154 158
305.1492 -295.5052 858.9382 -0.1920 -0.6087 -0.7698 255 255 255
261.8972 -289.9188 864.8064 0.4517 0.3874 -0.8037 228 228 228
245.8928 -283.5320 857.5024 0.2778 0.4631 -0.8417 244 244 244
232.4076 -302.9006 916.3576 0.1429 -0.0869 -0.9859 147 146 149
159.2426 -319.5977 952.0026 -0.4402 -0.0195 -0.8977 220 220 222
118.9496 -325.6578 982.0272 -0.0536 0.0055 -0.9985 175 175 175
78.5783 -340.9828 1026.2269 0.1319 -0.4910 -0.8611 147 149 151
32.0872 -336.7153 1022.1664 -0.2487 -0.2956 -0.9224 252 254 255
-62.6148 -363.5333 1083.4094 0.1325 -0.0157 -0.9911 157 156 161
-168.1553 -408.2227 1216.7754 -0.4247 0.4673 -0.7754 154 156 160
-229.5990 -420.1776 1241.2651 -0.4172 0.2556 -0.8721 177 181 184
-341.0204 -414.9507 1263.8094 -0.6036 0.6474 -0.4654 225 227 229
416.7826 -250.2388 735.5232 -0.0441 0.6972 -0.7155 174 178 181
366.6637 -262.1263 784.8704 -0.3842 -0.2789 -0.8801 196 194 194
352.2327 -270.0800 809.3958 0.2028 -0.0201 -0.9790 163 161 164
323.2102 -276.1566 821.5516 -0.1517 0.4947 -0.8557 174 171 174
244.1323 -303.1021 914.4343 -0.4857 -0.2931 -0.8235 121 120 125
201.9850 -300.9391 912.4103 -0.4117 -0.1547 -0.8981 213 213 215
173.9557 -326.0827 937.0715 -0.3740 -0.2744 -0.8859 222 222 224
131.9800 -331.1004 990.5047 -0.2295 0.2057 -0.9513 255 255 255
43.3688 -337.3126 1019.5766 -0.1728 -0.2621 -0.9494 209 211 213
-2.3041 -356.2602 1077.0021 0.0391 0.4499 -0.8922 199 203 207
-52.1801 -368.3840 1110.5962 -0.0562 -0.4360 -0.8982 200 201 205
-102.1035 -367.0844 1132.1149 0.6511 -0.4744 -0.5924 179 180 184
-356.0134 -467.8727 1404.8444 -0.6873 0.0528 -0.7244 204 206 210
-346.1051 -437.0473 1313.2460 0.5135 0.8183 0.2582 211 215 218
378.4893 -263.3212 786.3654 -0.3609 -0.2523 -0.8978 157 152 156
370.0959 -275.4656 814.7319 0.0002 0.2437 -0.9698 141 135 139
332.2891 -274.6221 818.8374 -0.2277 0.4597 -0.8584 193 192 197
296.5599 -274.7767 833.0337 0.2663 0.3262 -0.9070 249 249 249
273.6396 -291.0387 871.3266 0.1012 0.0471 -0.9937 159 159 161
179.4673 -313.8602 936.0341 -0.6359 -0.2728 -0.7219 165 165 167
55.4677 -336.9897 1024.2229 -0.2401 -0.3387 -0.9097 170 169 174
9.6181 -361.5963 1097.0890 0.1869 -0.1102 -0.9762 192 194 195
-41.7848 -373.6496 1122.1616 -0.2021 -0.3222 -0.9248 187 189 193
-201.2874 -388.1086 1191.8596 -0.3463 -0.5387 -0.7680 166 168 172
-413.3771 -460.3912 1395.2777 -0.4882 0.6620 -0.5687 200 200 202
419.5604 -245.2130 737.6380 0.1162 0.6697 -0.7335 183 186 185
379.7752 -255.7376 778.7366 -0.2228 -0.3200 -0.9208 240 240 240
210.5623 -296.6086 905.0562 0.3080 -0.0108 -0.9513 191 190 195
138.8323 -319.0474 973.9123 -0.6157 0.0367 -0.7872 243 243 245
-29.1154 -368.6271 1139.3540 -0.4894 -0.2216 -0.8434 195 197 201
-82.0901 -378.0557 1137.9808 -0.0937 -0.1604 -0.9826 173 177 180
-192.0974 -391.3060 1201.3066 -0.1616 -0.6045 -0.7801 244 246 248
-394.0432 -449.5023 1388.5131 -0.5382 0.7103 -0.4536 178 182 188
405.1775 -250.1193 752.6536 -0.4517 0.0762 -0.8889 189 188 191
394.9083 -258.8271 781.7302 0.0581 -0.1408 -0.9883 137 139 139
332.9419 -265.2476 811.7248 -0.2683 0.2475 -0.9310 250 250 252
298.4568 -265.8603 809.0667 0.0372 -0.2724 -0.9615 139 134 138
250.2915 -282.2918 863.2523 0.3107 0.4805 -0.8201 207 207 209
242.6616 -310.3916 923.0242 -0.4056 -0.2020 -0.8914 133 132 135
224.0384 -300.7910 913.9850 0.2677 0.0438 -0.9625 255 255 255
182.3762 -299.3257 927.3006 -0.5449 -0.1486 -0.8253 142 139 145
107.5172 -321.8008 985.0407 -0.1133 0.1422 -0.9833 197 196 199
64.9508 -328.0520 1015.5080 -0.2314 -0.3677 -0.9007 164 166 167
19.7810 -337.0854 1059.5321 -0.5770 0.5391 -0.6136 221 223 224
-67.1990 -366.7999 1121.6849 -0.0537 0.3270 -0.9435 180 182 186
-81.6989 -321.9850 982.5007 0.0000 0.0000 0.0000 164 163 168
-178.1755 -386.7004 1213.8723 0.1974 -0.5763 -0.7930 251 253 255
-391.1118 -460.6863 1351.4830 -0.7391 0.5762 -0.3490 248 248 250
409.5461 -245.8500 741.5950 -0.3570 0.2176 -0.9084 119 118 121
341.3935 -263.2270 804.0010 0.0929 0.0808 -0.9924 199 197 198
308.4165 -265.4760 825.5786 0.1203 0.3148 -0.9415 141 141 141
278.7479 -271.2635 850.6310 -0.5647 -0.5472 -0.6178 199 197 200
118.8685 -321.3121 987.7139 0.1604 0.2150 -0.9634 255 255 255
76.9810 -334.5290 1017.1197 -0.1528 -0.4705 -0.8691 223 225 227
30.6677 -336.1392 1032.2803 -0.6999 0.0559 -0.7120 190 192 196
-17.3058 -359.0620 1099.9521 -0.5713 -0.0722 -0.8176 207 212 215
-59.2546 -379.9189 1134.7953 0.2823 0.3066 -0.9090 187 189 193
-172.4412 -399.3367 1232.6104 0.2253 -0.3151 -0.9219 245 247 251
-225.2473 -396.2676 1210.0034 -0.7425 -0.0736 -0.6658 195 197 201
417.6267 -244.0989 740.8486 0.0000 0.0000 0.0000 140 137 141
324.3076 -270.4249 829.1180 -0.3088 0.5016 -0.8081 184 182 185
286.1610 -268.4623 831.1643 -0.2724 -0.0261 -0.9618 194 194 196
204.4754 -297.0122 919.8645 0.1615 0.1476 -0.9758 179 179 181
131.0838 -324.3970 994.4446 -0.2034 0.0221 -0.9789 204 203 206
86.9402 -324.4257 1004.7361 -0.1492 -0.4433 -0.8839 232 231 234
41.3636 -331.4759 1031.1239 -0.4328 0.1542 -0.8882 199 198 203
-6.5439 -350.3143 1099.7633 -0.2217 0.1281 -0.9667 215 217 219
-384.9049 -485.9479 1403.7583 0.0952 -0.0927 -0.9911 225 224 227
365.3942 -264.6667 813.8906 0.2446 0.1051 -0.9639 190 187 191
344.8891 -256.9966 800.7686 0.0715 0.1615 -0.9843 221 221 221
330.3832 -265.4669 825.9196 -0.6228 0.3704 -0.6892 250 250 250
296.8349 -268.4737 837.1582 0.3119 0.4282 -0.8482 173 168 172
264.2228 -273.3645 869.3462 0.1067 0.2936 -0.9499 160 157 160
234.7003 -283.8804 904.1193 -0.3737 -0.5691 -0.7325 255 255 255
140.2018 -318.7081 976.9238 -0.7215 -0.0735 -0.6885 255 255 255
-34.3659 -391.7477 1144.4463 -0.3075 -0.2655 -0.9138 251 253 255
-45.2318 -372.0941 1147.2374 0.0497 0.0458 -0.9977 205 209 214
-100.1930 -374.8220 1147.1494 -0.1092 -0.0745 -0.9912 174 176 180
-213.4671 -394.0875 1216.1924 -0.5573 -0.2942 -0.7765 212 211 216
-331.5405 -401.0938 1298.3218 -0.6260 0.6450 -0.4383 202 204 208
379.3669 -248.5956 781.6575 -0.5027 0.1145 -0.8568 153 151 151
305.5840 -266.5273 841.4929 0.1630 0.4765 -0.8640 165 165 169
279.1879 -277.5485 870.3804 -0.5795 -0.1600 -0.7991 197 194 198
241.1041 -277.8912 871.0130 -0.3382 -0.0613 -0.9391 228 228 228
211.6868 -291.8365 915.9077 0.2949 0.2555 -0.9207 255 255 255
175.1143 -299.3048 936.0366 -0.5780 0.0787 -0.8123 158 158 160
52.5472 -327.9947 1027.4615 -0.4815 0.1676 -0.8603 206 205 210
18.9286 -349.9939 1098.3973 0.3311 -0.3979 -0.8556 251 253 255
6.7841 -353.1875 1099.3988 0.1491 -0.3480 -0.9256 176 179 180
-203.9055 -394.8521 1230.6421 -0.6339 -0.0936 -0.7678 229 231 232
-265.8440 -425.9012 1303.5750 -0.3167 0.3793 -0.8694 190 192 196
-413.5833 -450.7049 1415.0068 -0.4431 0.6842 -0.5792 210 211 218
368.9416 -212.4223 735.2010 0.0000 0.0000 0.0000 210 208 208
400.4724 -240.1974 753.4234 -0.3562 -0.1223 -0.9264 215 215 215
361.1196 -252.5125 798.9326 -0.4359 -0.3889 -0.8116 143 142 149
334.1810 -259.3638 815.1349 -0.7001 0.3510 -0.6219 179 176 179
225.9387 -296.8925 924.0550 0.3500 0.5241 -0.7764 235 235 235
147.5094 -307.5324 971.8069 -0.7137 -0.0846 -0.6953 149 147 150
105.4844 -312.8641 994.2532 -0.1747 0.1514 -0.9729 252 254 255
-72.2375 -361.9162 1134.6814 0.0947 0.0064 -0.9955 175 177 181
-81.9193 -352.9985 1132.7327 -0.0694 0.0378 -0.9969 175 177 181
-181.6516 -375.1548 1191.3367 -0.1320 -0.5152 -0.8468 255 255 255
414.4162 -242.2849 745.1965 -0.3880 -0.2154 -0.8962 180 180 182
384.7869 -244.7538 777.4604 -0.2744 0.2413 -0.9309 241 241 243
343.8033 -258.2120 815.5735 0.0101 0.1478 -0.9890 244 241 244
314.7769 -264.8648 844.4420 -0.0346 0.6565 -0.7536 205 203 204
280.2821 -267.0353 843.7578 -0.3193 -0.3097 -0.8956 144 144 146
266.3053 -282.3191 898.0588 -0.2943 -0.7202 -0.6282 180 180 182
244.4893 -269.4363 872.6663 0.3847 0.4117 -0.8261 180 180 184
116.5165 -311.4531 999.3562 0.1042 0.1615 -0.9814 144 146 148
73.5090 -319.1024 1012.8691 -0.1516 -0.5419 -0.8267 173 175 179
29.7710 -341.2610 1060.7660 -0.5927 -0.1276 -0.7952 195 197 201
-20.0256 -346.1506 1098.3505 -0.5383 -0.3603 -0.7619 221 223 224
-245.5520 -410.9103 1281.3550 -0.5101 -0.2457 -0.8243 218 220 224
-371.1738 -417.7273 1329.9225 -0.7586 0.0381 -0.6504 244 246 248
368.6051 -250.0874 792.0615 -0.3990 0.4853 -0.7780 243 243 243
319.1732 -258.5881 830.0361 -0.0748 0.6670 -0.7413 255 255 253
284.8709 -260.3184 832.1492 -0.0055 0.2107 -0.9775 165 160 162
224.0548 -278.3332 900.6722 -0.2020 -0.5158 -0.8326 255 255 255
151.4534 -289.8462 958.5202 -0.4853 0.0266 -0.8740 168 165 170
130.9285 -319.0593 1014.0908 -0.0315 0.2800 -0.9595 243 243 245
40.0718 -331.5284 1045.5122 -0.5907 0.0181 -0.8067 211 210 213
-60.1715 -357.2180 1140.9899 0.4009 -0.0410 -0.9152 209 211 215
-226.8613 -399.0554 1258.8756 -0.6949 -0.0977 -0.7124 199 200 204
377.6132 -248.4686 793.2090 -0.3160 0.6613 -0.6803 205 205 205
363.6016 -256.1255 816.3950 0.4012 0.0756 -0.9129 119 121 123
345.1698 -250.3229 805.0081 0.2040 0.3232 -0.9241 188 185 188
330.2719 -258.4855 831.0752 -0.4154 0.6364 -0.6500 202 199 202
294.5038 -259.3918 838.8162 0.3229 0.3051 -0.8959 177 177 179
268.7445 -272.0221 873.8079 -0.4338 -0.2529 -0.8648 243 240 241
96.8045 -321.0286 1032.1738 0.4593 -0.4045 -0.7908 176 175 180
82.8699 -311.5051 1001.3125 0.1174 -0.5107 -0.8517 206 207 211
-48.2672 -361.0456 1142.1235 0.2684 -0.1258 -0.9551 172 173 177
-363.3601 -436.0832 1311.4519 -0.7081 0.4786 -0.5192 206 207 211
-336.4424 -389.3890 1304.9474 -0.7060 0.1565 -0.6906 210 212 214
388.2798 -218.7139 729.0648 0.0802 0.0350 -0.9962 132 129 132
381.9337 -243.5559 790.1299 -0.5657 0.5330 -0.6292 246 246 246
308.8409 -262.5292 847.7676 0.1294 0.1565 -0.9792 209 206 207
221.5609 -260.5717 872.5041 -0.3598 0.3649 -0.8587 189 188 191
212.7473 -287.3148 930.6821 0.0213 0.2806 -0.9596 236 236 238
173.3255 -290.2138 938.9538 -0.5917 -0.3617 -0.7205 153 150 155
135.5253 -302.5821 978.2036 -0.6572 -0.2339 -0.7165 166 163 166
50.3859 -315.1711 1035.6379 -0.4345 -0.2080 -0.8763 156 157 161
32.0854 -381.0534 1141.0403 0.0000 0.0000 0.0000 210 209 212
4.0068 -340.2726 1096.2245 0.0879 -0.4403 -0.8935 255 255 255
-34.3640 -353.8345 1146.5348 -0.0158 -0.5446 -0.8385 209 211 213
-272.3029 -416.6503 1284.4026 -0.2530 -0.2497 -0.9347 207 212 215
-345.2177 -430.1137 1396.6890 0.0000 0.0000 0.0000 175 179 182
-414.6784 -434.3316 1421.6586 -0.2018 0.6290 -0.7508 220 221 225
400.1594 -233.1912 755.7915 -0.2502 -0.1340 -0.9589 189 186 189
368.8753 -251.7426 814.7877 -0.1276 -0.0717 -0.9892 239 237 237
255.3073 -275.5355 894.7535 0.4529 0.2733 -0.8486 204 203 206
231.5656 -259.7524 871.2886 -0.1339 0.2602 -0.9562 212 211 214
223.5998 -286.9283 927.5295 -0.1641 -0.0093 -0.9864 208 208 210
142.4408 -292.0500 969.0281 -0.5890 0.0612 -0.8058 203 202 205
102.9535 -299.4784 995.5193 0.0134 -0.1888 -0.9819 194 196 198
13.5968 -326.2547 1084.8500 -0.3590 -0.5410 -0.7605 178 179 183
-84.9463 -344.9990 1131.0771 -0.0211 -0.0277 -0.9994 255 255 255
407.1322 -230.7049 747.6077 -0.2321 -0.4164 -0.8791 133 131 132
383.5543 -236.9718 782.8919 -0.5352 0.4726 -0.7001 158 154 160
342.6148 -250.2628 819.6443 0.2177 0.2058 -0.9541 189 186 189
317.1547 -259.9648 851.1766 0.0345 0.1517 -0.9878 255 255 255
266.2529 -274.5255 898.8711 -0.3913 -0.5480 -0.7393 243 243 243
140.1375 -337.6060 1050.8896 0.0000 0.0000 0.0000 230 230 232
116.7133 -309.5913 1003.4710 -0.1469 -0.1381 -0.9795 250 252 253
-22.0497 -333.2025 1100.7389 -0.6068 -0.3313 -0.7225 218 220 222
-74.4252 -347.1597 1138.2545 0.0423 -0.2564 -0.9657 187 191 194
-238.1754 -379.0312 1261.0114 -0.5835 -0.3539 -0.7310 221 223 224
350.5831 -247.6552 815.8862 0.2439 0.2119 -0.9464 165 162 165
328.5558 -259.8682 852.5814 0.1011 0.2956 -0.9500 198 196 195
286.9353 -255.2335 840.9189 0.2857 0.6507 -0.7036 171 171 173
221.6102 -268.7473 884.6797 -0.6353 -0.0223 -0.7719 178 178 178
187.5198 -276.9813 920.0120 0.1352 0.4162 -0.8992 248 248 250
152.5392 -288.4692 963.4356 -0.2857 0.1976 -0.9377 192 190 193
69.6631 -299.9916 989.2342 -0.2087 -0.0884 -0.9740 249 251 252
25.8428 -313.4480 1047.9301 -0.5332 -0.2234 -0.8159 196 195 198
-52.5301 -366.6986 1159.2666 0.2173 -0.5849 -0.7814 188 190 194
-114.4392 -347.9006 1160.6620 -0.4534 -0.6341 -0.6264 173 175 179
-170.7086 -356.5073 1170.1499 -0.3198 -0.2919 -0.9014 189 191 193
-297.6030 -395.7129 1288.6511 -0.3563 0.0588 -0.9325 216 218 220
-358.6089 -399.2817 1329.7285 -0.3522 0.4167 -0.8380 207 211 217
-583.1630 -601.0061 1979.8463 0.0000 0.0000 0.0000 224 226 228
426.3690 -228.9468 740.1404 0.0248 -0.7520 -0.6586 115 115 117
408.2201 -224.6504 734.5511 0.0837 -0.3328 -0.9393 180 180 180
373.5583 -238.5472 798.1946 -0.3011 0.5656 -0.7678 248 248 248
363.9975 -249.5721 826.4189 0.2641 -0.0572 -0.9628 244 244 246
334.3350 -254.7529 847.8382 -0.0061 0.0584 -0.9983 243 244 241
299.0258 -257.2082 848.3718 0.2527 0.5886 -0.7679 201 198 201
267.1671 -262.8517 870.4299 -0.0236 -0.4016 -0.9155 185 185 187
233.6981 -269.9353 884.8457 -0.0253 0.3991 -0.9166 172 174 175
198.9430 -277.2061 929.3460 -0.0107 -0.2027 -0.9792 197 196 201
161.8532 -286.5775 961.7685 -0.4090 0.5340 -0.7400 165 165 167
119.4986 -285.4358 980.3311 -0.4301 -0.2528 -0.8667 241 243 244
80.2698 -299.1252 988.0325 0.3224 -0.1631 -0.9325 199 200 204
36.9957 -310.6112 1040.5912 -0.6695 -0.2082 -0.7130 213 215 216
-9.9638 -316.5226 1081.2507 -0.4002 -0.5474 -0.7350 203 205 209
-60.1626 -329.5630 1125.2448 -0.0069 -0.5717 -0.8204 157 158 164
-101.9754 -342.8997 1139.9197 -0.6233 0.2277 -0.7481 203 207 210
-158.6596 -353.6213 1176.4764 0.2833 -0.1089 -0.9528 165 166 173
-228.9870 -382.9436 1267.6200 -0.5998 -0.1990 -0.7750 255 255 255
-438.9406 -429.0488 1431.0127 -0.1637 0.5950 -0.7869 202 204 208
385.6541 -239.3698 797.9656 -0.5357 0.5153 -0.6689 130 132 136
300.3855 -247.2485 844.9588 0.1389 0.1941 -0.9711 241 241 241
273.4936 -257.6400 859.7554 0.1003 0.1338 -0.9859 149 147 148
237.4790 -260.5298 885.0252 0.2815 0.1962 -0.9393 144 146 150
212.7210 -280.9443 936.3237 -0.4201 -0.3776 -0.8252 196 198 202
173.8027 -285.7924 940.9700 -0.4663 -0.4197 -0.7787 210 209 212
135.7994 -298.9811 989.9965 -0.5190 -0.3723 -0.7694 250 250 250
90.6133 -291.7056 987.1585 0.0084 0.0882 -0.9961 196 195 198
46.5762 -302.7276 1014.8898 -0.3506 -0.0524 -0.9351 205 210 210
0.9133 -318.1599 1074.6195 -0.2180 -0.5546 -0.8030 172 171 176
-38.3527 -350.9648 1162.8816 0.0000 0.0000 0.0000 245 247 249
-212.1984 -371.8487 1255.1847 -0.5070 -0.1797 -0.8430 217 219 221
-259.3184 -361.3547 1244.4316 0.5925 -0.7558 -0.2788 193 194 198
-340.6525 -391.4619 1316.2545 -0.3288 0.3667 -0.8703 187 189 191
390.0025 -234.4112 792.2627 -0.6445 0.3557 -0.6768 227 227 227
365.5916 -242.0946 821.6346 -0.0345 -0.1289 -0.9911 184 184 186
253.1513 -265.5295 892.8513 -0.3044 -0.4574 -0.8355 249 249 249
214.8967 -267.6040 903.8405 -0.6018 0.0365 -0.7978 164 163 168
103.3771 -301.2136 1009.8892 -0.1968 -0.3875 -0.9006 255 255 255
58.3555 -300.0000 1014.0938 -0.5048 -0.0518 -0.8617 164 165 169
12.5228 -311.8223 1051.7157 -0.2043 -0.2704 -0.9408 183 185 187
-90.0776 -339.4973 1141.6434 -0.5650 0.0270 -0.8247 216 218 220
-143.9469 -344.3396 1179.9598 0.3475 0.0032 -0.9377 200 201 205
-197.6817 -367.6380 1220.2914 -0.6751 -0.1481 -0.7227 208 210 212
-258.6406 -373.7982 1279.0453 -0.2809 -0.5104 -0.8128 220 221 225
-389.4009 -388.3182 1323.1423 -0.7109 -0.4710 -0.5224 203 207 208
405.9399 -223.0608 749.9675 -0.5779 -0.4446 -0.6844 161 160 163
345.8247 -245.5018 831.2056 -0.4130 -0.0703 -0.9080 192 192 194
312.0503 -247.9973 841.9536 0.0653 0.0848 -0.9943 200 200 200
177.6882 -273.2392 918.8707 -0.1712 -0.2120 -0.9621 182 181 184
140.3557 -283.2475 972.2824 -0.2451 -0.1810 -0.9525 163 162 167
112.6489 -298.2692 1008.4363 -0.4148 -0.2725 -0.8681 200 200 202
70.1941 -304.7093 1044.6467 -0.3296 -0.3440 -0.8792 208 210 212
23.6105 -312.1282 1057.2208 -0.5050 -0.1286 -0.8535 225 224 227
-24.2084 -322.3139 1110.8489 -0.6801 -0.3386 -0.6503 255 255 255
-34.5087 -307.5381 1076.3864 -0.7100 -0.2871 -0.6430 203 205 207
-73.9458 -322.0795 1125.1722 -0.4591 -0.3158 -0.8304 202 204 206
-125.0269 -360.4691 1196.3951 0.2901 0.1267 -0.9486 218 220 224
-132.9526 -349.4994 1184.9730 0.0614 0.0443 -0.9971 210 212 216
-253.1688 -384.2271 1274.8864 -0.5307 -0.2202 -0.8185 211 210 213
391.7863 -228.2305 777.2893 -0.8354 0.0521 -0.5471 201 198 199
322.3821 -247.2567 849.0242 0.2108 0.0083 -0.9775 247 245 246
283.3671 -245.6536 852.5952 -0.0764 0.8589 -0.5064 195 192 195
251.9203 -251.6512 868.0917 -0.1784 -0.2120 -0.9608 242 242 244
219.9588 -259.3189 887.8073 -0.2937 0.5693 -0.7679 158 158 162
188.3875 -272.8120 937.8903 0.1893 0.2635 -0.9459 230 230 232
168.2927 -292.5154 978.8273 -0.2280 0.5735 -0.7868 150 150 152
152.7776 -285.7873 974.3818 -0.2783 0.0372 -0.9598 206 206 208
-62.1395 -323.0721 1111.5858 -0.1925 -0.2256 -0.9550 164 165 171
-373.5405 -399.5147 1370.2330 -0.9358 0.2306 -0.2666 207 208 212
401.9033 -214.1051 733.8828 -0.0552 -0.5119 -0.8573 129 129 129
380.4267 -236.4994 804.3732 -0.4116 0.3535 -0.8400 157 157 157
364.6730 -242.4845 823.8269 0.1958 -0.2676 -0.9434 177 177 179
334.5423 -247.7644 851.7093 -0.1033 -0.1761 -0.9789 168 165 170
298.1917 -248.7904 856.7795 -0.0851 0.6980 -0.7110 255 255 255
262.5910 -250.6158 864.8972 0.1294 0.1294 -0.9831 150 145 149
228.9496 -257.0568 893.9476 -0.0727 0.5997 -0.7969 180 180 182
200.3041 -273.6898 940.2720 -0.1835 0.0115 -0.9829 201 201 203
119.8090 -283.5430 987.0236 -0.5703 -0.2864 -0.7699 211 211 211
78.6749 -292.7297 1004.5224 -0.1216 0.5241 -0.8429 197 201 204
35.2593 -296.0271 1037.4624 -0.6878 0.3537 -0.6339 194 196 200
-12.0041 -298.6169 1066.6322 -0.3525 -0.2470 -0.9026 201 203 205
-111.0659 -351.3764 1200.3817 -0.3008 -0.4416 -0.8453 238 240 242
-166.2020 -326.4776 1159.6260 0.2050 -0.3837 -0.9004 209 211 213
-222.5242 -354.6531 1236.8375 -0.0600 -0.5142 -0.8555 232 234 236
-297.4189 -377.2477 1296.0609 -0.3537 0.3705 -0.8589 219 223 226
407.6556 -224.1551 761.7034 -0.3624 0.6738 -0.6439 152 152 155
381.8986 -229.4760 800.6268 -0.4351 0.3806 -0.8160 255 255 255
307.5078 -247.3339 857.8035 -0.2691 0.3243 -0.9069 198 198 196
270.9560 -247.8004 867.5942 0.2756 0.1583 -0.9482 176 178 182
240.9406 -257.7352 894.7852 -0.1795 -0.0175 -0.9836 242 242 242
206.4488 -265.6049 922.1323 -0.3541 -0.4954 -0.7932 193 193 195
129.4119 -276.3291 975.6686 -0.5148 -0.4440 -0.7334 216 213 216
89.1581 -292.0527 1012.2661 0.0556 -0.1743 -0.9831 244 246 248
45.6957 -295.1441 1027.7511 -0.3857 0.3432 -0.8564 204 206 208
-1.3498 -304.2741 1057.7916 -0.3586 -0.1055 -0.9275 187 189 191
-51.7031 -321.1133 1103.4625 -0.1871 -0.2879 -0.9392 245 247 249
-149.8645 -341.4375 1190.0422 0.3475 0.0032 -0.9377 163 162 169
-159.8354 -333.7382 1169.1241 0.2750 -0.3963 -0.8760 231 233 235
-284.5407 -377.1423 1310.9945 -0.0990 0.1811 -0.9785 180 182 184
-340.6374 -374.6201 1342.8552 -0.1354 0.3900 -0.9108 200 199 206
389.6696 -227.2206 799.8293 -0.2291 0.3432 -0.9109 225 225 225
364.6541 -234.1620 817.4778 -0.1367 -0.2779 -0.9508 237 237 237
332.9031 -237.3627 837.8992 -0.4571 -0.4031 -0.7928 208 205 208
285.8142 -251.8227 880.3450 0.1297 0.2348 -0.9634 198 198 198
250.3763 -255.3239 891.8863 -0.3012 -0.1874 -0.9350 152 149 154
212.9459 -258.0567 913.1144 -0.4380 0.1126 -0.8919 225 224 227
178.1827 -267.9981 935.0186 0.4035 0.3979 -0.8240 218 217 220
161.6027 -258.4450 935.9435 -0.2807 -0.0763 -0.9568 151 148 151
140.7196 -278.8607 973.8849 -0.0420 -0.4877 -0.8720 163 163 165
101.3540 -295.2604 1015.1733 -0.1322 -0.1500 -0.9798 211 210 213
55.4773 -290.9705 1034.5243 -0.2775 0.0303 -0.9602 195 197 199
9.6743 -298.2101 1062.1941 -0.2725 -0.0910 -0.9579 199 198 203
-30.1131 -354.6886 1112.6469 -0.9826 0.1759 -0.0592 193 192 199
-38.4255 -312.4483 1099.2954 -0.5936 -0.2048 -0.7783 211 213 215
-91.9266 -325.6348 1160.4600 -0.6618 -0.0680 -0.7466 232 234 236
-197.5257 -332.2643 1215.3201 -0.8274 -0.1456 -0.5425 189 188 191
-276.2571 -381.4708 1334.4884 -0.2930 -0.0125 -0.9560 218 220 224
-407.3718 -389.9563 1359.1553 -0.8462 0.2575 -0.4666 204 208 209
374.6271 -233.2043 820.1677 -0.5619 -0.1074 -0.8202 193 193 195
339.8431 -233.8559 828.6047 -0.4780 -0.4962 -0.7247 232 232 232
303.2396 -233.1025 841.1907 0.0999 0.1179 -0.9880 183 181 182
225.0388 -259.2258 910.2488 -0.1987 -0.0034 -0.9801 207 207 207
190.2581 -269.2880 947.5972 -0.0017 0.3215 -0.9469 184 183 188
152.5204 -280.6561 972.5778 -0.0369 -0.3690 -0.9287 121 121 123
22.6161 -313.7519 1074.0414 -0.5071 0.0527 -0.8603 150 149 154
-78.8500 -318.0750 1133.7137 -0.6087 -0.1704 -0.7749 167 171 174
-139.9492 -344.7502 1184.9365 0.2250 -0.2534 -0.9408 201 203 207
-193.4665 -343.2181 1218.4052 -0.8398 -0.2249 -0.4941 221 223 224
319.5357 -237.4659 846.5103 0.1706 0.1445 -0.9747 186 183 186
290.8112 -245.6815 873.2680 0.0072 0.4023 -0.9155 255 255 255
248.9655 -241.2420 864.1201 -0.1855 0.1254 -0.9746 174 171 174
239.3575 -262.4910 909.6133 -0.2371 0.0291 -0.9711 150 150 152
109.9980 -282.6329 995.0338 -0.4182 -0.4954 -0.7614 221 220 225
66.2876 -290.9402 1037.4381 -0.4490 -0.2617 -0.8544 212 211 214
-67.3088 -325.0604 1118.9401 -0.1636 -0.2349 -0.9582 213 214 220
-176.8900 -330.9854 1169.5717 -0.2206 -0.3671 -0.9036 174 176 180
-244.7757 -352.4167 1238.2568 -0.5538 -0.1315 -0.8222 255 255 255
394.0005 -215.6680 773.4033 -0.2992 0.1232 -0.9462 210 209 212
371.4692 -222.9204 806.4297 -0.6127 0.0785 -0.7864 233 233 233
332.1837 -238.3699 854.2708 -0.0432 -0.1240 -0.9913 196 193 196
302.8125 -246.2472 874.6605 -0.1483 0.4799 -0.8647 199 197 198
258.7966 -240.2247 869.0280 0.1038 0.3891 -0.9153 222 222 224
192.5018 -254.8451 925.5519 -0.5692 0.1115 -0.8146 182 181 184
158.2831 -268.1919 961.7521 -0.1057 -0.4359 -0.8938 175 174 177
119.8193 -278.8248 991.3376 -0.4866 -0.2102 -0.8479 194 191 194
77.5145 -287.7365 1024.7211 -0.4569 -0.3727 -0.8077 251 251 253
32.1383 -296.0121 1062.1812 -0.4706 -0.0266 -0.8819 213 213 215
-15.2223 -294.8219 1061.1537 -0.5073 0.0373 -0.8609 152 152 157
-110.8505 -328.2339 1175.3501 -0.1431 -0.6923 -0.7073 204 206 212
-117.4939 -317.5865 1156.9540 -0.4241 -0.5990 -0.6792 189 193 196
-235.7684 -355.8644 1231.8579 -0.0642 -0.5206 -0.8514 230 232 234
-306.9219 -373.1350 1317.4019 -0.5433 0.3843 -0.7464 171 175 179
-390.6612 -412.6844 1427.3129 -0.4628 -0.1596 -0.8720 232 234 238
-363.6116 -369.9403 1347.8611 -0.1101 0.2320 -0.9665 228 230 231
381.0174 -221.9327 802.2910 -0.3855 0.2996 -0.8727 213 211 212
354.5714 -227.6946 817.0827 -0.1057 -0.4083 -0.9067 232 232 232
307.1516 -239.8137 869.2841 -0.5230 0.1836 -0.8323 242 242 242
275.4468 -245.5642 880.6585 0.1250 0.2960 -0.9470 201 198 199
241.0718 -250.9373 899.3291 -0.2863 -0.4045 -0.8686 142 140 143
86.6877 -278.2168 1014.4606 -0.0777 -0.3411 -0.9368 198 196 199
44.1039 -299.4428 1061.7880 -0.3104 0.0322 -0.9501 250 250 252
-4.4936 -304.1224 1083.7837 0.2201 0.1863 -0.9575 213 215 216
-53.8353 -308.3206 1106.4136 -0.0283 0.1062 -0.9939 210 212 214
-163.0291 -325.0174 1159.4866 0.5660 -0.0654 -0.8218 237 239 241
-221.9730 -353.4159 1249.9438 -0.3923 -0.2858 -0.8743 218 220 222
-278.5974 -352.3623 1316.3160 -0.4750 -0.0110 -0.8799 182 184 186
-447.8660 -411.9974 1447.0239 -0.0280 -0.4494 -0.8929 211 215 216
-429.3442 -384.5042 1424.5215 0.0198 -0.4813 -0.8763 210 211 218
398.1644 -211.3985 766.7938 -0.3783 0.3731 -0.8472 182 181 184
392.5895 -221.9297 804.1545 -0.0086 -0.0533 -0.9985 237 234 235
363.4573 -225.9134 816.7410 0.0357 -0.1951 -0.9801 206 208 209
333.1360 -230.2749 834.6754 -0.7012 -0.5021 -0.5062 209 206 207
250.7211 -248.9439 886.3940 0.1536 -0.4540 -0.8777 244 244 244
198.8072 -248.2455 916.1821 -0.3613 0.4458 -0.8190 172 172 174
162.3799 -253.3768 921.2311 0.2487 0.4920 -0.8343 232 231 234
125.2355 -263.7963 954.8931 0.2838 -0.5253 -0.8022 156 154 157
54.1663 -287.8366 1049.3726 -0.5821 0.1128 -0.8052 255 255 255
7.0810 -307.8467 1100.6162 -0.2087 0.2088 -0.9554 136 138 139
-42.8254 -311.4832 1114.3323 -0.3536 0.1030 -0.9297 192 194 195
-93.0977 -310.7555 1150.6984 -0.3018 -0.2812 -0.9110 166 169 175
-277.7339 -365.7580 1297.1064 -0.7514 0.0841 -0.6544 221 222 226
454.8118 -201.1585 734.3091 -0.2299 -0.7971 -0.5584 102 102 104
404.8290 -222.1995 806.0049 -0.1514 -0.0671 -0.9862 178 178 180
366.0447 -219.8383 819.0583 -0.1606 -0.1710 -0.9721 244 241 242
335.9155 -223.5156 834.3386 -0.5105 -0.4041 -0.7590 181 179 177
312.7930 -234.4395 858.9775 -0.3470 -0.1261 -0.9294 198 196 199
280.4496 -239.2115 875.9749 0.0460 0.3541 -0.9341 254 254 254
175.2825 -256.8773 944.9424 0.2116 0.3454 -0.9143 206 206 208
135.8125 -311.1027 1040.3430 0.0000 0.0000 0.0000 207 207 209
94.9230 -266.2990 983.1451 -0.1377 -0.4080 -0.9025 226 226 226
-136.6295 -317.5122 1162.1741 -0.5028 -0.5465 -0.6697 200 201 205
-207.0415 -345.8775 1249.9436 -0.5326 -0.5162 -0.6707 225 227 229
-424.1327 -399.2823 1450.7227 -0.1269 0.8339 -0.5371 201 203 205
380.4148 -221.8030 819.0867 -0.5284 -0.0847 -0.8447 201 201 201
324.7835 -235.1820 853.7685 0.0246 0.1333 -0.9908 176 173 177
286.8741 -234.4403 872.9427 0.0251 0.2843 -0.9584 182 178 179
251.0624 -236.9331 879.5784 0.2396 -0.0609 -0.9690 206 204 207
186.5467 -257.0997 948.1348 -0.2085 0.2134 -0.9545 218 218 218
146.7433 -261.2229 957.3466 0.0549 -0.4468 -0.8929 154 151 157
106.8865 -269.2268 993.9224 0.0947 -0.1786 -0.9793 137 137 141
63.3795 -272.7969 1017.4504 -0.4923 -0.1595 -0.8557 246 248 250
17.8981 -287.0405 1064.5890 -0.4962 -0.2147 -0.8412 218 220 222
-28.2851 -293.4415 1094.4486 -0.6100 -0.1581 -0.7765 230 232 234
-79.2381 -299.8583 1103.9301 -0.3075 -0.4785 -0.8225 232 234 238
-123.7243 -314.3043 1148.9067 -0.3253 -0.4736 -0.8185 201 203 207
-388.5484 -377.6272 1420.4780 0.5325 -0.4879 -0.6917 195 199 202
404.4523 -214.8578 791.3781 0.4325 -0.2071 -0.8775 149 148 153
332.2338 -231.1294 850.6385 -0.3152 -0.3369 -0.8872 246 246 244
301.5953 -237.3130 884.2458 -0.0645 0.2989 -0.9521 233 233 233
262.2804 -236.8208 882.2205 0.0813 0.2981 -0.9511 190 187 191
224.8425 -237.6733 891.4992 0.0558 -0.5274 -0.8478 220 220 222
198.3165 -258.4926 942.1038 -0.5239 -0.0607 -0.8496 213 213 215
29.7642 -282.3182 1052.6987 -0.1928 -0.3169 -0.9287 191 188 194
-18.4212 -293.2953 1084.1063 -0.1983 -0.0843 -0.9765 249 251 252
-175.9333 -311.1984 1154.2634 0.1141 0.1753 -0.9779 229 231 232
-228.0998 -328.1952 1227.8267 -0.4823 -0.1540 -0.8624 255 255 255
-504.8496 -448.8484 1485.2026 0.0000 0.0000 0.0000 187 189 191
462.7262 -203.7134 750.7766 -0.4918 -0.1069 -0.8641 186 186 188
347.4353 -215.5644 811.1558 -0.1817 -0.5645 -0.8052 166 163 166
311.5832 -236.0560 878.9566 -0.5787 0.1461 -0.8023 180 177 178
267.2437 -230.3292 881.6426 -0.2638 0.3112 -0.9130 219 216 220
205.3225 -250.0559 934.5298 -0.4894 0.2074 -0.8470 210 209 212
167.9234 -257.5042 958.2259 -0.1532 0.0149 -0.9881 176 173 179
152.0287 -249.6868 940.9180 -0.1343 0.0857 -0.9872 227 225 228
85.3777 -269.8102 1009.0696 -0.5710 -0.4793 -0.6665 199 199 201
71.4772 -261.2549 1001.4767 -0.5484 -0.4570 -0.7003 208 208 210
-6.8156 -294.3436 1097.9635 0.2578 0.0964 -0.9614 217 219 221
-58.0056 -304.7242 1122.4617 0.0506 -0.2669 -0.9624 202 204 206
-110.2228 -304.8150 1139.4722 -0.3967 -0.2660 -0.8785 251 253 255
-297.1591 -356.4042 1328.0601 -0.5837 0.4442 -0.6797 224 226 230
-375.7952 -374.0146 1396.9991 -0.3426 -0.2226 -0.9127 188 190 194
-432.1983 -367.3909 1429.9362 -0.0756 -0.5313 -0.8438 251 253 255
427.9208 -202.6286 765.1194 0.4011 -0.5937 -0.6976 240 240 240
418.3740 -209.3669 778.9258 0.4813 0.1133 -0.8692 143 138 142
394.3333 -202.0843 778.1646 0.4608 -0.0570 -0.8857 229 226 227
324.9510 -216.5270 821.2812 -0.3270 -0.6961 -0.6392 167 165 163
280.0949 -231.3664 878.5527 -0.1381 0.1677 -0.9761 203 200 203
226.2606 -226.6758 863.8516 0.4912 -0.0193 -0.8708 199 194 196
52.0677 -276.1562 1048.6088 -0.1780 -0.0312 -0.9835 168 167 170
40.4068 -274.4126 1048.5546 -0.1640 -0.1533 -0.9745 204 203 206
5.1882 -288.4484 1098.4930 -0.1455 -0.1657 -0.9754 237 239 243
-45.2384 -297.9857 1122.4799 -0.2780 -0.3161 -0.9071 173 175 179
-98.1628 -301.2669 1121.2660 -0.6716 -0.2152 -0.7090 217 219 223
-211.7516 -318.8809 1222.4373 -0.6241 -0.2405 -0.7434 230 232 234
456.8228 -195.1539 730.3967 -0.1975 -0.4861 -0.8513 136 136 138
371.9967 -216.6530 821.5417 -0.0464 -0.1760 -0.9833 201 198 201
348.0999 -208.3504 798.8276 0.3372 -0.5416 -0.7700 162 159 163
339.4422 -219.1894 815.0960 -0.0975 -0.5963 -0.7968 218 216 217
310.5880 -225.2766 863.0948 -0.3686 -0.6119 -0.6998 181 178 179
265.0013 -243.7115 901.8765 0.0633 0.0348 -0.9974 147 146 149
237.9047 -227.1100 870.3047 0.4017 0.4163 -0.8157 187 187 187
175.6979 -251.9739 951.0002 -0.2649 0.3394 -0.9026 246 245 248
137.1716 -260.9856 988.9995 -0.4127 0.1894 -0.8910 166 161 167
92.7497 -256.2611 977.6962 -0.1021 -0.3637 -0.9259 148 145 149
-146.7619 -317.8894 1204.2739 0.5547 0.2857 -0.7815 221 226 227
-267.1230 -334.4042 1284.6260 -0.3491 -0.3482 -0.8700 217 219 223
-329.5429 -338.3774 1286.4250 -0.6467 0.4847 -0.5889 204 208 211
-438.3168 -393.8137 1472.2456 -0.2905 0.8704 -0.3975 225 227 231
387.2149 -204.3134 785.9988 -0.2236 0.0106 -0.9746 238 235 236
344.1982 -214.2947 823.2739 -0.3926 -0.5602 -0.7294 183 180 184
315.9962 -220.3781 846.4725 -0.3483 -0.6413 -0.6837 210 210 210
291.3049 -231.4013 884.8989 -0.0038 -0.0671 -0.9977 251 248 249
182.0302 -243.2852 944.9767 -0.3706 0.2429 -0.8965 189 187 187
145.6023 -253.7931 946.1086 0.0463 -0.1066 -0.9932 255 255 255
105.3614 -261.9661 1002.6894 0.4333 -0.4336 -0.7901 152 152 155
61.4696 -264.3171 1029.4307 -0.7197 0.0105 -0.6942 176 175 178
-32.3207 -284.8905 1092.8698 -0.1974 -0.1188 -0.9731 217 219 221
-80.4721 -287.4094 1094.9039 -0.4485 -0.3463 -0.8240 225 227 229
403.3828 -207.0091 795.0468 -0.0044 -0.3163 -0.9487 240 238 239
372.6219 -209.4959 815.2236 -0.1402 -0.2411 -0.9603 203 201 201
294.6999 -223.2930 881.1909 0.0994 -0.0999 -0.9900 152 147 151
264.2445 -231.3768 895.9577 -0.0698 0.1125 -0.9912 240 238 239
153.5748 -247.3549 956.4555 0.2843 -0.0952 -0.9540 189 188 191
113.5430 -252.2242 1007.6673 0.2411 -0.1631 -0.9567 173 170 175
72.5907 -264.0300 1020.4489 -0.5978 -0.0090 -0.8016 157 157 159
-20.5594 -278.0750 1089.4955 -0.0285 0.0447 -0.9986 194 196 198
-69.9660 -279.9317 1092.3130 -0.4091 -0.3362 -0.8483 255 255 255
-121.4795 -291.4968 1141.7592 -0.6471 0.1608 -0.7452 194 196 200
-240.9021 -327.2364 1257.1144 -0.6117 0.2243 -0.7586 252 254 255
-381.8875 -351.7529 1395.6602 -0.1341 -0.5539 -0.8217 239 241 243
-489.8677 -397.3957 1433.1158 0.0000 0.0000 0.0000 189 193 196
408.9218 -191.4236 740.5027 -0.2324 -0.3429 -0.9102 172 169 170
410.2113 -204.1328 790.6340 -0.1534 -0.2265 -0.9619 177 175 178
348.7982 -209.3925 801.2420 -0.3429 -0.6061 -0.7177 196 193 196
312.8037 -208.8539 819.7957 -0.6603 -0.5257 -0.5363 142 137 139
270.0259 -225.8666 884.8940 -0.4674 0.1957 -0.8621 195 190 194
165.2422 -247.9415 965.6717 -0.1999 0.1620 -0.9663 249 249 249
126.3909 -257.2926 1003.1473 -0.2488 -0.4618 -0.8514 181 178 179
38.4944 -270.0086 1043.0460 -0.0990 0.0559 -0.9935 215 215 217
26.5028 -260.9039 1035.8230 0.1834 0.1107 -0.9768 199 201 202
-9.9171 -282.8820 1094.8452 0.1557 -0.1085 -0.9818 205 204 209
-58.5012 -284.9010 1098.2867 0.1123 -0.6037 -0.7893 182 184 188
-111.5835 -291.2471 1136.7480 -0.5697 0.3276 -0.7537 185 190 191
-303.0357 -345.5580 1349.2568 -0.8591 0.2184 -0.4629 180 184 187
-364.2463 -345.9887 1325.6493 -0.4458 0.8605 -0.2467 211 213 217
445.9131 -188.5330 738.8491 -0.5082 -0.4515 -0.7334 199 199 201
424.4168 -193.6688 749.6556 0.2240 -0.5534 -0.8023 204 202 203
350.9866 -203.1310 791.4995 0.2808 -0.4278 -0.8592 162 159 163
315.4772 -202.3770 802.5612 -0.2460 -0.2215 -0.9436 116 112 111
297.1529 -215.6940 851.1389 -0.3992 -0.6909 -0.6027 125 128 127
231.5340 -225.4890 882.4872 0.3103 -0.2655 -0.9128 159 154 160
80.8593 -253.8283 1003.1967 -0.7314 0.0029 -0.6820 154 157 156
49.3953 -273.5624 1058.4907 -0.1889 0.1480 -0.9708 255 255 255
2.2695 -279.4330 1089.5563 -0.1994 -0.3339 -0.9213 207 209 210
-99.1146 -288.5307 1134.6122 -0.7293 0.3514 -0.5871 204 208 209
-161.1090 -305.4425 1195.2670 0.4805 0.1400 -0.8658 255 255 255
-162.5635 -287.2416 1164.0023 0.4149 0.5059 -0.7562 218 220 222
-216.3228 -307.3145 1227.0806 -0.7163 0.1883 -0.6719 206 207 211
-345.6995 -339.0978 1303.5752 -0.4989 0.8345 -0.2339 185 191 194
451.1661 -185.5358 729.2516 -0.0483 -0.3644 -0.9300 142 140 143
438.9748 -195.2960 763.5862 0.2467 -0.6057 -0.7565 208 208 210
362.6890 -203.2042 812.5342 0.3967 -0.4332 -0.8093 176 173 177
325.6606 -201.6782 800.4448 0.0081 0.1189 -0.9929 159 156 157
303.8133 -212.1812 844.0717 -0.2209 -0.6199 -0.7530 141 139 138
278.0670 -222.1483 881.0432 -0.3055 -0.1274 -0.9436 232 230 230
236.1710 -219.0623 880.6506 0.4063 0.1646 -0.8988 186 181 185
210.1453 -235.0915 938.5857 0.3405 -0.0325 -0.9397 187 184 185
174.8882 -244.4929 959.0331 -0.3825 -0.0649 -0.9217 197 194 198
128.2744 -235.7770 949.5922 -0.2221 0.3272 -0.9185 221 221 221
90.6442 -246.0858 980.8396 -0.2839 0.1686 -0.9439 213 213 215
-46.7784 -277.3953 1092.2145 0.0636 -0.0619 -0.9961 250 252 253
-406.1912 -349.0578 1382.6674 0.3808 -0.2635 -0.8863 204 206 208
453.2464 -181.0567 722.5156 0.0795 -0.0967 -0.9921 157 152 156
443.9306 -191.9749 754.9866 0.1391 -0.4612 -0.8763 198 198 198
410.0612 -191.2578 763.4000 -0.1309 -0.3630 -0.9225 141 139 138
385.9068 -184.2035 765.3970 -0.0646 -0.8454 -0.5303 218 216 217
385.4000 -196.0547 789.0627 -0.2667 0.1567 -0.9510 201 198 201
381.0318 -207.3699 816.1579 0.0273 -0.3783 -0.9253 174 171 172
338.8216 -202.9982 803.9337 -0.0182 -0.4317 -0.9018 160 157 160
312.6351 -210.2097 834.9319 -0.2901 -0.5389 -0.7909 153 151 149
289.2809 -221.6008 884.1633 -0.1080 -0.1756 -0.9785 192 190 193
248.9834 -220.4847 887.3481 0.3590 0.1736 -0.9171 244 241 242
225.7480 -239.9784 953.9399 0.4666 -0.6901 -0.5533 197 195 196
183.2802 -238.5788 951.5593 -0.3277 -0.0700 -0.9422 196 193 196
139.1456 -234.2002 944.5654 0.4440 0.6162 -0.6505 202 199 202
101.5950 -245.7669 978.8038 0.2191 -0.2164 -0.9514 178 178 180
61.3364 -266.4666 1058.4344 -0.3758 0.1869 -0.9077 193 193 193
14.0724 -273.4287 1080.5927 -0.4798 -0.3530 -0.8033 192 194 195
-36.2330 -276.1675 1090.2147 0.1738 0.4127 -0.8941 227 229 230
-84.7362 -274.9143 1107.8741 -0.7911 0.1655 -0.5888 255 255 255
-132.9525 -298.5175 1175.7871 -0.7104 -0.0962 -0.6972 224 226 228
-147.7425 -299.1087 1199.0317 -0.0312 -0.2330 -0.9720 236 238 239
-258.6074 -317.5597 1267.9254 -0.7348 0.0905 -0.6722 253 255 255
444.9338 -186.5406 746.7975 0.1838 0.1177 -0.9759 213 213 213
420.4455 -190.5640 750.6021 -0.0617 -0.1640 -0.9845 138 133 135
401.2188 -198.4274 790.4009 -0.2094 -0.2144 -0.9540 209 206 207
322.3503 -208.4869 827.2186 -0.2887 -0.5149 -0.8072 161 157 156
294.9620 -216.3638 866.4102 -0.4133 -0.6810 -0.6045 192 190 193
262.6704 -222.8709 897.4669 0.0257 -0.1400 -0.9898 194 189 193
226.3413 -227.0002 923.7352 0.0813 -0.8636 -0.4976 196 192 193
156.0039 -244.3373 972.0316 0.3235 0.6134 -0.7205 232 231 234
73.3640 -265.8978 1050.1808 -0.6894 -0.0475 -0.7229 234 234 236
24.9441 -260.0207 1057.2126 -0.5361 0.2012 -0.8198 166 168 170
-23.4932 -268.1384 1087.2064 -0.1411 0.3407 -0.9295 183 182 187
-75.0732 -276.8120 1093.1460 -0.5627 -0.0540 -0.8249 255 255 255
-186.1966 -295.1968 1168.7096 -0.2133 -0.0294 -0.9766 200 202 203
-387.4980 -340.1401 1375.6410 0.0770 -0.0516 -0.9957 223 225 227
402.5043 -192.5189 786.0016 -0.4458 -0.3311 -0.8317 237 234 235
380.2711 -199.5441 808.7568 0.1694 -0.4711 -0.8657 212 209 213
335.6531 -193.1394 788.6531 -0.3813 -0.5549 -0.7394 141 140 145
267.3951 -216.4893 895.2309 -0.5210 -0.3408 -0.7826 170 165 164
185.1603 -224.4248 949.6904 -0.4445 0.2086 -0.8711 164 152 154
165.3430 -240.7202 965.3469 -0.3509 -0.2166 -0.9110 206 204 205
111.1711 -243.2230 988.0866 -0.1042 -0.4225 -0.9004 165 162 165
35.4610 -262.1715 1054.9352 -0.1934 0.3786 -0.9051 252 254 255
-11.7391 -269.3414 1096.0469 -0.2873 0.1297 -0.9490 255 255 255
-117.2857 -287.1271 1153.6095 -0.2708 0.1274 -0.9542 204 206 208
-173.3899 -290.0468 1187.9867 0.1540 0.3626 -0.9191 228 233 234
-234.1557 -301.0174 1262.9657 -0.3953 -0.1773 -0.9013 174 176 180
-379.3722 -343.5612 1359.8406 -0.7128 -0.0647 -0.6983 200 201 205
414.0944 -181.3921 737.1824 -0.0150 -0.2261 -0.9740 177 177 177
414.4749 -192.6931 777.1711 -0.5673 -0.3405 -0.7498 130 125 127
390.5487 -198.6178 810.2192 -0.1981 0.3260 -0.9244 196 193 196
315.6068 -195.0052 806.1828 -0.0439 0.3160 -0.9477 195 192 193
293.6338 -205.5501 835.7015 -0.1951 -0.3347 -0.9219 132 130 130
254.5131 -264.6558 1009.5984 0.0000 0.0000 0.0000 205 203 204
122.7583 -245.2712 978.9407 -0.1886 -0.5339 -0.8243 214 214 216
80.7437 -250.9104 1019.2903 -0.3248 0.1084 -0.9396 197 194 200
-59.5057 -263.5682 1074.8873 0.0351 -0.3113 -0.9497 232 234 236
-107.1885 -287.8441 1160.4889 -0.2099 0.4886 -0.8469 236 238 239
-160.6887 -287.7176 1189.2764 0.0350 0.1294 -0.9910 178 182 186
413.4921 -175.4182 739.9634 -0.0898 -0.2331 -0.9683 162 161 164
360.0139 -194.0786 797.8817 0.3665 -0.4407 -0.8194 91 88 92
342.4676 -190.4838 785.2079 0.1274 -0.1682 -0.9775 165 162 165
324.6195 -193.4619 805.6274 -0.0240 0.5377 -0.8428 125 120 124
294.9935 -197.6837 822.8953 -0.1017 0.1818 -0.9781 195 192 193
273.9044 -210.7830 880.4354 -0.3418 -0.5785 -0.7406 124 119 121
241.1459 -217.3363 888.9092 0.3020 -0.0736 -0.9505 252 250 248
169.4922 -229.0711 947.8965 -0.3194 -0.3309 -0.8879 191 189 192
130.0388 -232.9235 966.2095 0.0986 -0.0010 -0.9951 190 187 191
88.2254 -237.0933 988.9170 -0.6940 0.4644 -0.5501 219 216 220
46.3682 -255.2733 1049.6455 -0.3810 -0.1438 -0.9133 197 197 197
-0.3292 -257.7601 1064.3229 -0.3836 -0.2812 -0.8797 187 187 191
-48.4159 -262.4266 1092.9567 0.1502 0.5610 -0.8141 209 211 215
-156.1819 -297.4560 1187.0503 -0.1358 0.0678 -0.9884 210 214 217
463.2879 -178.7081 738.9976 0.2027 -0.0324 -0.9787 199 199 197
409.0584 -183.6585 764.9194 -0.1915 -0.3195 -0.9280 134 134 134
392.1205 -192.7744 802.7545 -0.3963 0.5962 -0.6982 197 194 198
340.2136 -196.4815 810.1945 0.1556 0.3170 -0.9356 126 128 130
312.6869 -202.4947 829.1197 -0.1344 -0.0699 -0.9885 132 128 129
280.3553 -206.4060 861.0911 -0.3888 -0.6364 -0.6662 155 153 154
248.8326 -212.7048 888.0316 0.1688 -0.5017 -0.8484 148 141 141
181.0199 -228.7659 953.2858 -0.2603 -0.3650 -0.8939 224 219 223
139.6396 -230.1126 965.8592 0.3588 0.4636 -0.8102 240 240 240
100.5186 -240.1023 990.1633 -0.1761 0.1570 -0.9718 170 168 171
56.4889 -239.9981 1038.0634 -0.6065 -0.4336 -0.6665 190 187 193
10.9432 -261.5350 1074.9635 -0.3823 -0.3234 -0.8656 222 224 226
-37.6225 -264.1239 1099.8246 -0.1357 0.5018 -0.8543 213 215 216
-91.8025 -274.9118 1137.6211 -0.7464 0.4608 -0.4801 221 222 226
-201.7336 -302.8372 1231.1782 -0.4977 0.5610 -0.6615 180 182 184
-397.8003 -320.8385 1371.2177 -0.0445 -0.2885 -0.9565 195 197 199
428.1758 -177.1607 742.6958 0.1201 -0.1026 -0.9874 203 203 203
422.9112 -184.6775 760.5464 -0.4829 -0.1236 -0.8669 165 162 165
396.2719 -188.3737 790.5095 -0.1932 -0.2772 -0.9412 248 248 248
364.0369 -189.4929 793.1323 0.2159 -0.6071 -0.7647 151 151 155
285.9517 -201.3644 853.1099 -0.3774 -0.3949 -0.8376 175 173 171
259.4127 -211.9824 890.9265 -0.1021 -0.3029 -0.9475 217 213 212
151.6981 -231.3972 977.4531 -0.0761 0.1543 -0.9851 176 174 175
22.2082 -259.3710 1075.1183 -0.4045 -0.1739 -0.8978 229 231 232
-26.8882 -265.9591 1105.7574 -0.3305 0.4847 -0.8098 230 232 234
-76.4212 -260.9172 1112.2794 -0.7246 0.5772 -0.3766 253 255 255
-127.4558 -266.8689 1146.9493 0.0427 -0.0743 -0.9963 228 228 230
-258.5269 -313.2290 1321.4412 0.0000 0.0000 0.0000 194 198 199
-391.2095 -326.8971 1375.4043 0.1287 -0.0359 -0.9910 183 187 190
445.6146 -179.9566 758.8747 0.0694 -0.2603 -0.9630 189 188 193
373.8744 -188.4262 799.8112 0.2279 -0.4778 -0.8484 199 197 200
341.3818 -189.5795 797.9191 -0.0641 0.3227 -0.9443 174 171 174
308.4563 -191.1776 812.1956 -0.6195 0.4529 -0.6412 239 237 235
107.3196 -228.4413 973.0346 -0.4247 -0.2305 -0.8755 187 184 187
67.2350 -239.8271 1027.7461 -0.3090 -0.2154 -0.9263 189 188 191
33.6705 -253.5031 1068.3047 -0.4622 0.0240 -0.8864 153 150 153
-120.9369 -275.5164 1158.3553 0.0389 -0.1644 -0.9856 243 245 246
-179.3491 -282.5772 1208.5309 -0.5261 0.6324 -0.5685 200 201 205
-382.6732 -327.8573 1387.4999 0.2937 0.4595 -0.8382 224 228 229
418.8901 -176.8543 746.4133 -0.1345 -0.1046 -0.9854 130 130 132
398.2431 -183.2482 782.5646 -0.2966 -0.3341 -0.8946 192 187 191
390.0677 -190.7941 816.6231 -0.0719 -0.0865 -0.9937 169 161 168
320.9401 -191.8162 817.7624 -0.1138 0.7024 -0.7027 170 168 171
290.8929 -196.2385 836.0939 -0.1466 0.2524 -0.9564 124 121 124
258.7204 -200.7569 876.8394 -0.3881 -0.7432 -0.5450 122 110 112
77.9476 -239.2597 1022.2468 -0.0634 0.1155 -0.9913 180 180 182
-14.7799 -256.2277 1102.8380 -0.5066 0.0330 -0.8615 193 193 195
-63.2007 -253.5377 1095.9902 -0.0914 0.6933 -0.7148 188 190 194
-107.7425 -270.0970 1168.1357 -0.0854 0.1369 -0.9869 220 222 223
-168.9292 -284.4362 1206.6272 -0.5226 0.5594 -0.6434 217 221 222
431.4131 -177.2295 745.9624 0.0842 -0.3238 -0.9424 191 191 193
412.6366 -184.5034 781.5737 -0.4737 -0.3336 -0.8151 176 174 175
393.9712 -186.3048 816.4380 -0.4364 0.1891 -0.8796 243 240 241
331.8754 -191.3112 819.8225 -0.1633 0.7381 -0.6546 221 221 221
298.7234 -193.5509 837.1118 -0.0995 0.3677 -0.9246 124 121 126
268.7831 -199.0743 859.9109 -0.1865 -0.6189 -0.7630 148 142 146
191.0821 -180.9579 767.2563 0.6555 -0.4003 -0.6404 192 181 180
129.2577 -227.3198 973.8808 0.1304 -0.3462 -0.9290 247 245 246
111.4881 -213.8746 958.1049 -0.2043 -0.1046 -0.9733 229 225 224
88.6028 -237.9782 1016.4304 -0.7196 0.3066 -0.6230 174 171 174
44.2257 -246.4438 1050.7052 -0.6726 -0.2306 -0.7032 248 248 248
-2.4109 -245.6500 1080.4464 -0.5612 -0.1690 -0.8102 192 191 196
-53.6158 -260.8625 1112.2949 0.0081 0.6940 -0.7200 217 219 221
454.9703 -168.0761 731.0208 -0.0343 -0.3357 -0.9414 176 174 175
409.2368 -176.5663 768.7835 -0.4213 -0.4799 -0.7696 142 140 141
337.7768 -187.5461 817.7562 -0.3773 0.4556 -0.8063 175 173 173
311.1398 -193.9932 842.5789 -0.0953 0.6922 -0.7153 181 178 179
276.8212 -196.1426 850.3150 -0.0940 -0.2196 -0.9710 160 156 155
202.4467 -181.7877 784.1861 0.6557 -0.4513 -0.6053 192 170 152
138.6754 -224.0876 979.0905 0.1775 -0.1571 -0.9715 218 216 217
99.7786 -237.7607 1002.1680 -0.7088 0.5418 -0.4518 179 175 181
54.1950 -234.0952 1023.2280 -0.5307 -0.5909 -0.6075 203 200 203
8.6247 -242.4315 1068.5238 -0.2930 -0.1102 -0.9497 201 201 205
-41.2455 -257.3346 1115.0543 -0.1772 0.4799 -0.8593 223 225 227
-95.4171 -266.2463 1161.0593 -0.4083 0.2627 -0.8742 195 197 199
-147.4563 -267.8524 1161.2505 -0.2597 -0.2864 -0.9223 207 209 210
426.5847 -169.6151 738.8022 0.2600 -0.3474 -0.9010 152 152 155
396.8032 -181.3801 813.8938 0.1754 0.0159 -0.9844 181 178 181
362.7720 -181.5035 792.5699 0.2464 -0.6142 -0.7497 165 162 165
352.6622 -189.3023 816.5928 -0.3362 0.1605 -0.9280 118 116 116
256.6956 -201.9901 865.7684 -0.3487 -0.7562 -0.5537 178 173 175
206.5661 -175.7562 786.3898 0.6146 -0.5273 -0.5867 158 94 70
19.6305 -241.0344 1070.8978 -0.3408 -0.1466 -0.9286 207 207 209
-29.3598 -256.2610 1117.7922 0.0000 0.0000 0.0000 205 204 209
-82.5525 -259.8254 1141.4274 -0.6468 0.5276 -0.5507 208 210 212
453.9799 -162.6750 704.9248 -0.6500 -0.4998 -0.5725 0 0 0
435.8998 -168.3508 751.6157 0.4841 -0.2031 -0.8511 198 197 202
406.6711 -169.5732 753.5198 -0.2579 -0.3681 -0.8933 165 162 163
372.4741 -180.2977 791.8445 0.1491 -0.6034 -0.7833 118 113 117
314.0670 -187.8844 830.9829 -0.3309 0.6076 -0.7220 168 167 172
278.1162 -188.2500 843.1789 -0.1926 0.0823 -0.9778 216 213 214
107.0545 -223.9637 990.0141 -0.7971 0.0241 -0.6033 194 189 193
64.3825 -231.7357 1022.5710 -0.1805 -0.3422 -0.9221 251 251 253
-17.8349 -255.6299 1103.9532 -0.5437 -0.1337 -0.8285 192 192 194
-123.9605 -264.9481 1156.2059 0.3751 -0.0808 -0.9234 197 201 204
-129.0418 -251.5455 1148.6625 0.2349 -0.0043 -0.9720 255 255 255
-243.4812 -278.5300 1237.0317 -0.3894 0.1642 -0.9063 196 199 205
-326.6171 -304.3094 1348.4255 -0.5848 0.1929 -0.7879 227 229 230
419.6622 -170.2865 751.3449 -0.3944 -0.2387 -0.8874 192 192 192
322.5695 -185.6199 833.4339 -0.2544 0.7833 -0.5672 221 221 221
294.8511 -191.8217 847.7805 0.0245 0.6426 -0.7658 92 86 90
255.8219 -190.2864 853.4936 -0.0170 -0.6694 -0.7427 206 200 195
205.2285 -165.1832 766.3397 0.5070 -0.5828 -0.6351 254 216 222
146.5933 -155.9882 701.2602 -0.0612 0.5400 -0.8394 255 236 150
115.4755 -216.2948 964.5828 -0.3232 -0.3404 -0.8830 252 247 249
74.5620 -228.0239 1023.8071 -0.0562 0.2510 -0.9664 180 175 181
30.5677 -237.9502 1067.5889 -0.5290 -0.1617 -0.8331 232 232 232
-27.2367 -225.1208 1078.0585 0.2582 -0.2506 -0.9330 206 208 209
-68.7934 -251.8165 1129.5994 -0.5082 0.7155 -0.4794 211 213 217
-170.0477 -268.7334 1219.4954 -0.5771 0.5818 -0.5732 214 219 222
-224.3457 -268.7274 1236.0558 0.2715 -0.3473 -0.8976 255 255 255
-304.6172 -294.6536 1348.4253 -0.1766 0.0506 -0.9830 160 162 166
-374.6327 -313.9332 1406.7710 -0.4203 -0.0776 -0.9040 207 208 212
-357.9789 -287.8665 1344.8212 0.6663 -0.6756 -0.3155 197 199 201
451.7669 -157.0641 704.9248 -0.6500 -0.4998 -0.5725 167 164 167
405.1733 -173.3029 779.2396 -0.3811 -0.2493 -0.8903 176 175 178
370.9469 -173.0520 787.7622 0.2284 -0.5874 -0.7764 201 201 201
334.4139 -185.6279 833.5435 -0.4028 0.5431 -0.7367 161 159 157
301.1474 -187.8859 852.4047 0.1355 0.7754 -0.6168 227 225 226
264.5863 -188.0974 851.9692 0.0591 -0.4091 -0.9106 180 169 168
170.4286 -162.5853 730.2191 0.7643 0.0046 -0.6449 245 156 75
155.9400 -156.8199 712.2603 0.6768 0.1999 -0.7085 255 172 88
123.6299 -154.4648 710.2678 -0.3219 0.4267 -0.8451 255 255 228
87.3262 -231.1945 1024.7452 -0.5569 0.3120 -0.7697 212 209 213
42.8341 -234.2234 1049.2155 -0.7656 -0.3772 -0.5210 173 168 172
-5.0154 -237.6237 1082.8492 -0.5626 0.0972 -0.8210 246 248 250
-56.8179 -252.1310 1130.8856 -0.5926 0.3740 -0.7134 239 241 243
-109.1453 -254.5835 1155.5094 -0.0319 -0.2000 -0.9793 212 211 214
-219.0231 -275.6241 1254.5149 -0.4468 -0.0448 -0.8935 224 226 228
-441.7546 -311.8344 1410.8169 -0.3192 -0.8548 -0.4092 210 214 217
405.7932 -167.7545 769.8377 -0.3480 -0.3897 -0.8527 191 189 192
385.4064 -174.3997 795.4161 0.2140 -0.5164 -0.8291 192 190 193
316.7396 -190.4946 857.9544 -0.1314 0.8361 -0.5326 97 95 95
274.0474 -186.4745 852.0960 0.0322 -0.2723 -0.9617 221 216 218
181.7854 -164.3246 751.8286 0.7104 -0.3573 -0.6064 255 173 86
133.3226 -156.2001 711.0032 -0.3351 0.2727 -0.9018 255 255 233
95.9451 -220.0734 1010.7269 -0.8186 0.2427 -0.5206 211 204 206
6.1473 -242.5302 1089.3190 -0.5337 0.1319 -0.8353 186 186 188
-101.0467 -258.4374 1167.9762 -0.3137 -0.1581 -0.9363 254 253 255
-156.4280 -264.6760 1202.3528 -0.5878 0.5101 -0.6279 199 203 207
-356.0407 -305.3228 1373.2764 -0.6892 -0.2778 -0.6692 196 198 204
443.2719 -164.4681 756.9431 0.0593 0.1600 -0.9853 179 176 179
425.9497 -162.1140 733.9202 0.3238 0.1412 -0.9355 196 195 198
