ply
format ascii 1.0
element vertex 775
property float x
property float y
property float z
property float nx
property float ny
property float nz
property uchar red
property uchar green
property uchar blue
end_header
164.1610 -49.3601 712.8655 -0.3881 0.3041 -0.8700 255 255 255
137.1319 -51.4975 737.2969 -0.4774 0.1969 -0.8563 255 255 255
108.1496 -53.7251 761.8118 -0.2406 0.1124 -0.9641 255 255 255
76.5793 -55.8759 786.8007 -0.6702 0.0064 -0.7421 255 255 255
42.6799 -58.3501 815.2908 -0.6497 0.0644 -0.7574 255 255 247
-24.6538 -61.6815 881.1788 -0.3755 -0.2291 -0.8980 255 255 238
-66.2748 -63.4773 906.0344 -0.5895 0.0157 -0.8076 255 255 236
-161.2948 -84.4566 1225.0721 -0.7584 0.0823 -0.6466 210 212 214
-306.0731 -96.2595 1380.3250 -0.3163 -0.2821 -0.9057 227 232 232
-444.3259 -98.2116 1424.4772 -0.4588 0.2399 -0.8556 216 218 220
-543.8033 -104.8693 1516.4011 -0.5446 0.2571 -0.7983 220 224 228
394.8712 -54.0086 795.5180 0.4482 -0.2652 -0.8537 167 160 160
346.9370 -58.4090 851.7445 -0.3664 -0.1838 -0.9121 87 77 80
225.3023 -51.4737 761.4529 0.7843 0.0731 -0.6160 249 197 169
172.3208 -47.9175 716.0280 -0.2971 0.1672 -0.9401 255 255 255
144.0157 -49.2297 733.0422 -0.6710 0.1122 -0.7329 255 255 255
116.8764 -52.3511 766.6691 -0.3781 0.1812 -0.9078 255 255 254
84.0066 -53.0667 778.7366 -0.5938 0.0660 -0.8019 255 255 255
50.8067 -55.3277 805.6805 -0.5991 0.0592 -0.7985 255 255 231
14.6133 -57.9463 837.7480 -0.7343 0.0504 -0.6769 255 255 245
-15.0460 -58.4647 870.7258 -0.6388 -0.1603 -0.7525 255 255 241
-218.8305 -88.4175 1316.5715 -0.3309 -0.2307 -0.9151 187 191 194
-344.4821 -89.5601 1349.7144 -0.6384 0.3555 -0.6827 205 210 210
-514.3994 -98.2620 1481.4917 -0.0153 -0.2235 -0.9746 212 217 217
382.0676 -54.5335 826.1381 0.0705 0.3630 -0.9291 97 90 90
352.3989 -55.4960 842.9538 -0.0793 0.3532 -0.9322 147 145 145
324.6438 -57.4367 871.0523 -0.1957 0.5605 -0.8047 162 150 154
240.5426 -52.0828 786.3112 0.7599 -0.2739 -0.5896 245 197 170
122.6262 -49.0634 754.1777 -0.7313 0.0755 -0.6779 255 255 255
91.6268 -50.6585 774.2389 -0.6636 0.0503 -0.7464 255 255 255
58.8139 -52.7668 800.4905 -0.6001 0.1312 -0.7891 255 255 255
23.3673 -55.0799 829.8409 -0.6500 0.0659 -0.7570 255 255 255
-55.4815 -59.5103 888.2664 -0.7266 -0.0920 -0.6808 255 255 236
-145.8273 -80.5053 1212.2045 -0.1792 0.1452 -0.9730 218 222 223
-204.2897 -85.0437 1313.7361 -0.5508 -0.0437 -0.8335 195 199 200
-278.4046 -87.9197 1320.0028 -0.8513 -0.0315 -0.5238 197 199 203
-502.7522 -95.8889 1495.4541 -0.0344 0.0286 -0.9990 205 211 214
442.8208 -50.0606 790.2900 0.4381 0.3945 -0.8077 201 201 201
411.1789 -50.0186 796.6687 -0.1019 -0.3206 -0.9417 131 126 130
388.8991 -52.0461 823.1824 -0.2169 0.2689 -0.9384 219 217 216
363.5424 -53.9005 849.0948 -0.1510 0.7191 -0.6783 182 180 180
330.8860 -54.5294 862.2789 -0.4044 0.3625 -0.8397 178 171 171
267.8711 -51.3498 815.1154 0.7849 -0.1110 -0.6096 237 204 195
254.4653 -51.9067 802.0236 0.7264 -0.2797 -0.6278 239 206 199
179.0798 -45.9687 714.5333 -0.1054 0.0856 -0.9907 255 255 255
149.1648 -46.1876 721.2438 -0.6964 0.1598 -0.6997 255 255 255
66.8219 -50.0535 793.0166 -0.6834 0.1029 -0.7228 255 255 255
32.0565 -52.4456 823.8630 -0.6202 0.1104 -0.7766 255 255 255
-5.4993 -55.1347 858.1904 -0.5635 -0.0734 -0.8228 255 255 243
-45.5630 -56.6563 881.2166 -0.5189 -0.1098 -0.8477 255 255 237
-138.3263 -81.5119 1259.7197 -0.1923 0.2187 -0.9567 213 215 216
-266.8213 -85.9746 1336.3281 -0.0986 0.2815 -0.9545 198 202 205
-331.4582 -86.5146 1354.2500 -0.2476 0.0985 -0.9639 226 230 233
367.1649 -50.7404 836.9901 -0.0668 0.4916 -0.8683 178 173 177
336.9680 -51.7425 854.6368 -0.4634 -0.1309 -0.8764 107 95 99
283.3051 -51.2737 836.3151 0.7942 0.0046 -0.6076 246 199 178
199.2858 -44.1870 731.0510 0.7580 -0.0905 -0.6460 255 220 200
188.2476 -44.7746 719.7646 0.4742 -0.0813 -0.8766 255 255 240
156.6239 -44.3394 720.5555 -0.4815 0.2664 -0.8350 255 255 255
129.0098 -46.3393 745.5445 -0.6706 0.0842 -0.7371 255 255 255
98.5851 -47.8730 765.8695 -0.6581 0.0410 -0.7518 255 255 216
3.7699 -52.6939 854.6614 -0.6337 -0.0990 -0.7672 255 255 245
-35.9130 -53.9146 875.2676 -0.2399 -0.1609 -0.9574 255 255 238
-78.7911 -56.5941 912.4125 -0.4490 0.0806 -0.8899 255 255 223
-186.5061 -79.8553 1290.4192 -0.5829 -0.2969 -0.7564 215 217 221
-318.7525 -83.6392 1360.8796 0.0419 -0.1393 -0.9894 225 229 230
-579.2369 -96.5223 1560.9612 -0.4805 -0.0125 -0.8769 197 199 203
442.8358 -46.8268 775.8749 -0.3302 -0.2048 -0.9214 168 170 174
414.2162 -47.1392 786.4885 0.3839 -0.0979 -0.9182 179 177 175
378.6823 -49.2303 843.5114 -0.0495 0.3675 -0.9287 218 216 217
344.1910 -49.2520 849.6578 -0.1813 0.1251 -0.9754 173 169 168
320.5848 -52.0843 893.8942 0.3456 -0.0514 -0.9370 237 162 107
300.3703 -51.4201 861.7555 0.7750 0.0129 -0.6319 241 224 218
211.1520 -43.8266 746.0561 0.7690 -0.0485 -0.6374 254 236 233
164.1035 -42.5348 720.3772 -0.4068 0.1732 -0.8970 255 255 255
136.3135 -44.1917 742.5144 -0.5766 0.0967 -0.8113 255 255 255
105.7292 -45.2167 757.7305 -0.1850 0.2389 -0.9533 255 255 255
74.6379 -47.4836 786.6117 -0.6609 0.1545 -0.7344 255 255 255
40.4938 -49.6246 815.4842 -0.6565 0.1188 -0.7449 255 255 255
12.7145 -49.5092 843.2419 -0.7157 -0.1080 -0.6900 255 255 255
-26.7410 -52.1409 879.6113 -0.4167 -0.1838 -0.8903 255 255 240
-68.6996 -53.9908 908.2199 -0.6336 0.0415 -0.7725 255 255 236
-167.6732 -73.7223 1252.7080 -0.7397 -0.0415 -0.6717 212 216 219
-238.4947 -78.6008 1329.7156 -0.0050 0.3446 -0.9387 192 197 198
-310.1754 -82.4927 1387.3752 -0.1184 0.0831 -0.9895 209 213 214
-466.9420 -87.1198 1482.2523 -0.3661 0.5956 -0.7150 246 250 251
448.8770 -44.5468 773.4769 -0.0685 0.0020 -0.9977 214 215 212
428.4114 -46.2484 797.3545 0.3067 0.5307 -0.7901 234 232 233
354.0451 -47.3288 852.5956 0.0925 0.2703 -0.9583 139 129 137
224.3490 -43.7272 764.8171 0.7764 -0.0834 -0.6247 248 187 144
171.2481 -40.6244 718.8422 -0.5402 0.0239 -0.8412 255 255 255
143.3973 -42.0125 738.7357 -0.6697 0.0741 -0.7390 255 255 255
114.0981 -43.6597 761.9077 -0.0822 0.3003 -0.9503 255 255 255
82.2739 -44.9282 780.3284 -0.6373 0.1445 -0.7569 255 255 255
48.9544 -47.1900 811.0465 -0.6435 0.1371 -0.7530 255 255 255
-367.0265 -79.8939 1418.7363 -0.3703 0.4445 -0.8157 211 217 221
-455.5067 -84.1142 1495.4255 -0.1224 -0.8230 -0.5548 222 224 226
386.1858 -46.8711 840.4683 -0.1097 0.2561 -0.9604 128 127 123
325.2770 -48.8355 878.7991 0.2784 -0.0531 -0.9590 145 105 100
236.3781 -43.0632 777.5925 0.7536 -0.1211 -0.6461 249 187 151
121.7056 -41.6436 760.5377 -0.3848 0.3231 -0.8646 255 255 255
90.2790 -42.8290 778.8780 -0.6728 0.0941 -0.7338 255 255 255
57.0780 -44.4768 803.1084 -0.6085 0.1306 -0.7827 255 255 255
21.5202 -46.5586 833.4067 -0.6582 -0.0175 -0.7526 255 255 249
-17.1642 -49.1279 870.0812 -0.5976 -0.1853 -0.7801 255 255 241
-57.8543 -50.1735 890.2803 -0.7395 0.0827 -0.6681 255 255 238
-149.7690 -68.1886 1220.8276 -0.6021 0.0422 -0.7973 207 212 215
-282.4465 -74.0838 1324.8962 -0.0337 -0.3987 -0.9165 196 200 203
-538.5909 -86.6586 1538.2009 -0.4229 0.1245 -0.8976 225 229 230
452.0983 -43.5647 810.4835 0.2051 -0.4412 -0.8737 109 104 110
394.0287 -44.6861 838.4810 -0.1793 0.0138 -0.9837 141 136 135
330.3530 -45.7743 866.7686 -0.0742 0.0341 -0.9967 145 133 139
247.5238 -41.9750 785.5533 0.7449 -0.1327 -0.6538 234 197 187
176.7729 -38.1097 710.8612 -0.2744 -0.0470 -0.9605 255 255 255
148.9267 -39.2114 728.3365 -0.6496 0.1050 -0.7530 255 255 255
65.1506 -42.1171 799.2938 -0.6778 0.1084 -0.7272 255 255 255
30.2552 -44.0290 827.9288 -0.5666 0.1036 -0.8174 255 255 250
-7.6184 -45.6885 855.1310 -0.5629 -0.1213 -0.8176 255 255 243
-47.6504 -47.0571 879.2189 -0.6177 0.1169 -0.7777 255 255 238
-139.0085 -66.2947 1236.0081 -0.4798 -0.0076 -0.8774 255 255 255
-260.6644 -67.6730 1285.3549 -0.7132 0.1880 -0.6753 204 206 208
-341.5849 -73.7221 1378.8304 0.1982 0.3028 -0.9322 196 200 203
442.2188 -38.8180 778.3508 -0.0407 -0.1072 -0.9934 226 224 225
369.9294 -42.7889 847.8104 -0.0226 0.2508 -0.9678 203 199 198
333.6779 -42.4604 850.6926 -0.3072 0.4076 -0.8599 176 169 169
280.1938 -42.1622 833.6429 0.8045 0.0524 -0.5917 252 209 194
262.7837 -41.9035 806.0458 0.8032 -0.0832 -0.5899 228 201 194
183.9420 -36.2233 708.6992 0.3445 -0.0117 -0.9387 255 255 247
155.7801 -37.0872 724.6334 -0.3874 0.2212 -0.8950 255 255 255
126.9977 -38.2913 743.7247 -0.6501 0.1319 -0.7483 255 255 255
96.9108 -39.8792 767.5214 -0.6968 0.0788 -0.7129 255 255 255
1.6845 -43.5642 854.5081 -0.6507 -0.1143 -0.7507 255 255 248
-37.8298 -44.3798 873.0516 -0.4620 0.0161 -0.8867 255 255 240
-81.0180 -47.0796 914.8022 -0.4098 0.0951 -0.9072 231 219 207
-243.5820 -63.2595 1268.2219 -0.4047 0.5372 -0.7400 196 200 203
-326.8193 -69.6432 1374.9872 -0.2560 0.2143 -0.9426 214 219 220
-612.6735 -83.8724 1685.7079 0.0000 0.0000 0.0000 243 245 246
319.0240 -42.8581 892.7971 0.5459 -0.2083 -0.8115 242 158 100
297.5474 -42.1518 858.4012 0.8126 0.0347 -0.5818 246 243 237
196.0469 -36.0206 726.2593 0.7308 -0.0384 -0.6815 255 226 184
163.1116 -35.2135 723.6769 -0.4211 0.1870 -0.8875 255 255 255
134.8032 -36.4443 743.5159 -0.5979 0.1464 -0.7881 255 255 255
104.4682 -37.5623 762.2518 -0.2387 0.0647 -0.9689 255 255 247
72.9266 -39.4726 791.4789 -0.6647 0.0620 -0.7446 255 255 255
38.5745 -41.0623 817.0319 -0.6238 0.1087 -0.7740 255 255 253
-28.5350 -42.2208 872.8999 -0.5145 -0.0529 -0.8558 255 255 243
-71.0005 -44.4028 909.8474 -0.5995 0.0255 -0.8000 255 255 240
444.9417 -36.1335 769.2630 -0.1470 0.0600 -0.9873 188 185 186
455.4983 -39.0942 835.1041 0.0354 -0.4688 -0.8826 201 202 199
424.3758 -37.5508 793.7679 0.5818 -0.2617 -0.7701 174 169 171
399.0797 -38.6274 812.1522 0.4027 0.6340 -0.6602 181 178 179
385.1566 -38.1959 843.5439 -0.0419 -0.1632 -0.9857 217 215 213
374.8882 -40.0021 839.5597 0.0542 -0.2420 -0.9688 164 159 161
341.9292 -40.2818 848.3708 0.0365 0.1054 -0.9938 157 150 152
220.1650 -34.9930 756.3082 0.7439 -0.0689 -0.6647 245 166 104
207.8442 -35.4907 740.4418 0.7620 -0.0741 -0.6433 251 247 244
141.8493 -34.2823 739.6780 -0.6576 -0.0180 -0.7532 255 255 255
113.1015 -36.1799 769.6628 0.0462 -0.0283 -0.9985 255 255 255
80.4538 -36.7936 782.8303 -0.6240 0.0930 -0.7759 255 255 255
47.1035 -38.7588 813.5663 -0.6593 0.0762 -0.7480 255 255 255
10.8134 -40.8396 846.4180 -0.7005 -0.1729 -0.6924 255 255 255
-60.5221 -41.2912 898.6451 -0.7015 0.0678 -0.7094 255 255 241
-157.8847 -57.5816 1258.6829 -0.6113 -0.0675 -0.7885 203 205 209
-170.5925 -60.2645 1251.8065 -0.7418 -0.0711 -0.6668 214 219 222
-240.3038 -63.6166 1320.1410 -0.0110 -0.0811 -0.9966 197 201 204
-308.4970 -65.6960 1361.8887 -0.4614 -0.0369 -0.8864 232 234 236
-529.7073 -68.3241 1506.0972 -0.4867 -0.3421 -0.8038 198 202 205
454.8313 -34.4943 773.2598 -0.1338 0.0596 -0.9892 151 146 150
325.1215 -40.0149 883.1556 0.2760 -0.2487 -0.9284 203 128 98
232.3644 -34.2641 769.5002 0.7616 -0.0615 -0.6451 255 215 189
168.9684 -32.8489 716.6959 -0.6538 0.0902 -0.7513 255 255 255
121.7715 -34.5012 771.7323 0.0703 -0.1457 -0.9868 255 255 255
88.7580 -34.8646 782.5701 -0.6580 0.0574 -0.7508 255 255 255
55.4632 -36.3671 808.9238 -0.6423 -0.0307 -0.7658 255 255 255
19.4599 -37.7124 833.8715 -0.5588 -0.0871 -0.8247 255 255 250
-19.3113 -39.6344 867.8513 -0.5569 -0.1328 -0.8199 255 255 243
460.3313 -32.2767 769.0923 -0.3226 0.0933 -0.9419 218 216 217
443.8391 -34.1253 799.4725 0.2688 -0.1215 -0.9555 149 147 148
390.7425 -35.6535 835.5071 -0.3637 -0.4424 -0.8198 117 113 112
334.3344 -37.8055 883.1134 -0.0447 -0.3087 -0.9501 106 94 94
244.3756 -33.3593 781.8993 0.7773 -0.0195 -0.6288 246 222 216
175.2336 -30.6558 711.3466 -0.4105 0.0260 -0.9115 255 255 255
147.9246 -31.8220 732.3270 -0.6599 -0.0375 -0.7504 255 255 255
63.3991 -33.8443 802.3997 -0.6402 -0.0968 -0.7621 255 255 255
28.2822 -35.4226 830.9737 -0.5288 -0.0413 -0.8477 255 255 250
-9.9505 -36.9152 860.3654 -0.5510 -0.1656 -0.8179 255 255 245
-50.1027 -38.1123 885.5118 -0.6416 0.1375 -0.7546 255 255 240
-274.2253 -57.1976 1336.1128 -0.4461 0.3876 -0.8067 220 221 225
-338.3137 -57.2852 1353.7968 -0.2850 0.5166 -0.8074 216 220 221
441.8539 -30.7961 781.5632 0.1806 0.5127 -0.8393 163 157 161
398.5141 -33.5272 832.3596 -0.3246 -0.4337 -0.8406 165 163 161
340.1130 -35.0130 873.9164 -0.0552 -0.1200 -0.9912 123 113 116
276.9536 -33.0859 830.1121 0.8080 0.0080 -0.5892 235 207 198
259.6731 -33.0925 803.7540 0.8283 0.1009 -0.5511 238 210 202
182.6238 -28.8489 710.3394 0.2681 0.0930 -0.9589 255 255 253
154.7366 -29.6865 728.1542 -0.4240 0.0265 -0.9053 255 255 255
126.4358 -30.9295 749.8660 -0.7489 -0.1299 -0.6498 255 255 255
95.3952 -31.9019 769.5101 -0.6885 0.0266 -0.7247 255 255 255
36.8199 -32.8069 823.5909 -0.6048 -0.0859 -0.7917 255 255 253
-0.5389 -34.1737 851.4165 -0.6632 -0.1178 -0.7391 255 255 250
-40.6702 -35.7476 883.3356 -0.6188 0.0785 -0.7817 255 255 242
-334.1465 -56.0009 1392.4514 -0.2281 0.5147 -0.8265 244 248 249
379.7241 -32.1477 856.1322 -0.2342 -0.3662 -0.9006 218 216 214
343.9435 -31.9496 860.0864 -0.1442 0.1355 -0.9802 223 219 218
292.4726 -32.4817 849.7288 0.8088 0.0470 -0.5862 248 170 119
193.2549 -28.0638 723.2060 0.6758 0.0375 -0.7361 255 255 185
161.7971 -27.7007 725.5260 -0.3997 0.1311 -0.9072 255 255 255
133.0412 -28.5594 743.5012 -0.5733 0.0694 -0.8164 255 255 255
102.9162 -29.6149 764.2769 -0.3514 -0.0655 -0.9339 255 255 255
71.4218 -31.4036 796.1096 -0.6134 -0.0895 -0.7847 255 255 255
8.6644 -31.5323 843.5870 -0.6963 -0.1472 -0.7025 255 255 255
-73.3107 -34.6081 909.2936 -0.6125 0.0039 -0.7904 255 255 198
-173.0734 -46.6553 1249.2700 -0.7283 -0.0848 -0.6800 211 215 216
-309.3927 -49.9127 1348.0229 -0.6517 0.3020 -0.6957 189 193 196
442.8801 -28.0528 768.6512 -0.0103 -0.0737 -0.9972 236 233 234
310.0403 -32.1011 873.6929 0.4550 0.0304 -0.8900 246 154 71
216.8297 -26.5952 750.9082 0.7519 0.0187 -0.6590 251 171 107
204.1955 -27.1647 733.9507 0.7568 -0.0121 -0.6535 250 240 234
167.6285 -25.3675 718.4604 -0.6380 0.1077 -0.7625 255 255 255
139.7727 -26.3516 738.7157 -0.6057 0.0331 -0.7950 255 255 255
111.1513 -27.9466 768.1067 -0.1250 -0.2583 -0.9579 255 255 255
78.8638 -28.6742 785.3625 -0.6105 -0.0685 -0.7891 255 255 255
45.3839 -30.4094 818.2542 -0.6473 -0.1058 -0.7549 255 255 255
-30.8268 -33.0049 874.6177 -0.5937 -0.0596 -0.8025 255 255 242
-544.6673 -53.0871 1532.5719 -0.1009 -0.5854 -0.8045 213 218 219
452.6365 -26.4024 771.7098 -0.0262 0.1993 -0.9796 148 148 148
424.2281 -26.4878 781.5919 0.2033 0.3232 -0.9242 188 183 187
377.7068 -28.4928 831.7700 0.1193 -0.2171 -0.9688 150 143 145
316.4791 -29.5018 865.2494 0.3994 0.0020 -0.9168 234 193 182
227.7373 -25.4773 760.7669 0.7598 0.0219 -0.6498 255 171 102
120.1828 -26.4465 773.0303 -0.3956 -0.4289 -0.8121 255 255 255
86.9857 -26.5364 782.1790 -0.6523 -0.0330 -0.7572 255 255 255
53.5356 -27.7424 808.3618 -0.6253 -0.1507 -0.7657 255 255 255
17.3274 -28.6505 831.8611 -0.5744 -0.1305 -0.8081 255 255 250
-21.3415 -30.4270 868.6995 -0.5376 -0.1175 -0.8350 255 255 245
-62.8631 -31.7613 899.7382 -0.6730 -0.0044 -0.7397 255 255 241
-160.0222 -43.5212 1248.2017 -0.7327 -0.0504 -0.6787 232 236 239
-234.1684 -48.1254 1348.8647 -0.2141 -0.4744 -0.8539 200 207 209
-296.9182 -47.3184 1357.1434 -0.4454 0.4358 -0.7821 225 227 229
-360.1512 -47.0981 1368.7876 0.1256 0.5922 -0.7959 219 223 226
-482.5712 -57.1181 1563.9596 -0.5007 0.3208 -0.8040 203 207 210
463.3626 -24.8411 776.8876 0.1075 0.0997 -0.9892 177 175 178
433.4272 -24.6257 783.8674 0.3075 0.4615 -0.8322 184 182 183
388.7466 -26.8070 835.7655 -0.4499 -0.1827 -0.8742 233 231 230
334.7019 -28.9053 888.9775 -0.1234 -0.2459 -0.9614 159 149 141
239.7334 -24.4908 774.4852 0.8071 0.1154 -0.5791 240 153 84
173.7018 -23.1826 712.3592 -0.5326 0.0833 -0.8422 255 255 255
145.7626 -23.9412 730.5652 -0.6788 -0.0106 -0.7342 255 255 255
26.3838 -26.5391 830.4034 -0.4821 -0.1772 -0.8580 255 255 253
-11.9199 -27.8616 862.0651 -0.5325 -0.1729 -0.8286 255 255 247
-52.8266 -29.1219 893.3701 -0.6316 -0.0334 -0.7746 255 255 241
-280.2772 -43.4215 1348.1796 -0.3777 0.3419 -0.8605 194 196 200
-352.4663 -45.3484 1398.0052 -0.3180 0.5447 -0.7760 249 254 255
444.4408 -23.0368 789.8326 0.1120 0.3600 -0.9262 219 217 218
392.8906 -24.2144 825.3582 -0.5988 -0.1636 -0.7840 177 175 176
257.1639 -24.5099 801.8875 0.7827 0.1290 -0.6089 235 168 120
180.6674 -21.3072 710.4127 0.1821 0.1025 -0.9779 255 255 255
152.9397 -21.9687 727.7971 -0.4370 0.0424 -0.8985 255 255 255
125.6330 -23.4229 756.5419 -0.6438 -0.2846 -0.7103 255 255 255
93.9538 -23.9299 772.3154 -0.6821 -0.0447 -0.7299 255 255 237
61.3287 -25.1372 799.6605 -0.6287 -0.1742 -0.7579 255 255 201
-2.6446 -25.3039 854.9397 -0.6701 -0.1623 -0.7243 255 255 250
-42.9445 -26.5193 886.6931 -0.6475 0.0156 -0.7619 255 255 243
-199.1155 -39.6829 1313.6340 -0.0458 0.3260 -0.9443 218 220 224
-347.4012 -43.5937 1436.2329 -0.2126 0.6586 -0.7218 180 183 191
460.5173 -21.8170 758.8743 0.3961 -0.4450 -0.8032 255 253 252
340.0937 -26.1747 879.8711 -0.2011 -0.3729 -0.9058 143 129 132
289.9022 -23.3933 848.7980 0.8111 -0.0430 -0.5833 244 159 83
273.5659 -24.0979 825.6683 0.8109 -0.0084 -0.5852 231 170 143
190.2885 -20.1215 718.6724 0.6076 0.0330 -0.7935 255 255 222
160.4604 -20.1478 727.1521 -0.2877 0.1185 -0.9504 255 255 255
131.7717 -20.8818 746.3968 -0.5173 -0.1670 -0.8394 255 255 255
101.4367 -21.7170 767.9889 -0.5023 -0.0574 -0.8628 255 255 255
69.4488 -22.8545 794.5488 -0.6053 -0.1242 -0.7862 255 255 255
35.0305 -24.2962 827.3459 -0.5630 -0.2355 -0.7922 255 255 255
-76.1329 -25.2953 916.6487 -0.6354 -0.0475 -0.7708 255 233 188
-131.4117 -36.0212 1224.9602 0.1881 0.4919 -0.8501 185 190 191
-184.0402 -35.6552 1300.6031 -0.1783 0.6896 -0.7019 225 229 232
-320.3139 -37.5975 1383.6830 -0.6880 0.2883 -0.6660 225 229 230
-490.7815 -41.5938 1523.3286 0.2461 -0.5848 -0.7730 210 214 217
-503.5325 -44.3859 1509.5444 -0.1043 -0.4426 -0.8906 217 221 222
424.2627 -18.4016 784.7230 0.0771 0.6040 -0.7933 234 232 233
377.6642 -23.2984 854.9880 0.1037 0.1113 -0.9884 175 167 172
344.3623 -23.2320 867.3844 -0.1139 -0.2662 -0.9572 116 105 106
307.6709 -22.7835 874.8663 0.6054 0.0077 -0.7959 248 165 104
201.4998 -19.1951 731.3142 0.7619 0.0054 -0.6476 250 165 87
167.6836 -18.2628 725.8350 -0.5812 0.0943 -0.8083 255 255 255
139.4201 -18.9784 745.7356 -0.5962 0.0086 -0.8028 255 255 255
108.4831 -19.3572 760.0012 -0.3750 -0.1535 -0.9142 255 255 255
77.0103 -20.2850 784.4045 -0.5382 -0.0259 -0.8424 255 255 255
43.4017 -21.7265 818.5317 -0.6301 -0.2205 -0.7446 255 255 255
6.6477 -22.7492 846.6351 -0.6871 -0.1336 -0.7141 255 255 255
-32.8297 -23.3360 869.5763 -0.6359 -0.0154 -0.7716 255 255 243
-303.9629 -33.5756 1376.1663 -0.4114 0.2521 -0.8759 191 195 198
-540.5933 -35.3547 1508.5730 -0.0251 -0.4374 -0.8989 211 215 216
375.7221 -19.6816 831.6731 0.1975 0.0879 -0.9764 164 159 159
348.8032 -20.4433 855.6479 -0.1474 -0.0741 -0.9863 219 217 216
316.9853 -20.6982 873.8391 0.3234 0.1242 -0.9381 248 208 197
226.1980 -17.5025 763.1013 0.7514 0.0167 -0.6596 244 180 138
213.7842 -18.4225 747.4622 0.7927 0.0277 -0.6090 251 162 92
116.0163 -17.3722 759.4977 -0.5683 -0.2026 -0.7975 255 255 255
85.2987 -18.3147 783.7618 -0.6337 -0.0315 -0.7729 255 255 255
51.4619 -19.0725 807.7706 -0.6323 -0.1684 -0.7562 255 255 255
15.4190 -19.9223 834.2913 -0.5906 -0.1170 -0.7984 255 255 255
-23.4086 -20.9931 866.1924 -0.5733 -0.0110 -0.8193 255 255 245
-65.3825 -22.2564 902.4786 -0.6354 -0.0439 -0.7709 255 255 240
-162.1312 -29.7899 1241.6687 -0.6532 0.0045 -0.7572 254 255 255
-365.8541 -33.3035 1381.8831 -0.2868 0.5422 -0.7898 239 243 244
-522.9572 -31.4681 1505.0223 0.1483 -0.6113 -0.7774 247 251 252
461.7166 -16.6997 776.9798 0.2481 0.3991 -0.8827 181 178 179
432.9195 -16.5120 786.2976 0.2222 0.4389 -0.8706 131 126 128
386.5021 -17.9435 836.4323 0.0711 0.2373 -0.9688 130 130 130
351.7949 -17.6450 841.0521 -0.3222 0.3250 -0.8891 174 166 169
240.2892 -16.7730 782.8197 0.8118 0.0145 -0.5837 244 164 100
173.3218 -16.0023 717.9829 -0.6686 0.0648 -0.7408 255 255 255
144.9052 -16.4708 734.7656 -0.6596 0.0359 -0.7507 255 255 255
59.3810 -16.6094 799.8421 -0.6383 -0.0983 -0.7635 255 255 255
24.2783 -17.6682 830.5633 -0.5327 -0.0962 -0.8408 255 255 255
-13.9618 -18.6523 861.9994 -0.5573 -0.0913 -0.8253 255 255 247
-55.4220 -19.6488 895.7877 -0.6229 -0.0843 -0.7778 255 255 243
-144.9871 -25.3330 1209.2440 -0.2854 0.4865 -0.8258 224 228 231
-210.2270 -27.6212 1363.8649 -0.0961 0.3652 -0.9260 255 255 255
-218.6142 -29.3085 1324.9589 -0.4006 -0.2886 -0.8696 247 250 251
-363.7321 -31.3584 1425.9590 -0.2943 0.5720 -0.7656 186 187 191
447.6994 -15.2338 799.1069 0.0534 0.1592 -0.9858 131 128 129
387.1808 -15.0209 818.7170 -0.0402 -0.2633 -0.9639 229 227 225
356.9686 -15.0848 832.2652 0.0601 0.4644 -0.8836 227 225 226
254.5832 -15.9245 799.9775 0.7900 0.0850 -0.6072 227 163 135
179.4434 -13.9177 712.4607 -0.1842 0.0793 -0.9797 255 255 255
150.9687 -14.2059 726.6618 -0.4333 0.1552 -0.8878 255 255 255
122.0965 -14.8605 747.9270 -0.5804 -0.2898 -0.7610 255 255 255
92.4434 -15.8552 774.2919 -0.6846 -0.0119 -0.7288 255 255 255
-4.6426 -16.0489 852.5414 -0.6803 -0.1262 -0.7219 255 255 250
-45.0714 -17.0092 886.0792 -0.6587 -0.0684 -0.7493 255 255 243
-133.5271 -22.6778 1221.0430 0.2587 0.5570 -0.7892 221 223 224
-272.6758 -26.8320 1367.9905 -0.0606 0.2587 -0.9640 202 206 209
-344.5153 -27.2445 1409.9536 -0.3911 0.1189 -0.9127 221 222 226
-411.2253 -25.8245 1416.7332 -0.6472 -0.2455 -0.7217 209 213 216
455.9997 -13.5549 754.8935 -0.0231 -0.1118 -0.9935 187 189 191
408.8441 -14.2147 790.1089 0.1100 0.6674 -0.7365 195 192 193
344.7405 -14.2993 874.4343 -0.1275 -0.3276 -0.9362 115 104 103
268.3902 -14.8348 816.5704 0.7778 0.0463 -0.6268 239 191 175
187.9232 -12.3886 715.9563 0.5042 0.0912 -0.8588 255 255 238
158.4909 -12.4015 726.5848 -0.2579 0.2235 -0.9399 255 255 255
129.5070 -12.8293 743.9690 -0.3714 -0.1386 -0.9181 255 255 255
99.7305 -13.5991 768.2331 -0.5504 -0.0300 -0.8344 255 255 255
67.4418 -14.3561 794.1437 -0.5937 -0.0580 -0.8026 255 255 255
32.8485 -15.2532 823.3133 -0.6117 -0.1246 -0.7812 255 255 255
-34.9926 -14.3513 876.1439 -0.6344 0.0145 -0.7728 255 255 243
-486.5215 -24.6190 1500.0288 0.0201 -0.1059 -0.9942 191 195 198
418.1275 -12.3870 792.5652 0.0775 0.5847 -0.8076 137 132 136
302.4551 -13.1333 865.5776 0.7292 -0.1372 -0.6704 246 193 168
285.4031 -14.0733 842.2035 0.7799 -0.1115 -0.6159 247 216 209
199.0058 -11.3463 728.9642 0.7415 0.0375 -0.6700 255 217 159
165.7608 -10.5553 725.5883 -0.5480 0.1082 -0.8294 255 255 255
137.5931 -11.0950 746.1204 -0.4003 -0.1033 -0.9105 255 255 255
107.0544 -11.4104 762.7643 -0.5187 0.0594 -0.8529 255 255 255
75.4072 -12.1193 788.3427 -0.4415 0.0755 -0.8941 255 255 255
41.2547 -12.7287 813.0813 -0.6332 -0.1117 -0.7659 255 255 255
4.5385 -13.4207 841.1960 -0.6742 -0.1021 -0.7314 255 255 255
-184.8043 -21.6552 1287.7285 -0.5852 -0.2335 -0.7766 249 254 255
-389.2850 -20.6788 1453.6693 -0.3356 -0.1468 -0.9305 179 186 188
431.9124 -11.0400 802.5568 0.2535 0.2275 -0.9402 182 179 182
351.0723 -11.9299 866.3307 0.1180 -0.1833 -0.9760 144 138 138
317.2728 -11.8487 879.4149 0.5721 -0.0618 -0.8178 241 188 165
223.4990 -9.3149 759.8597 0.7630 -0.0005 -0.6464 247 183 143
210.8957 -10.3324 744.0172 0.7698 0.0074 -0.6383 242 179 148
113.8432 -9.1978 756.3937 -0.6605 0.0309 -0.7502 255 255 255
83.3153 -9.9966 784.5031 -0.5765 0.1234 -0.8077 255 255 255
49.5962 -10.4991 808.5098 -0.6342 -0.1006 -0.7666 255 255 255
13.4056 -11.0029 833.9848 -0.5850 -0.0058 -0.8110 255 255 255
-25.4164 -11.7894 867.1602 -0.5672 0.0673 -0.8209 255 255 245
-67.5228 -12.5989 902.4155 -0.6078 -0.0864 -0.7894 255 255 238
-166.1940 -16.9033 1250.7896 -0.5622 -0.0614 -0.8247 233 238 238
-376.6815 -17.0323 1461.5657 -0.0767 -0.4147 -0.9067 225 227 229
-566.0966 -18.5410 1619.2081 0.0000 0.0000 0.0000 249 251 252
478.9968 -8.0190 754.4516 0.0557 -0.1330 -0.9896 199 197 196
468.4695 -6.5128 779.3762 0.1594 0.1424 -0.9769 219 217 218
461.7251 -8.5955 780.9539 0.2064 -0.0530 -0.9770 173 170 171
435.6289 -8.6543 794.6662 0.2112 -0.0816 -0.9740 245 242 243
402.4662 -8.1283 797.7092 -0.1088 0.5881 -0.8015 197 195 194
384.0403 -9.0551 834.8247 -0.3284 0.2353 -0.9148 187 183 182
356.3306 -9.3469 857.0986 0.1992 0.0621 -0.9780 199 197 198
236.8404 -8.3447 775.1699 0.7891 0.0170 -0.6140 234 147 81
171.5315 -8.3940 717.6796 -0.7039 0.0041 -0.7103 255 255 255
143.4137 -8.7654 736.0326 -0.6118 0.0261 -0.7906 255 255 255
22.3022 -8.7124 828.1716 -0.5840 0.0048 -0.8117 255 255 255
-16.0925 -9.4070 861.6304 -0.6284 0.0874 -0.7730 255 255 250
-57.5581 -10.1258 896.7371 -0.6045 -0.0118 -0.7965 255 255 245
-151.7331 -13.3232 1238.6387 -0.0280 0.1406 -0.9897 220 222 223
-222.3511 -14.9884 1325.1111 -0.4673 -0.4163 -0.7799 255 255 255
442.9425 -6.5687 794.1404 0.0637 -0.2254 -0.9722 144 139 143
412.6171 -6.3414 801.4908 0.3970 0.2640 -0.8790 186 183 184
365.5485 -7.3229 857.5621 0.2070 0.0466 -0.9772 143 136 139
252.3763 -7.4771 798.6046 0.7882 0.0220 -0.6150 240 197 182
177.8698 -6.4140 712.4484 -0.3437 -0.0328 -0.9385 255 255 255
149.9471 -6.6715 729.9121 -0.4848 0.1477 -0.8621 255 255 255
120.7887 -7.0097 750.0430 -0.6163 0.0184 -0.7873 255 255 255
90.1533 -7.5028 772.4126 -0.7050 0.0954 -0.7028 255 255 255
57.6761 -8.2071 801.8195 -0.6351 -0.0701 -0.7693 255 255 255
-6.7910 -7.0035 854.2815 -0.7035 0.0155 -0.7105 255 255 253
-47.1164 -7.3646 882.3299 -0.6742 -0.0041 -0.7386 255 255 245
-139.9057 -10.7382 1252.9397 0.5927 0.3702 -0.7153 170 174 177
-208.4676 -12.0330 1327.2119 -0.6214 -0.1436 -0.7702 232 236 237
-271.9497 -11.4233 1347.9282 -0.1988 0.2911 -0.9358 209 211 215
-286.0041 -15.2108 1347.1747 0.0000 0.0000 0.0000 209 213 216
-434.1824 -12.9971 1485.6360 -0.6165 -0.0530 -0.7856 209 211 213
448.9300 -4.5602 789.8142 0.1589 -0.3108 -0.9371 189 188 191
384.7544 -6.4396 817.4128 -0.2310 0.4383 -0.8686 177 175 174
265.7132 -6.1087 815.2523 0.7740 0.0511 -0.6311 247 214 209
185.0096 -4.6297 711.3949 0.1842 0.0575 -0.9812 255 255 245
157.4186 -4.8558 729.6602 -0.3230 0.2194 -0.9206 255 255 255
128.5718 -5.1621 749.0204 -0.4084 0.1000 -0.9073 255 255 255
97.7651 -5.4202 768.3603 -0.6321 0.0905 -0.7696 255 255 255
65.6163 -5.9209 794.3157 -0.5696 -0.0082 -0.8219 255 255 255
30.8833 -6.3924 821.2226 -0.6284 0.0432 -0.7767 255 255 255
-263.3293 -8.3604 1371.0820 -0.3108 0.2498 -0.9170 248 253 253
-410.2416 -8.6794 1459.4458 -0.4003 0.3595 -0.8429 181 184 190
-487.9747 -8.4541 1493.8652 -0.1338 0.5320 -0.8361 211 215 220
459.1752 -3.6505 749.9783 0.1582 0.1017 -0.9822 232 230 230
434.0646 -2.7364 811.2524 0.3001 -0.7787 -0.5510 225 223 223
424.9965 -4.6091 810.5494 0.1715 0.4032 -0.8989 101 96 98
390.5540 -4.0767 812.0931 0.2458 0.4754 -0.8447 244 242 240
338.2112 -4.7891 861.9606 -0.0696 -0.3524 -0.9333 201 196 198
296.7051 -3.6542 854.6104 0.7552 -0.1139 -0.6455 233 170 137
279.8223 -4.7721 831.8014 0.7582 0.0288 -0.6513 232 195 183
195.7283 -3.4020 724.5460 0.7437 0.0371 -0.6675 255 255 158
165.0866 -3.0872 730.4553 -0.5416 0.0883 -0.8360 255 255 255
135.0907 -3.0322 741.9159 -0.3238 0.1082 -0.9399 255 255 255
105.5512 -3.4384 765.8173 -0.5525 0.1302 -0.8233 255 255 255
73.3957 -3.6684 786.4000 -0.3678 0.1350 -0.9201 255 255 255
39.3513 -4.1080 814.2136 -0.6271 0.0495 -0.7774 255 255 255
2.3674 -4.4779 843.5449 -0.6898 0.0012 -0.7240 255 255 255
-37.4788 -5.1514 880.7172 -0.6187 0.0642 -0.7830 255 255 245
-182.6846 -6.6858 1252.2803 -0.5859 0.0148 -0.8102 237 241 244
473.0740 -2.2236 759.9374 0.2847 0.1917 -0.9393 143 138 138
443.2065 -1.7978 765.0557 0.4384 0.2511 -0.8630 227 225 226
404.3485 -2.4899 823.3970 0.1909 0.3821 -0.9042 137 132 134
343.0465 -2.3310 850.8793 -0.1380 -0.1110 -0.9842 160 153 153
312.5155 -2.3601 871.5379 0.7177 -0.1422 -0.6817 226 153 100
207.5762 -2.2560 738.2518 0.7652 0.0506 -0.6418 246 197 175
112.7370 -1.3255 759.7516 -0.5642 0.1194 -0.8169 255 255 255
82.1706 -1.8845 791.0209 -0.4573 0.2071 -0.8649 255 255 255
47.7153 -1.9071 808.9308 -0.6651 -0.0052 -0.7467 255 255 255
11.3475 -2.1934 837.3019 -0.6028 0.0313 -0.7973 255 255 255
-27.9760 -2.8040 876.1428 -0.5540 0.0434 -0.8314 255 255 248
-69.8937 -2.9417 903.5652 -0.5514 -0.0822 -0.8302 255 255 207
-246.7642 -5.0845 1363.6683 -0.5979 0.3005 -0.7431 226 230 233
459.6624 -0.4170 780.1378 0.1553 0.4069 -0.9002 195 193 191
409.2211 -0.2718 815.8770 -0.0288 0.5006 -0.8652 179 179 179
385.4738 -0.5734 841.9106 -0.2564 0.0655 -0.9643 151 144 147
362.0874 -1.0564 875.0187 0.3172 -0.0304 -0.9479 143 138 138
325.7067 -0.5198 883.1670 0.0237 -0.0603 -0.9979 207 125 71
233.2889 0.0633 769.8837 0.7836 0.0710 -0.6172 248 208 187
220.7995 -1.1807 756.7039 0.7643 0.0786 -0.6401 236 164 88
170.9101 -1.0019 722.7499 -0.6997 0.0163 -0.7143 255 255 255
141.6376 -0.9550 735.9955 -0.5985 0.1369 -0.7893 255 255 255
89.4171 0.3743 782.4067 -0.7231 0.0945 -0.6843 255 255 255
55.8337 0.3341 801.5911 -0.6491 -0.0636 -0.7580 255 255 255
20.1352 0.0260 832.9995 -0.5938 0.0206 -0.8043 255 255 255
-18.4369 -0.2336 864.2386 -0.6417 0.0501 -0.7653 255 255 250
-60.1017 -0.6387 901.1858 -0.4621 0.0590 -0.8849 255 255 248
-225.4615 -1.1593 1327.6262 -0.2365 -0.2488 -0.9392 212 216 219
-363.8237 -0.6557 1400.8020 -0.2721 -0.2564 -0.9275 219 224 224
440.2379 1.8263 792.6653 0.0819 -0.1526 -0.9849 198 196 195
427.6709 0.0750 783.8317 -0.0856 -0.0311 -0.9958 184 184 184
410.5729 2.0356 800.7950 0.5013 -0.1611 -0.8502 253 251 249
383.1758 2.2656 818.1829 -0.4811 0.0471 -0.8754 216 211 213
371.4780 1.1145 876.6016 0.1480 0.0096 -0.9889 198 193 194
247.3390 1.3079 789.2366 0.8003 0.0305 -0.5988 238 236 234
176.3812 1.0716 713.3611 -0.5028 0.0502 -0.8630 255 255 255
149.3055 0.8497 735.7914 -0.4784 0.1218 -0.8696 255 255 255
120.8944 0.5034 760.3582 -0.4513 0.3231 -0.8318 255 255 255
-8.9353 2.1084 856.1606 -0.7153 0.0290 -0.6982 255 255 255
-49.7328 1.9614 887.9783 -0.6376 0.0907 -0.7650 255 255 245
-280.0834 2.5440 1371.4052 0.2787 0.6243 -0.7297 212 216 219
-441.2062 2.6100 1498.3196 -0.2728 -0.3933 -0.8780 174 177 183
-511.2505 3.4803 1505.4028 0.0908 0.7136 -0.6946 224 227 233
472.8458 1.0596 789.3030 -0.1007 0.4302 -0.8971 192 190 191
262.4429 2.6242 811.6133 0.7957 0.0301 -0.6049 249 236 232
156.1147 2.7817 732.0684 -0.3675 0.1001 -0.9246 255 255 255
96.2757 2.6607 770.7828 -0.6747 0.0799 -0.7338 255 255 255
63.9125 2.4688 796.2227 -0.5485 -0.0004 -0.8362 255 255 255
28.8704 2.2985 825.0139 -0.6137 0.0278 -0.7891 255 255 255
-132.3219 5.4733 1276.8337 0.6216 0.3419 -0.7048 239 241 243
-204.1995 3.0815 1281.7499 -0.5778 0.4352 -0.6904 241 246 246
-267.4300 6.0367 1377.3209 -0.1155 0.5607 -0.8200 218 222 225
-421.8488 6.4059 1486.0284 -0.4388 -0.2894 -0.8507 192 193 197
456.7960 4.2672 748.9091 -0.3242 0.3107 -0.8935 210 208 208
451.1293 3.5692 797.6852 0.0683 -0.1821 -0.9809 194 191 192
419.7485 3.9252 802.5338 0.2170 -0.1374 -0.9664 153 151 151
412.0193 5.6124 842.4691 0.0307 0.2017 -0.9790 173 171 169
390.8754 4.2874 816.4136 0.1570 0.2538 -0.9544 190 188 187
380.9153 5.9663 856.1011 -0.2598 -0.0421 -0.9648 223 221 219
370.2624 3.8806 852.4233 -0.2487 -0.1274 -0.9602 170 165 164
336.3374 4.3109 862.3853 -0.3981 0.2877 -0.8710 153 143 147
291.1437 5.6201 844.0474 0.7540 0.0821 -0.6518 245 169 122
276.6148 4.0795 827.7217 0.7719 0.0415 -0.6344 234 215 210
163.3935 4.6273 730.6296 -0.5417 0.0305 -0.8400 255 255 255
134.1676 4.6913 746.5023 -0.4000 0.3352 -0.8530 255 255 255
124.3623 3.2260 734.8088 -0.3391 0.0383 -0.9400 255 255 255
103.9571 4.6443 767.6003 -0.4999 0.0902 -0.8614 255 255 255
71.7921 4.6164 788.8434 -0.3022 -0.0321 -0.9527 255 255 255
37.3824 4.5170 818.2745 -0.6104 0.0430 -0.7909 255 255 255
0.3415 4.4725 845.2559 -0.6781 0.0146 -0.7348 255 255 255
-39.6096 4.4566 875.6248 -0.6454 0.0934 -0.7581 255 255 245
-186.4831 6.6425 1257.7645 -0.7066 0.4110 -0.5760 205 210 210
451.3228 5.8368 783.0662 -0.1645 -0.1386 -0.9766 217 215 215
435.8691 5.5320 818.3986 0.2042 -0.1463 -0.9679 150 150 150
339.5119 6.7358 847.2886 -0.0339 0.2211 -0.9747 187 185 183
205.4778 5.5730 737.1647 0.7748 0.0450 -0.6306 240 194 169
111.7817 6.5698 765.0787 -0.5037 0.1137 -0.8564 255 255 255
80.3981 6.4817 791.8401 -0.4235 -0.1243 -0.8973 255 255 255
45.5905 6.7474 809.0699 -0.6814 0.0029 -0.7319 255 255 255
9.4001 6.7539 836.7239 -0.5974 0.0573 -0.7999 255 255 255
-30.2832 6.6035 876.5049 -0.5954 0.0259 -0.8030 255 255 247
-72.1070 6.6775 904.3032 -0.4350 -0.0140 -0.9003 255 251 211
-379.4955 11.5296 1389.2151 -0.1716 0.1297 -0.9766 230 234 235
452.3687 8.0171 771.0770 -0.0789 0.2684 -0.9601 170 168 171
428.0634 8.3443 788.7145 0.0727 -0.0617 -0.9954 215 212 213
414.4645 7.9946 830.5409 0.0484 -0.1843 -0.9817 181 178 179
217.9819 6.9054 753.6647 0.7698 0.0870 -0.6323 240 159 71
169.0012 6.6497 721.7776 -0.6842 0.0144 -0.7291 255 255 255
140.9880 6.6508 742.1262 -0.5808 0.1502 -0.8001 255 255 255
88.0536 8.5677 786.8362 -0.6568 -0.2276 -0.7189 255 255 255
53.6911 8.9186 801.1667 -0.6734 0.0107 -0.7392 255 255 255
18.3116 8.8877 832.3304 -0.5927 0.0444 -0.8042 255 255 255
-20.8228 8.9021 870.0260 -0.6224 -0.0879 -0.7777 255 255 253
-62.2058 8.9816 900.5552 -0.4204 -0.0410 -0.9064 255 255 248
-222.3035 13.4432 1293.7747 -0.3608 0.2602 -0.8956 252 255 255
-384.0612 14.3549 1462.0183 -0.0949 0.2722 -0.9575 196 200 203
458.7325 9.9733 768.6776 0.1302 0.5117 -0.8492 184 178 182
434.9111 10.2252 785.6702 0.0703 -0.0382 -0.9968 229 226 227
412.6497 10.3733 809.2356 0.5492 -0.1586 -0.8205 210 210 210
366.3859 10.5311 869.5244 0.1850 0.0881 -0.9788 132 125 125
244.5757 9.7799 788.4647 0.7893 -0.0125 -0.6139 240 212 199
230.7781 8.3245 769.9014 0.7719 0.0288 -0.6350 245 196 178
174.8777 8.5909 714.1672 -0.6008 0.0234 -0.7990 255 255 255
147.7915 8.5901 737.0396 -0.4560 0.1189 -0.8820 255 255 255
118.4586 8.6510 756.3992 -0.3445 0.2275 -0.9108 255 255 255
-52.0892 11.3179 894.2659 -0.6133 -0.0110 -0.7897 255 255 246
-209.1983 16.8096 1294.4103 -0.2712 0.3384 -0.9011 187 189 193
-367.9326 17.8716 1458.7457 -0.1136 0.1301 -0.9850 219 223 226
471.4356 11.6845 777.0272 0.4620 -0.2791 -0.8418 208 205 206
390.2034 10.4821 838.1766 -0.0964 -0.3534 -0.9305 139 135 134
369.3544 12.9150 855.2416 -0.0706 -0.0641 -0.9954 181 178 179
259.1784 11.2512 807.2143 0.8118 0.0436 -0.5823 244 183 165
182.2467 10.3480 714.2979 0.0388 -0.0101 -0.9992 255 255 255
154.3623 10.5149 731.5550 -0.4325 0.1060 -0.8954 255 255 255
124.7913 10.7850 747.1818 -0.4547 0.2457 -0.8561 255 255 255
94.6986 10.7963 773.2895 -0.5680 -0.2120 -0.7953 255 255 255
61.9671 10.9543 793.9169 -0.5004 0.0292 -0.8653 255 255 255
26.9564 11.0800 824.7870 -0.6060 0.0232 -0.7951 255 255 255
-11.0777 11.1937 859.1509 -0.6974 -0.1013 -0.7095 255 255 255
-42.1062 13.6343 887.2651 -0.6935 -0.0474 -0.7189 255 255 245
-136.0331 18.9376 1284.5614 0.1430 0.0198 -0.9895 208 210 212
-352.3514 21.8017 1456.1030 0.1550 0.3713 -0.9155 231 235 236
445.2739 12.0626 789.9372 0.0460 0.0376 -0.9982 189 187 187
411.1712 12.7077 790.0594 0.0631 0.0754 -0.9952 250 247 248
390.5474 12.8590 820.1299 0.2739 -0.1790 -0.9450 232 230 230
337.5669 13.3450 871.9870 -0.1511 -0.2443 -0.9579 94 84 85
274.5185 12.7979 827.0282 0.7705 0.0448 -0.6359 246 174 125
190.6896 11.9979 717.4149 0.5384 -0.0553 -0.8409 255 255 210
161.5165 12.3477 729.7280 -0.5790 0.1142 -0.8073 255 255 255
133.8252 12.4382 754.2791 -0.6753 0.1044 -0.7301 255 255 255
102.3745 12.7533 769.8521 -0.3833 0.0557 -0.9220 255 255 255
70.0593 12.9918 794.1463 -0.3784 -0.0779 -0.9224 255 255 255
35.4610 13.1904 821.4437 -0.6109 0.0130 -0.7916 255 255 255
-1.7122 13.4539 848.9744 -0.6720 -0.0412 -0.7394 255 255 255
-195.4145 20.1507 1290.6975 -0.1365 0.2994 -0.9443 221 222 226
-403.7932 26.1689 1465.9290 -0.6423 -0.2343 -0.7298 199 200 204
475.7717 15.6343 757.7383 0.1133 0.7593 -0.6408 147 147 147
466.6226 13.8125 755.3411 0.2637 0.2272 -0.9375 224 222 222
453.9908 13.9440 791.4412 -0.0383 0.0228 -0.9990 191 189 192
420.3818 14.6799 793.1266 -0.1127 0.2753 -0.9547 182 180 180
402.0947 14.6812 825.9729 0.1572 -0.1994 -0.9672 174 171 172
374.1031 15.0057 844.8945 0.1434 -0.0748 -0.9868 179 176 177
339.1532 15.7112 852.5684 -0.1923 0.2913 -0.9371 136 129 130
306.6333 16.3071 869.8228 0.6593 0.0832 -0.7473 247 199 184
289.8137 14.5220 846.6172 0.7446 0.0360 -0.6665 235 148 91
203.4350 13.3818 736.7457 0.8008 0.0050 -0.5989 255 198 110
78.3644 14.9335 794.0809 -0.5705 -0.1990 -0.7968 255 255 255
43.8880 15.2973 814.9099 -0.6829 0.0299 -0.7299 255 255 255
7.3292 15.6323 842.1650 -0.5889 0.0073 -0.8082 255 255 255
-32.3547 15.9645 875.9196 -0.5569 -0.1102 -0.8232 255 255 247
-74.1931 16.3912 903.3212 -0.4165 -0.2175 -0.8828 255 241 238
-241.2815 24.1007 1304.2166 -0.3737 0.4859 -0.7901 230 234 237
451.3235 16.1092 772.6737 -0.0837 0.0434 -0.9955 210 208 208
428.3350 16.5504 792.5715 -0.1460 0.2707 -0.9515 180 177 178
412.5954 16.7866 831.1233 0.1921 -0.1795 -0.9648 167 164 167
215.9373 14.8723 753.0528 0.7730 0.0109 -0.6343 240 156 85
167.2734 14.2874 722.3796 -0.6342 0.1163 -0.7644 255 255 255
139.1062 14.5195 741.5959 -0.6312 0.0940 -0.7699 255 255 255
109.3362 14.7578 762.0232 -0.4517 0.2020 -0.8690 255 255 255
16.2556 17.7686 834.8283 -0.5951 0.0395 -0.8027 255 255 255
-22.8899 18.1987 869.2216 -0.5898 -0.1269 -0.7975 255 255 253
-64.3926 18.6768 899.4316 -0.3726 -0.3557 -0.8571 255 255 247
-229.2034 27.1132 1315.7129 -0.3910 0.3920 -0.8327 174 178 181
-381.6461 29.8776 1438.9983 -0.2414 0.3207 -0.9159 224 229 227
461.1755 17.9758 776.2439 -0.2817 0.2297 -0.9316 171 166 170
439.6116 18.3875 797.9475 -0.1300 0.1332 -0.9825 248 246 247
357.0718 19.7986 851.5288 0.1476 -0.4364 -0.8875 117 109 112
325.9478 20.4270 870.9214 0.0763 -0.0058 -0.9971 130 106 103
315.0192 18.3869 867.6356 0.5346 0.1053 -0.8385 233 203 193
228.2547 16.4619 767.4517 0.7514 -0.0289 -0.6592 246 171 117
174.1290 16.0898 719.2283 -0.5835 0.1048 -0.8053 255 255 255
146.0970 16.3990 738.0225 -0.4484 0.1458 -0.8819 255 255 255
116.9606 16.6694 759.7957 -0.3206 0.1762 -0.9307 255 255 255
85.4041 17.0144 782.3149 -0.5870 -0.2920 -0.7551 255 255 255
51.7886 17.4270 802.8373 -0.6918 0.0600 -0.7196 255 255 255
-13.2796 20.3874 861.7682 -0.6894 -0.1541 -0.7078 255 255 255
-54.6178 20.8715 899.2421 -0.4065 -0.4368 -0.8025 255 255 245
-369.9376 33.4991 1454.6379 0.4035 -0.2455 -0.8814 209 213 214
-558.4562 36.3466 1620.3894 0.3839 0.5872 -0.7126 213 217 221
255.4964 19.7911 801.4563 0.8203 0.0089 -0.5718 241 154 88
241.0894 18.1132 782.6044 0.7753 -0.0152 -0.6314 246 159 88
180.8701 17.8785 716.2424 -0.3705 0.0687 -0.9263 255 255 255
153.0247 18.2412 734.1138 -0.4851 0.1404 -0.8631 255 255 255
127.1058 18.3250 771.1132 -0.5180 0.0418 -0.8544 255 255 255
92.5819 19.0439 773.1566 -0.3983 -0.0835 -0.9134 255 255 255
59.9232 19.4590 794.5146 -0.5338 0.0901 -0.8408 255 255 255
24.8936 19.9014 825.7266 -0.6114 0.0499 -0.7897 255 255 255
-137.8746 32.4675 1276.6589 -0.2359 -0.2773 -0.9314 228 230 231
-355.1196 36.9238 1455.0449 -0.4644 -0.3793 -0.8003 227 232 232
440.7142 20.3301 784.8256 -0.1088 0.1108 -0.9879 208 205 208
416.3447 20.9835 805.0157 0.1018 0.0963 -0.9901 205 203 204
401.1526 23.4632 828.5614 -0.1066 0.0815 -0.9910 238 235 236
396.3181 21.3773 836.7471 0.2201 -0.0233 -0.9752 173 170 173
372.9870 21.7696 868.0439 0.0700 -0.2738 -0.9592 118 114 113
338.9123 22.5475 881.7828 -0.3857 0.0185 -0.9225 144 134 135
271.5939 21.5552 824.6992 0.7690 0.0533 -0.6370 235 149 89
160.2492 20.0401 732.0861 -0.6060 0.0854 -0.7908 255 255 255
133.6914 20.2629 764.0051 -0.6795 -0.0626 -0.7310 255 255 255
100.6519 20.9176 770.8210 -0.3561 0.0995 -0.9292 255 255 255
68.0448 21.4462 794.5684 -0.5169 -0.0361 -0.8553 255 255 255
33.4903 21.9633 820.4348 -0.5974 0.0138 -0.8018 255 255 255
-3.9409 22.5572 847.9404 -0.6503 -0.1203 -0.7501 255 255 255
-44.5321 23.0469 891.9955 -0.5593 -0.3791 -0.7372 255 255 245
-202.8400 34.1226 1315.7469 -0.4097 -0.1328 -0.9025 188 192 193
-581.6301 41.0213 1531.2965 -0.3387 -0.1931 -0.9209 213 214 220
-724.6031 44.4639 1697.9578 -0.0371 0.8995 -0.4353 235 239 243
448.7269 22.2595 785.0371 0.0701 0.1596 -0.9847 121 116 118
375.7335 23.9279 853.4932 -0.0511 -0.0416 -0.9978 195 192 193
341.2325 24.7914 864.6736 -0.3993 -0.0544 -0.9152 142 135 135
300.8597 25.4737 858.6998 0.6886 0.0419 -0.7240 233 214 207
285.8564 23.4834 841.3341 0.7478 0.0339 -0.6630 249 182 143
200.4334 21.2108 732.7423 0.7849 -0.0982 -0.6118 255 250 118
187.3096 19.6137 711.2386 -0.0048 0.0314 -0.9995 255 255 235
75.8372 23.3960 787.2765 -0.7098 -0.1112 -0.6956 255 255 255
42.0396 23.9795 815.8699 -0.6497 0.0012 -0.7602 255 255 255
4.9445 24.6853 844.8674 -0.5598 -0.0968 -0.8230 255 255 255
-34.4601 25.3530 874.4683 -0.4825 -0.2200 -0.8478 255 255 247
-76.0695 25.9275 904.8812 -0.3833 -0.4644 -0.7984 226 221 218
-184.2080 36.9496 1285.7625 -0.0032 0.1098 -0.9939 219 226 226
485.3445 23.4945 776.3660 0.1912 0.4870 -0.8522 180 177 178
455.7442 24.1882 783.4771 0.0924 0.0298 -0.9953 212 210 211
442.3593 24.6717 821.6620 -0.1823 0.1569 -0.9706 172 167 169
401.1695 25.5673 811.9955 -0.0088 -0.2491 -0.9684 216 214 212
374.4097 26.0933 831.2139 -0.0710 0.0996 -0.9925 192 190 193
312.9459 27.4344 865.5956 0.4488 0.1386 -0.8828 245 220 215
212.9611 22.8634 749.5887 0.7816 -0.0463 -0.6220 246 161 97
166.4546 21.8962 726.2249 -0.6134 0.0431 -0.7886 255 255 255
137.0906 22.3717 740.1020 -0.6108 -0.0276 -0.7913 255 255 255
116.3582 24.6979 767.5438 -0.3415 0.0941 -0.9351 255 255 255
108.0217 22.8252 764.9474 -0.4168 0.1783 -0.8913 255 255 255
14.0980 26.7209 841.3080 -0.5607 -0.1015 -0.8218 255 255 255
-24.9057 27.5087 867.4788 -0.5448 -0.1002 -0.8326 255 255 255
-66.4948 28.2195 902.5503 -0.3342 -0.4969 -0.8009 255 255 226
-236.8118 41.7879 1335.0536 0.5682 0.4761 -0.6712 199 205 208
-385.7321 45.0114 1444.6647 -0.0458 -0.4173 -0.9076 202 206 207
458.2519 26.0285 773.7710 -0.0611 0.1779 -0.9821 233 231 232
437.5353 26.7568 797.8168 -0.2569 0.1240 -0.9584 184 179 180
377.1565 28.1797 818.4844 0.1694 0.0561 -0.9839 206 204 205
354.1190 28.8325 850.2504 0.1684 -0.0659 -0.9835 239 237 235
323.2434 29.4870 868.6406 0.1299 0.2104 -0.9690 216 160 140
224.9441 24.5612 762.2172 0.7425 0.0065 -0.6698 238 166 102
173.1015 23.6637 721.9916 -0.5374 0.0843 -0.8391 255 255 255
145.1025 24.1867 741.9501 -0.3897 0.1352 -0.9109 255 255 255
82.1038 25.4137 769.6623 -0.5818 -0.0770 -0.8097 255 255 255
50.0521 25.9988 805.5502 -0.6691 0.0340 -0.7424 255 255 255
-154.8498 43.2753 1271.8483 0.3471 0.5207 -0.7800 220 225 226
-166.5910 39.8297 1259.0295 0.3667 0.2976 -0.8815 221 226 227
-215.6906 44.2528 1298.9066 -0.3285 0.2589 -0.9083 228 232 236
-375.8410 48.8057 1465.3706 -0.2263 -0.0581 -0.9723 214 219 220
467.9189 27.9948 777.3326 0.1219 0.1942 -0.9734 168 168 168
438.4493 28.5886 783.9054 -0.3037 -0.0289 -0.9523 216 213 214
419.1498 29.4670 813.7414 0.2001 -0.4598 -0.8652 202 198 197
413.8047 27.5839 820.6332 0.0116 -0.1863 -0.9824 177 175 174
251.1980 28.3011 794.6503 0.8231 0.0749 -0.5629 240 230 222
237.2693 26.3754 776.2574 0.7816 0.0507 -0.6217 222 145 91
178.7029 25.4187 713.8823 -0.4110 0.0666 -0.9092 255 255 255
152.1499 25.9909 738.4614 -0.4811 0.0956 -0.8714 255 255 255
123.4955 26.5427 761.6917 -0.5280 0.0161 -0.8491 255 255 255
90.1912 27.2957 768.9304 -0.2434 0.2311 -0.9420 255 255 255
58.4102 27.9091 800.4258 -0.5654 0.0621 -0.8225 255 255 255
23.0190 28.7166 831.0823 -0.5972 -0.0403 -0.8011 255 255 255
-15.4532 29.5863 862.4537 -0.6760 -0.0468 -0.7355 255 255 255
-56.3794 30.4047 894.0818 -0.4615 -0.4517 -0.7635 255 255 243
-141.3561 46.2557 1275.1252 -0.4871 0.1643 -0.8578 217 221 222
-357.2138 52.2427 1452.9968 -0.5231 -0.0550 -0.8505 198 202 205
-440.2521 54.4872 1514.7539 -0.7119 -0.0924 -0.6961 220 224 228
390.0526 30.1825 827.7521 -0.2225 0.2196 -0.9499 184 182 183
360.2736 30.9188 843.7306 -0.1078 0.1062 -0.9885 170 170 170
268.1455 30.2578 820.4601 0.7515 0.1791 -0.6350 237 191 179
158.6875 27.7762 733.1111 -0.6194 -0.0120 -0.7850 255 255 255
130.0676 28.4137 754.3652 -0.7042 -0.0613 -0.7073 255 255 255
98.9241 29.1392 773.3481 -0.3115 0.1443 -0.9392 255 255 255
66.5228 29.8912 797.6373 -0.6086 0.0452 -0.7922 255 255 255
31.6485 30.7324 825.0896 -0.5949 -0.0456 -0.8025 255 255 255
-5.9804 31.6200 847.6047 -0.6613 -0.0085 -0.7501 255 255 255
-46.0857 32.5494 878.3483 -0.4242 -0.1050 -0.8994 255 255 245
-197.9939 47.0925 1272.6333 -0.7533 -0.0073 -0.6577 230 234 237
482.4058 31.7414 775.2545 0.4155 0.6840 -0.5997 223 221 219
446.0323 30.3953 782.5746 0.1103 -0.0162 -0.9938 188 185 188
406.5047 32.1985 843.9138 0.0881 -0.0635 -0.9941 209 206 207
376.7262 33.0759 861.5763 -0.0150 -0.1850 -0.9826 148 142 146
282.4592 32.2859 836.6692 0.7206 0.1907 -0.6667 234 166 125
183.7783 27.1885 704.8387 -0.1491 0.1152 -0.9821 255 255 255
106.7232 30.9970 770.0721 -0.4339 0.0277 -0.9005 255 255 255
74.1941 31.7955 789.8441 -0.7187 0.0341 -0.6944 255 255 255
40.0223 32.6855 816.9547 -0.6204 -0.0520 -0.7826 255 255 255
3.1204 33.6513 842.7158 -0.5585 -0.0055 -0.8295 255 255 255
-36.6373 34.7067 873.3172 -0.4406 -0.0710 -0.8949 255 255 248
-122.4114 48.5613 1228.0233 -0.8168 -0.0106 -0.5769 213 214 218
-181.2040 49.8223 1253.4849 0.0889 0.5315 -0.8424 214 219 220
-245.2700 56.4060 1368.8466 0.8280 0.1425 -0.5423 226 231 231
-248.6331 51.9754 1310.6570 -0.0511 -0.2303 -0.9718 203 207 210
-324.0439 54.3227 1379.3947 -0.5867 0.2258 -0.7777 202 205 211
-390.4105 55.6205 1396.4701 -0.4868 -0.3607 -0.7956 205 212 212
462.5693 32.4871 798.4417 0.1641 0.1445 -0.9758 159 156 157
401.5036 34.1051 816.0269 -0.0545 -0.0933 -0.9941 255 255 255
378.0862 35.0217 844.0103 0.1837 0.0248 -0.9827 159 156 157
315.3583 36.7038 878.3015 0.4498 0.1207 -0.8849 241 185 142
297.7395 34.4700 855.4769 0.7166 0.2939 -0.6325 238 230 222
209.7042 30.7328 744.2380 0.8351 -0.0877 -0.5431 242 186 155
196.1255 28.9097 723.2875 0.6542 0.0556 -0.7543 255 255 137
165.1808 29.5595 728.3881 -0.6221 -0.0507 -0.7813 255 255 255
136.0442 30.2312 744.2580 -0.5562 0.1270 -0.8213 255 255 255
-27.2063 36.8109 870.0416 -0.5068 -0.0023 -0.8620 255 255 255
-166.8857 52.8893 1244.1671 0.5362 0.5490 -0.6412 228 233 234
-382.3217 59.8064 1420.6851 -0.3083 -0.1217 -0.9435 207 212 213
-721.7695 73.2693 1772.5419 0.3034 -0.9528 0.0137 242 247 248
461.1097 34.1469 781.7101 -0.0305 0.2375 -0.9709 220 220 220
437.9519 35.2703 802.5708 -0.1533 0.0304 -0.9877 166 161 165
381.7399 36.9009 832.4119 0.0010 0.5155 -0.8569 217 215 215
221.9846 32.6017 758.9335 0.7669 -0.0118 -0.6417 237 183 151
172.1184 31.2818 724.9648 -0.5137 0.0144 -0.8579 255 255 255
143.5057 32.0329 743.0255 -0.4042 0.1918 -0.8943 255 255 255
114.6733 32.8617 770.1195 -0.4359 0.0475 -0.8988 255 255 255
81.3015 33.6068 777.3510 -0.6030 0.1298 -0.7871 255 255 255
48.2720 34.6254 809.5686 -0.6380 -0.0134 -0.7699 255 255 255
12.2641 35.6059 837.7917 -0.5730 -0.0162 -0.8194 255 255 255
-67.0686 37.6026 884.9443 -0.5957 -0.0183 -0.8030 255 254 210
-159.4761 57.0332 1287.6354 0.2522 0.5366 -0.8053 236 238 239
-225.4772 59.1714 1337.1409 0.5412 -0.0092 -0.8409 252 254 255
-378.4025 64.7383 1458.6157 -0.5656 0.2199 -0.7948 187 191 194
465.5492 36.0109 775.7301 0.0450 0.6504 -0.7582 224 222 220
407.6638 36.0004 811.0065 -0.1465 0.0566 -0.9876 202 198 197
250.2398 36.7020 797.8516 0.8017 0.0633 -0.5944 238 213 201
235.1190 34.5595 775.4167 0.7767 0.0679 -0.6262 234 208 201
178.3748 32.9695 718.9021 -0.5027 0.0787 -0.8609 255 255 255
150.5557 33.8137 739.6859 -0.5126 0.1154 -0.8508 255 255 255
121.3071 34.6369 760.5051 -0.5269 0.0712 -0.8469 255 255 255
89.3412 35.4451 774.8074 -0.2745 0.2687 -0.9233 255 255 255
56.7021 36.4697 803.3965 -0.5538 -0.0052 -0.8327 255 255 255
21.0311 37.5568 829.7938 -0.5850 -0.0283 -0.8105 255 255 255
-17.5415 38.8114 861.7071 -0.6397 0.0285 -0.7681 255 255 255
-57.5982 39.7918 881.0997 -0.5101 0.0621 -0.8579 255 255 243
-146.8113 60.4114 1292.8584 -0.1857 0.1595 -0.9696 255 255 255
-449.7130 65.9742 1480.0861 -0.3673 0.2026 -0.9078 220 225 226
-650.3593 73.1932 1642.2390 -0.4545 -0.7339 -0.5048 197 203 205
444.9064 37.0611 799.7381 -0.1774 -0.0501 -0.9829 166 163 166
265.2289 38.8817 818.0372 0.8039 0.1893 -0.5639 232 182 169
184.5334 34.6923 714.0864 -0.0279 0.1963 -0.9801 255 255 255
157.3699 35.5473 735.1522 -0.6800 0.0145 -0.7331 255 255 255
