ply
format ascii 1.0
element vertex 756
property float x
property float y
property float z
property float nx
property float ny
property float nz
property uchar red
property uchar green
property uchar blue
end_header
182.2145 -150.6731 746.3766 0.7566 -0.1888 -0.6260 255 183 121
134.9299 -144.5688 713.8284 -0.5297 0.0711 -0.8452 255 255 241
106.2176 -149.5577 737.7452 -0.5061 0.1183 -0.8543 255 255 236
73.9913 -150.5622 749.6523 -0.4587 0.1425 -0.8771 255 255 227
7.4398 -225.2118 1104.8108 -0.2542 0.5642 -0.7856 178 173 177
-42.4753 -227.6854 1123.2144 -0.2213 0.0852 -0.9715 220 220 220
-96.5630 -235.2080 1152.0991 -0.2514 -0.3747 -0.8924 199 200 204
-153.3944 -241.2024 1185.3055 -0.0670 0.1566 -0.9854 176 182 184
-281.1962 -259.2497 1296.1987 -0.7229 0.5277 -0.4460 206 207 211
452.0231 -154.6481 759.6829 0.4247 -0.2389 -0.8732 187 187 187
398.0490 -160.2319 788.2915 0.3640 -0.0838 -0.9276 222 222 222
362.8623 -159.8495 794.0429 -0.4937 0.3609 -0.7912 156 154 157
274.8502 -171.4837 867.9940 0.3168 -0.4445 -0.8379 252 219 212
211.9024 -158.7039 787.2990 0.7605 0.0122 -0.6492 255 201 181
193.2065 -151.8709 759.6232 0.8061 -0.1783 -0.5643 255 195 159
113.7595 -147.2403 732.3412 -0.6115 0.0550 -0.7894 255 255 238
83.2314 -152.1488 752.0759 -0.5821 0.2166 -0.7837 255 255 234
50.7792 -157.2386 778.1561 -0.6074 0.1290 -0.7838 255 255 255
-195.9469 -240.4131 1203.6646 0.5855 0.0230 -0.8104 254 255 255
-259.6974 -250.0864 1273.0326 -0.4555 0.4267 -0.7814 214 219 220
407.5261 -149.5396 761.7024 -0.0085 0.2487 -0.9685 155 153 154
408.2882 -159.1350 792.6784 -0.0196 -0.4945 -0.8689 189 191 195
369.6016 -156.9847 791.6880 -0.5982 0.3297 -0.7303 172 172 174
318.5180 -167.8676 842.7857 0.0638 -0.5002 -0.8636 183 180 184
293.2488 -159.6376 854.6094 -0.2498 -0.5186 -0.8177 112 105 105
286.9774 -171.5480 871.6384 0.1462 -0.5558 -0.8184 132 118 118
225.0924 -161.2528 811.6255 0.7377 -0.0256 -0.6747 255 224 212
140.0893 -139.8727 710.3892 -0.4073 0.0248 -0.9130 255 255 243
19.3305 -214.7554 1091.5234 0.0000 0.0000 0.0000 204 186 183
-72.4841 -232.6132 1168.2103 0.3637 -0.3451 -0.8652 238 240 242
-80.8678 -223.8597 1148.0776 -0.0249 -0.4035 -0.9146 188 190 192
-129.1941 -239.0905 1180.4069 -0.2884 -0.0945 -0.9528 209 213 214
-136.7172 -231.9401 1165.8799 -0.0360 0.0744 -0.9966 250 252 251
-266.4182 -265.9701 1284.4064 -0.2152 0.6420 -0.7359 203 205 207
-299.7401 -244.7120 1317.6606 0.3235 -0.0514 -0.9448 214 215 219
-284.6228 -213.1449 1075.7610 0.0000 0.0000 0.0000 178 182 186
-579.2507 -309.7216 1579.4518 -0.1526 -0.1682 -0.9739 229 231 232
434.4105 -142.6500 744.1530 -0.4614 0.0447 -0.8861 118 118 114
423.9440 -151.3586 766.4233 0.2058 0.2597 -0.9435 153 151 149
414.9561 -156.3807 787.8076 -0.0559 -0.5863 -0.8082 232 232 232
356.0021 -161.7970 826.5542 -0.4310 0.6084 -0.6664 165 161 167
325.3870 -164.4586 837.2516 0.0824 -0.4945 -0.8653 194 189 191
297.3250 -170.6653 867.4755 -0.1963 -0.7036 -0.6830 172 169 170
236.3953 -161.3611 823.2689 0.7282 -0.0455 -0.6839 250 246 245
147.8623 -138.5388 706.5036 0.0564 -0.0151 -0.9983 255 255 245
119.4052 -142.6020 722.7786 -0.6123 0.0199 -0.7903 255 255 238
89.0755 -145.7739 744.2127 -0.5999 0.1267 -0.7900 255 255 236
57.3313 -149.4569 762.0386 -0.6379 0.1080 -0.7625 255 255 177
30.7095 -213.3740 1144.7466 0.0000 0.0000 0.0000 255 255 222
-18.2971 -214.6822 1105.4467 -0.2317 0.1392 -0.9628 192 190 193
-174.1492 -242.0091 1201.6130 -0.5233 -0.3441 -0.7796 199 203 207
-309.7673 -261.8334 1323.8289 -0.4307 0.0960 -0.8974 239 243 244
431.5756 -149.2553 769.0904 0.4615 0.3148 -0.8294 232 232 232
367.1259 -149.7983 775.2359 -0.1606 0.2356 -0.9585 169 168 173
361.9500 -158.1918 819.3003 -0.2749 0.4556 -0.8467 160 157 160
326.5153 -158.0066 825.7686 -0.2681 -0.5794 -0.7697 165 160 162
248.2362 -161.7099 835.3545 0.7276 -0.2132 -0.6520 251 236 232
155.4854 -137.1568 710.1697 0.5861 -0.0040 -0.8102 255 255 199
126.4540 -139.8166 719.8301 -0.4882 0.0211 -0.8725 255 255 241
96.8305 -143.6929 739.0370 -0.4636 0.1775 -0.8681 255 255 236
65.9058 -149.1835 761.1360 -0.6222 0.1602 -0.7663 255 255 227
-7.4403 -224.3239 1116.2458 0.0000 0.0000 0.0000 220 220 220
-57.3796 -219.6129 1133.3619 -0.6538 0.1676 -0.7378 226 226 226
-107.6685 -218.7616 1150.9866 -0.5787 -0.4816 -0.6582 228 230 231
-233.4267 -243.8541 1265.1329 -0.3761 -0.0522 -0.9251 221 222 226
-547.7086 -295.7198 1552.0756 -0.6873 -0.1062 -0.7185 196 200 203
409.5228 -148.5211 773.0200 -0.5558 -0.2686 -0.7867 164 164 164
376.2255 -148.4068 777.8955 0.2631 -0.2746 -0.9249 180 180 182
291.6467 -158.2422 835.5349 -0.5985 0.0336 -0.8004 83 76 76
262.5995 -163.6921 851.2778 0.4992 -0.2012 -0.8428 238 149 47
180.6668 -143.1482 744.1567 0.7814 -0.0540 -0.6217 252 179 113
166.9250 -139.2199 726.9543 0.8002 -0.1258 -0.5865 255 235 221
133.1370 -137.1871 715.6785 -0.5366 0.0033 -0.8438 255 255 242
104.2412 -141.5990 737.6115 -0.5155 0.0354 -0.8561 255 255 236
73.4252 -145.9308 757.9626 -0.5297 0.0946 -0.8429 255 255 234
39.9606 -148.6594 777.9559 -0.5108 0.2049 -0.8350 255 255 164
-46.4431 -219.2299 1111.1201 -0.2721 0.2088 -0.9394 255 255 255
-97.7351 -220.8791 1140.4384 -0.1749 -0.4416 -0.8800 254 255 255
-154.1171 -227.3349 1188.7938 -0.0436 -0.0035 -0.9990 238 240 242
-225.8905 -245.6571 1264.0042 -0.4340 -0.2992 -0.8498 199 203 209
399.4907 -153.3946 792.8276 0.3771 -0.2869 -0.8806 147 146 149
365.4521 -153.7365 800.6931 -0.0915 0.0489 -0.9946 149 150 154
340.6727 -159.1193 828.9052 0.1258 -0.3668 -0.9218 226 224 225
301.8587 -157.3455 835.7081 -0.1597 -0.1836 -0.9699 132 132 132
269.9527 -160.8156 859.5313 0.3740 -0.2240 -0.9000 246 231 227
190.3463 -142.9414 757.3044 0.7886 -0.0487 -0.6130 251 202 180
112.2713 -139.8695 732.6821 -0.6769 -0.0734 -0.7325 255 255 238
80.8523 -143.0467 755.0923 -0.5620 0.0984 -0.8213 255 255 236
48.6253 -148.3351 778.8499 -0.6216 0.2210 -0.7515 255 255 255
13.8472 -149.9673 788.1699 -0.3133 0.1752 -0.9334 255 255 202
-144.9624 -228.8981 1178.6488 -0.0689 0.0731 -0.9949 242 244 243
-209.5706 -240.8483 1239.9951 -0.6340 -0.3742 -0.6767 246 250 251
-271.2035 -245.1149 1290.0664 -0.4005 -0.0202 -0.9161 190 194 195
411.6508 -144.1072 766.9451 -0.3199 0.0583 -0.9456 158 155 156
369.0960 -149.3027 793.9656 -0.5637 0.4643 -0.6831 168 167 170
280.0427 -158.8448 857.6212 0.1407 -0.2468 -0.9588 142 129 125
220.1218 -150.5720 807.6531 0.7734 -0.1456 -0.6170 250 248 246
206.1817 -147.6006 784.4634 0.7948 -0.1958 -0.5745 253 240 235
139.5649 -133.8364 709.4792 -0.4865 0.0464 -0.8724 255 255 243
56.7373 -145.5526 774.0439 -0.6583 0.1519 -0.7373 255 255 226
22.8487 -150.3425 798.4343 -0.5453 0.2475 -0.8008 255 255 218
-84.7160 -214.8139 1135.8254 0.0345 -0.2417 -0.9697 250 252 253
-259.7875 -244.8943 1283.7103 -0.5774 -0.0351 -0.8157 194 201 203
-329.0003 -250.9614 1347.1957 -0.0987 0.3372 -0.9363 191 197 200
411.1990 -138.8283 757.6516 0.0408 0.2418 -0.9695 184 184 186
390.5117 -143.7738 772.3647 0.3653 -0.3306 -0.8702 240 238 239
360.5143 -156.2009 833.8327 -0.2928 0.2525 -0.9222 213 213 215
326.4038 -157.4854 842.4678 0.1451 -0.1440 -0.9789 160 156 157
301.8136 -150.3901 836.8823 -0.0753 -0.0179 -0.9970 145 140 144
286.7131 -155.5264 847.0342 -0.4462 0.2137 -0.8690 103 99 98
146.8758 -131.8162 708.4843 -0.1320 0.0329 -0.9907 255 255 245
117.2111 -134.1905 721.4023 -0.6137 -0.0972 -0.7836 255 255 240
88.6624 -140.4361 751.7086 -0.5883 0.0829 -0.8044 255 255 237
-74.9950 -218.0954 1156.7587 -0.1934 -0.4760 -0.8579 205 204 207
-129.5056 -222.1622 1175.3978 -0.4604 -0.0605 -0.8857 209 211 211
-179.8803 -217.2018 1177.2017 -0.4402 -0.1452 -0.8861 206 211 212
-320.8773 -250.8008 1364.9104 0.5002 0.5572 -0.6628 206 207 211
-545.8052 -273.0338 1521.4648 -0.3739 -0.6951 -0.6140 198 202 205
429.5729 -141.1322 767.8870 0.4195 0.0559 -0.9060 164 165 160
406.2101 -145.0957 777.2412 0.2049 -0.1055 -0.9731 194 194 194
368.4744 -143.0754 785.3483 -0.4960 0.5336 -0.6850 154 151 157
365.4699 -152.3273 825.3354 -0.2654 0.2894 -0.9197 182 181 186
245.1208 -152.1445 830.7713 0.7545 -0.1322 -0.6428 240 198 178
228.2697 -147.7695 809.5191 0.7328 -0.1823 -0.6556 246 214 211
153.4977 -129.4349 709.5651 0.3538 0.0872 -0.9313 255 255 241
124.7745 -132.2758 720.3201 -0.5097 -0.0270 -0.8599 255 255 242
95.4673 -136.8891 742.6704 -0.5003 0.1152 -0.8581 255 255 236
64.1578 -141.1881 764.8640 -0.6533 0.1378 -0.7445 255 255 205
31.0889 -146.7798 790.9414 -0.6049 0.2179 -0.7659 255 255 168
3.4511 -152.8889 806.0920 -0.2471 0.6572 -0.7120 255 255 226
-59.1990 -208.1719 1135.2524 -0.6668 0.0114 -0.7452 167 160 160
-115.0231 -216.7594 1165.9932 -0.7361 -0.2397 -0.6330 234 236 237
-170.0849 -217.1118 1170.8364 0.1626 -0.2031 -0.9656 213 213 215
-238.3081 -233.1302 1268.0513 -0.2863 -0.3780 -0.8804 217 221 224
-381.2143 -257.8965 1397.4723 0.0376 0.8246 -0.5644 220 222 223
-568.3516 -288.3490 1539.5485 -0.3761 -0.6041 -0.7026 204 208 211
445.1791 -142.2386 778.7605 0.5673 0.0618 -0.8212 219 219 219
412.9692 -142.5314 777.1697 -0.3798 0.1198 -0.9173 215 215 217
378.5578 -142.1580 786.0610 0.2157 -0.0389 -0.9757 141 140 145
296.5415 -154.0041 842.4875 -0.6276 0.1136 -0.7702 151 146 148
259.9767 -154.3266 848.0850 0.6547 -0.0648 -0.7531 249 216 209
177.1836 -133.5834 736.7107 0.7781 -0.2169 -0.5895 255 243 239
164.5274 -130.8030 717.9700 0.6864 -0.0915 -0.7215 255 209 177
132.1588 -130.3892 718.3841 -0.5409 0.0179 -0.8409 255 255 243
103.0283 -134.3850 740.0790 -0.5597 0.1313 -0.8183 255 255 238
71.8191 -138.2716 759.6924 -0.5740 0.0384 -0.8180 255 255 236
38.9256 -143.4366 786.2798 -0.5068 0.2066 -0.8370 255 255 207
-5.1690 -141.2216 768.7981 0.0000 0.0000 0.0000 255 255 214
-98.0295 -204.7145 1141.7173 -0.2096 -0.3965 -0.8938 255 255 255
-157.9123 -216.5169 1178.0035 0.0714 0.0544 -0.9960 208 210 212
-225.9939 -230.6962 1261.5719 -0.4559 -0.4224 -0.7834 209 211 213
-288.2533 -233.5309 1286.5308 -0.5539 -0.1416 -0.8205 209 213 214
415.1985 -138.2390 769.7858 -0.5000 0.1537 -0.8523 119 118 123
373.4714 -149.9518 821.8436 -0.4887 0.0893 -0.8679 196 193 196
306.9648 -152.9225 841.8770 -0.1250 0.2708 -0.9545 160 152 157
271.1194 -153.8365 854.5093 0.3609 0.1826 -0.9146 232 206 197
188.0866 -134.3915 750.4828 0.7934 -0.1726 -0.5838 255 215 194
46.9163 -140.4659 781.4109 -0.5942 0.1407 -0.7919 255 255 255
12.0235 -145.7587 808.0981 -0.4482 0.5350 -0.7161 255 255 222
-207.9932 -221.1915 1229.8746 -0.6926 -0.2720 -0.6681 255 255 255
-277.7165 -233.0367 1290.7996 -0.5163 -0.1258 -0.8471 194 198 201
-510.1334 -260.9202 1473.7001 0.0119 -0.8321 -0.5546 176 182 184
366.7234 -131.4447 767.4180 0.1162 -0.1272 -0.9850 211 211 211
370.3149 -142.2556 800.1789 -0.0000 0.3714 -0.9285 161 160 165
281.0613 -152.0421 857.9562 0.1663 0.2929 -0.9416 133 115 114
201.7671 -137.2302 770.4977 0.7855 -0.2292 -0.5749 245 161 89
137.8269 -126.2639 710.2444 -0.4609 0.0627 -0.8852 255 255 245
109.2349 -130.4344 733.3043 -0.7044 0.0377 -0.7088 255 255 241
78.5917 -134.1435 754.5818 -0.5621 -0.0368 -0.8262 255 255 236
55.6429 -139.1362 775.6653 -0.6526 0.1018 -0.7508 255 255 242
20.6622 -141.7346 799.7285 -0.6106 0.2957 -0.7346 255 255 225
-89.9822 -206.9441 1143.7998 0.1844 -0.3674 -0.9116 201 198 199
-145.1117 -211.7266 1179.1592 -0.2377 0.1376 -0.9615 202 204 206
-329.4444 -235.5017 1342.4459 0.6475 -0.0805 -0.7578 212 216 219
-564.2903 -259.5967 1521.4648 0.2316 -0.5919 -0.7720 192 196 200
416.5511 -133.6969 763.1125 -0.1596 0.2135 -0.9638 116 118 120
412.2378 -140.0210 787.5937 0.3811 0.4952 -0.7807 244 244 244
386.8985 -134.8483 768.9224 0.4325 0.2672 -0.8611 186 183 184
355.9818 -146.1676 831.9484 -0.0411 -0.3426 -0.9386 164 164 166
320.8641 -146.5989 842.2000 0.2109 0.2871 -0.9344 188 185 186
302.8187 -143.4485 834.9500 0.0948 0.3502 -0.9318 112 104 109
291.2083 -150.5990 861.7644 -0.0610 0.4864 -0.8716 189 185 184
228.3468 -140.9173 808.2036 0.7312 -0.1866 -0.6561 243 208 200
215.9260 -140.0437 791.9272 0.7495 -0.2532 -0.6117 238 160 106
145.7546 -125.0062 709.6362 -0.1774 0.0812 -0.9808 255 255 245
116.1146 -127.5546 724.8873 -0.6840 0.0345 -0.7286 255 255 241
86.9845 -132.8048 750.0301 -0.5400 -0.0506 -0.8402 255 255 236
-132.6408 -209.0211 1197.3669 -0.0525 0.6102 -0.7905 239 242 241
-188.5622 -211.8531 1204.5132 -0.4772 0.5339 -0.6980 195 197 201
-250.9104 -218.8070 1251.1215 -0.3356 -0.5699 -0.7501 213 218 219
-324.3914 -238.6742 1371.2822 0.5009 0.3293 -0.8004 223 227 230
-547.9073 -254.8992 1492.0107 0.1608 -0.4263 -0.8902 205 210 210
417.7707 -129.2888 764.3760 0.0986 0.0239 -0.9948 228 228 228
376.2606 -139.1857 799.1185 -0.2687 0.6072 -0.7478 168 165 168
364.8015 -144.0683 831.3442 -0.0611 -0.2729 -0.9601 216 213 216
334.2769 -146.9363 845.3156 -0.1312 -0.0872 -0.9875 125 121 122
296.2516 -146.1281 851.1772 -0.4183 0.3610 -0.8335 134 125 128
240.1521 -141.3122 821.1190 0.7391 -0.1525 -0.6561 255 170 91
152.2280 -122.2760 707.9846 0.2189 -0.0545 -0.9742 255 255 250
123.2466 -124.8619 721.2248 -0.5389 0.0533 -0.8407 255 255 241
94.1120 -129.8284 745.5579 -0.4797 -0.0477 -0.8762 255 255 238
62.6017 -133.7222 767.2332 -0.6701 0.0694 -0.7390 255 255 189
29.0479 -138.7224 791.5358 -0.6551 0.1057 -0.7481 255 255 218
-6.8813 -139.7879 807.9470 -0.3700 0.6263 -0.6862 255 255 224
-36.5263 -147.8777 849.3433 -0.2099 -0.4575 -0.8641 255 255 203
-239.6758 -217.5425 1251.6967 -0.2344 -0.4716 -0.8501 225 227 229
-317.8007 -242.0130 1358.3090 0.4329 0.3491 -0.8311 195 198 204
-387.3104 -245.5158 1424.8511 0.0376 0.8246 -0.5644 211 213 217
408.0771 -133.1110 779.1541 -0.1970 0.3113 -0.9297 184 182 185
380.8752 -135.6404 796.6939 -0.0684 0.4419 -0.8945 170 168 171
254.6288 -143.2880 836.1536 0.7326 -0.1353 -0.6671 252 209 192
160.3259 -121.0473 712.4070 0.5307 -0.0661 -0.8450 255 255 162
130.1166 -122.1765 716.2329 -0.4965 0.0833 -0.8640 255 255 243
101.1161 -126.6254 741.8491 -0.5657 0.0157 -0.8245 255 255 241
70.5528 -131.3835 762.7792 -0.6367 0.1023 -0.7643 255 255 236
37.3681 -136.3717 790.0671 -0.4967 0.0474 -0.8667 255 255 255
1.6406 -140.6270 815.2300 -0.5360 0.4540 -0.7118 255 255 225
-225.7807 -213.9754 1254.7056 -0.3389 -0.3769 -0.8620 255 255 255
-537.7709 -258.2991 1508.1836 -0.4848 -0.2388 -0.8414 247 251 252
418.2591 -131.9636 780.3548 0.2131 -0.0516 -0.9757 174 171 172
370.9401 -140.8243 825.6448 -0.2010 -0.2026 -0.9584 189 186 189
325.8197 -135.9212 815.9826 -0.0398 0.2621 -0.9642 169 167 168
301.4572 -141.9131 837.7007 -0.2272 0.3664 -0.9023 130 120 123
269.4168 -144.8059 854.5279 0.5540 0.1355 -0.8214 244 186 137
171.1830 -122.2589 723.9168 0.7808 -0.1325 -0.6105 255 172 84
109.6508 -125.3646 739.0795 -0.6476 0.0452 -0.7607 255 255 243
45.3632 -133.7806 785.8187 -0.5945 0.0258 -0.8037 255 255 255
10.1544 -137.9257 814.0612 -0.5295 0.4193 -0.7374 255 255 227
-27.0814 -145.4154 845.3268 -0.2948 -0.3078 -0.9046 255 255 220
-151.2475 -203.9383 1237.2566 -0.3517 -0.7433 -0.5691 227 227 227
-162.7649 -203.3737 1203.3933 -0.1359 0.8807 -0.4538 219 218 223
-286.0844 -223.4066 1308.6860 0.3330 0.6416 -0.6910 198 202 205
-336.5005 -218.4603 1308.6813 0.5698 -0.5841 -0.5780 229 231 232
436.3129 -126.6915 758.5367 -0.2741 -0.6246 -0.7313 223 223 223
375.5668 -127.9571 776.3648 0.1156 -0.0876 -0.9894 153 151 151
378.2491 -138.1485 814.7036 -0.3503 0.1757 -0.9200 222 219 222
308.9247 -139.1345 840.8821 0.2105 0.4693 -0.8576 127 122 123
196.3643 -126.5589 761.4422 0.7909 -0.1507 -0.5931 255 168 88
182.9207 -123.9269 738.1704 0.7855 -0.1767 -0.5931 250 161 68
136.9190 -119.5682 713.1833 -0.4148 0.1235 -0.9015 255 255 245
76.9769 -126.5679 753.8320 -0.5997 0.0836 -0.7958 255 255 236
18.7941 -135.6991 811.6683 -0.6618 0.2920 -0.6905 255 255 227
-201.6091 -198.2302 1216.0630 -0.6838 0.2302 -0.6924 245 249 250
-340.8617 -227.3878 1330.6908 0.6421 -0.4837 -0.5947 183 187 190
-548.6003 -273.0424 1539.6898 0.1662 -0.8614 -0.4800 238 240 242
-531.6401 -258.8897 1548.7780 0.0826 -0.0527 -0.9952 214 215 219
-572.5710 -244.6525 1487.2241 -0.4635 0.1060 -0.8797 225 227 231
420.1900 -127.7765 769.8455 -0.3527 0.2530 -0.9009 102 102 102
414.9598 -133.3697 794.8979 0.4260 0.2845 -0.8588 190 188 189
387.4209 -127.6999 776.0270 0.4009 0.1992 -0.8942 243 243 243
352.4980 -136.5448 827.3328 0.0478 -0.4878 -0.8717 204 202 203
327.2341 -130.6257 820.8015 -0.0573 0.2553 -0.9652 143 143 143
323.2511 -139.9678 849.4695 0.1611 0.2986 -0.9407 125 115 119
296.4395 -145.8074 875.7003 0.1733 0.5442 -0.8209 125 116 117
207.3341 -126.4957 772.9656 0.7655 -0.1133 -0.6334 241 149 59
143.2860 -116.7362 711.1484 -0.3068 0.1862 -0.9334 255 255 247
114.6252 -119.6848 727.4932 -0.6645 0.0676 -0.7443 255 255 242
85.1701 -124.5305 748.6771 -0.5636 0.0349 -0.8253 255 255 236
53.4808 -129.6995 776.2200 -0.6416 0.0115 -0.7670 255 255 255
-9.0568 -136.6695 828.3906 -0.5971 0.2741 -0.7539 255 255 227
-17.6671 -142.8918 835.7288 -0.4657 -0.0071 -0.8849 255 255 225
-47.7632 -139.7419 847.8973 -0.5722 -0.1222 -0.8110 255 255 218
-194.1719 -201.2309 1212.1415 -0.3203 0.3179 -0.8924 219 224 224
-256.1589 -207.0921 1255.9258 -0.4869 -0.1123 -0.8662 211 215 216
-327.3839 -224.2352 1362.3646 0.5419 0.2524 -0.8016 195 199 202
-582.4672 -252.7722 1513.6250 0.0000 0.0000 0.0000 215 217 221
421.1171 -123.2990 765.1644 -0.1443 -0.0814 -0.9862 130 130 132
424.2162 -131.6534 802.1838 0.0276 0.0829 -0.9962 207 208 205
392.5016 -132.7803 805.7266 -0.4001 0.5028 -0.7662 126 126 126
375.9332 -131.4805 806.6321 -0.3931 0.5481 -0.7382 135 133 134
301.6005 -141.2241 869.5001 -0.2677 0.5104 -0.8172 195 191 190
220.2416 -128.1566 796.2007 0.7910 -0.1283 -0.5981 247 205 196
151.3873 -115.7081 709.3193 -0.1821 0.0458 -0.9822 255 255 248
122.1161 -117.9255 723.5293 -0.6164 0.1190 -0.7784 255 255 243
92.4205 -121.8186 745.3539 -0.5093 -0.0391 -0.8597 255 255 241
60.8223 -126.0591 769.6711 -0.6088 0.0991 -0.7871 255 255 241
27.4339 -130.4211 792.1935 -0.6814 0.2169 -0.6990 255 255 170
-38.3713 -137.3684 842.1922 -0.3662 -0.2202 -0.9041 255 255 220
-79.2865 -142.8873 867.6330 -0.6847 0.3478 -0.6405 255 255 214
-183.8948 -200.6083 1230.9650 -0.0085 0.2788 -0.9603 207 212 213
-324.8098 -230.5371 1393.9829 -0.0252 0.5389 -0.8420 206 207 211
-470.4868 -238.7495 1587.0039 0.0000 0.0000 0.0000 215 217 219
-520.8546 -226.2629 1453.4635 -0.4070 0.1472 -0.9015 197 201 202
434.8358 -117.2701 735.5076 -0.0497 0.3330 -0.9416 176 174 173
435.5716 -123.7160 759.4907 -0.1997 -0.3487 -0.9157 234 234 234
349.9761 -129.3005 825.7759 0.1117 -0.5033 -0.8569 156 150 155
326.3319 -134.8695 841.7147 -0.3292 -0.0248 -0.9439 89 86 89
236.5505 -131.4760 814.1665 0.7442 -0.0901 -0.6618 255 191 157
99.7511 -119.1011 741.5005 -0.5617 -0.0687 -0.8245 255 255 241
68.5877 -122.8911 764.8972 -0.6095 0.2322 -0.7580 255 255 203
35.1013 -127.1191 788.9590 -0.5970 0.1857 -0.7805 255 255 191
-0.3470 -134.3110 827.1138 -0.5744 0.3517 -0.7391 255 255 226
-177.1863 -204.3470 1255.1814 0.0955 -0.2869 -0.9532 200 202 203
-236.9377 -208.8004 1262.0674 -0.1890 -0.1455 -0.9711 249 254 255
-325.9112 -240.4143 1345.5693 0.7776 0.5732 -0.2584 209 213 216
-521.1334 -230.1271 1453.4639 0.1059 -0.6124 -0.7834 244 248 249
441.9330 -121.2732 750.2902 -0.2693 -0.5431 -0.7953 154 154 152
421.6830 -125.6503 788.1326 0.1437 0.2275 -0.9631 179 176 179
368.4850 -131.8101 827.8316 -0.2182 -0.3483 -0.9116 248 248 248
333.6465 -132.0828 830.6076 -0.3966 -0.1996 -0.8960 162 162 162
299.5522 -133.0111 852.4756 -0.1248 0.4006 -0.9077 134 129 128
266.6479 -135.3024 850.4319 0.7626 -0.0163 -0.6467 245 154 68
249.4285 -132.2412 831.5659 0.7798 -0.0796 -0.6210 237 149 70
169.1203 -114.2299 721.7879 0.7516 -0.1072 -0.6509 241 167 76
157.1623 -112.6469 706.1141 0.2811 -0.0037 -0.9597 255 255 220
128.6607 -114.8215 716.9149 -0.5287 0.1201 -0.8403 255 255 245
43.4092 -124.1486 784.1651 -0.6511 0.1248 -0.7487 255 255 255
8.4016 -129.5998 814.3252 -0.5687 0.2515 -0.7832 255 255 227
-28.9969 -134.9387 840.5476 -0.3338 -0.1595 -0.9291 255 255 222
-68.1126 -136.2105 855.1714 -0.4672 0.3650 -0.8053 255 255 220
-525.8204 -234.5357 1524.1832 -0.3077 -0.1873 -0.9329 241 246 246
377.7737 -121.5671 785.0848 0.1599 -0.0170 -0.9870 165 160 164
371.1594 -127.3457 815.6311 -0.3172 -0.2883 -0.9035 189 189 189
338.8710 -128.4657 822.5285 -0.2438 -0.0988 -0.9648 155 152 156
314.2429 -134.0506 858.3498 0.1494 0.3408 -0.9282 157 152 156
282.0944 -137.2610 878.6474 0.6844 0.0926 -0.7232 241 175 129
179.6978 -114.8476 734.3162 0.7830 -0.0323 -0.6212 249 163 76
136.1068 -112.9257 715.7946 -0.3468 0.1804 -0.9204 255 255 245
106.1208 -115.5002 735.4356 -0.5638 -0.0119 -0.8258 255 255 245
75.5055 -119.2931 757.5092 -0.5921 0.3660 -0.7180 255 255 236
17.1912 -128.0658 812.8477 -0.6733 0.1572 -0.7224 255 255 227
-19.6530 -132.4557 836.5845 -0.3811 0.0198 -0.9243 255 255 225
-59.6916 -135.8284 865.7813 -0.4761 0.3193 -0.8194 255 255 222
-210.7548 -191.7575 1234.6600 -0.6931 0.2423 -0.6789 178 182 186
-501.2696 -225.8414 1502.7401 -0.2495 -0.5410 -0.8032 218 222 225
-574.9473 -229.4840 1495.5669 -0.6005 0.1659 -0.7822 224 228 231
437.9072 -115.4652 748.5676 -0.2165 -0.5278 -0.8213 146 143 146
420.5489 -120.4475 774.8811 -0.6476 0.4168 -0.6379 165 166 163
410.7999 -123.9854 794.5942 0.2959 -0.0977 -0.9502 242 242 242
386.1781 -119.7743 782.8167 0.2480 0.1133 -0.9621 118 113 119
382.3830 -126.3681 817.3604 -0.1095 0.0533 -0.9926 187 187 187
326.6791 -133.6590 858.4839 -0.1264 0.0566 -0.9904 166 161 163
299.2653 -139.3542 895.1193 -0.2098 -0.0844 -0.9741 186 176 177
191.2984 -115.9581 749.4830 0.7926 -0.1030 -0.6009 255 219 203
142.7531 -110.1876 714.3558 -0.3269 0.1670 -0.9302 255 255 248
113.5253 -113.3351 732.7188 -0.5970 0.1026 -0.7956 255 255 245
83.3794 -116.8531 752.0312 -0.5768 0.4062 -0.7087 255 255 238
51.3432 -121.0925 777.0413 -0.6627 0.0847 -0.7440 255 255 209
-11.1623 -129.1589 833.7692 -0.4848 0.0498 -0.8732 255 255 227
-49.4906 -129.3246 857.4395 -0.6473 0.1075 -0.7546 255 255 222
-91.6489 -137.2209 885.2317 -0.5651 0.3218 -0.7597 255 255 236
-199.9874 -191.6129 1238.4644 -0.5249 0.1462 -0.8385 221 226 227
-257.8846 -194.3300 1264.2412 -0.5384 -0.0666 -0.8400 233 237 240
-334.1041 -211.5498 1372.4816 0.1327 -0.1904 -0.9727 170 174 179
-329.7223 -202.4089 1317.3226 0.9168 -0.3277 -0.2283 191 195 198
-571.4611 -230.9179 1499.1337 -0.0544 0.0040 -0.9985 232 236 237
343.2031 -124.4563 820.3013 -0.0509 -0.2888 -0.9561 139 137 137
329.2057 -128.3750 846.5617 -0.3604 0.1707 -0.9170 177 175 176
300.5693 -132.5717 874.9572 -0.2221 -0.4385 -0.8709 181 172 171
220.4898 -121.4387 797.8118 0.8206 -0.1443 -0.5530 254 236 233
202.4717 -116.4631 773.1292 0.7833 -0.1247 -0.6090 249 163 76
150.2891 -108.6692 712.6292 -0.3412 0.0386 -0.9392 255 255 247
120.6706 -110.6875 725.1187 -0.6274 0.2391 -0.7411 255 255 245
90.6728 -113.6925 746.9531 -0.6298 0.2433 -0.7376 255 255 239
59.1423 -118.3507 771.7537 -0.5628 0.1969 -0.8028 255 255 255
25.5203 -123.7740 804.4783 -0.7010 0.1752 -0.6913 255 255 172
-2.5551 -129.0130 832.4348 -0.6471 0.1175 -0.7533 255 255 227
-40.1711 -126.9783 842.6955 -0.5240 0.0022 -0.8517 255 255 222
-81.1753 -132.9158 872.4221 -0.6885 0.3187 -0.6514 255 255 234
-184.8696 -185.7136 1231.9380 -0.1593 -0.0550 -0.9857 206 208 209
-332.8611 -218.1783 1374.5792 -0.1638 -0.1483 -0.9753 213 214 218
-456.7278 -208.9244 1481.3867 0.3562 -0.8028 -0.4781 199 201 202
-583.3802 -240.3045 1513.9780 0.0676 -0.1812 -0.9811 204 206 208
435.1165 -110.2948 738.4126 -0.0825 0.5132 -0.8543 131 126 130
428.3199 -113.8463 759.8330 -0.3870 -0.5471 -0.7423 187 187 187
413.7130 -120.0183 797.3538 0.2672 -0.1283 -0.9551 201 198 201
385.6089 -122.2320 806.7175 -0.1270 0.0561 -0.9903 192 187 189
347.5558 -120.6587 819.5145 0.0223 -0.5028 -0.8641 205 205 205
231.3698 -120.8477 809.0263 0.7387 -0.1011 -0.6664 244 184 157
97.7587 -110.9685 741.4147 -0.6476 0.0985 -0.7555 255 255 243
67.2833 -116.2193 770.2870 -0.4782 0.3343 -0.8121 255 255 181
33.6703 -120.1033 795.2546 -0.6240 0.3095 -0.7175 255 255 255
-429.3921 -199.9782 1486.7284 0.0000 0.0000 0.0000 182 186 191
-589.5225 -247.4358 1518.3129 0.0861 0.1300 -0.9878 238 240 242
450.5525 -110.9551 742.0386 0.2815 0.3666 -0.8868 206 204 207
420.7812 -117.6813 793.7148 -0.0596 -0.2485 -0.9668 201 201 201
369.5182 -124.3772 825.6999 0.0224 -0.5329 -0.8459 192 190 193
330.1023 -122.6389 837.6135 -0.6205 0.2597 -0.7399 161 158 161
326.0159 -131.7070 865.6465 -0.3285 -0.4675 -0.8207 173 173 173
305.2487 -128.1726 868.0978 -0.2584 -0.4943 -0.8300 157 150 155
247.3256 -123.2739 825.4853 0.7650 -0.0999 -0.6362 246 160 82
154.8721 -104.5369 706.0273 -0.0205 0.0271 -0.9994 255 255 245
126.8754 -107.0634 718.9445 -0.5981 0.2228 -0.7699 255 255 247
74.7657 -113.1087 765.1379 -0.4978 0.4924 -0.7140 255 255 243
42.0561 -117.9573 789.0934 -0.6527 0.2594 -0.7118 255 255 255
6.4419 -121.9771 819.8069 -0.6641 0.0773 -0.7437 255 255 229
-30.8696 -124.5833 841.1605 -0.3524 0.0712 -0.9331 255 255 225
-71.6825 -130.2305 870.8682 -0.5447 0.3292 -0.7713 255 255 227
-169.1226 -177.7453 1203.1367 -0.5609 -0.0226 -0.8276 219 218 221
-362.5667 -201.4332 1354.6221 0.2656 -0.4732 -0.8400 224 228 231
-429.5680 -202.3338 1421.4935 0.0129 0.8217 -0.5698 216 218 220
428.5729 -109.5103 741.9539 -0.2589 -0.0285 -0.9655 173 173 173
371.6906 -119.6419 820.8676 0.1437 -0.3940 -0.9078 215 215 215
340.0932 -121.1306 829.1489 -0.5788 0.1448 -0.8025 197 197 197
274.8358 -124.9874 862.3599 0.6899 -0.1712 -0.7034 255 216 194
258.3179 -122.7223 844.2249 0.7827 -0.0854 -0.6165 252 204 179
177.8667 -107.0586 733.0041 0.8024 -0.0334 -0.5959 249 214 203
164.0123 -103.9738 711.7014 0.6307 -0.0445 -0.7747 255 211 109
134.1266 -105.1070 716.2049 -0.3821 0.2500 -0.8896 255 255 247
105.2406 -108.8065 737.3608 -0.5315 0.0344 -0.8463 255 255 245
15.1296 -118.6434 812.7897 -0.6162 0.0387 -0.7867 255 255 235
-21.5986 -122.1423 836.0463 -0.2431 0.0819 -0.9665 255 255 227
-62.1525 -127.3151 867.9952 -0.4995 0.3085 -0.8096 255 255 225
-103.8351 -130.8246 891.2303 -0.5608 0.1582 -0.8127 255 255 231
-218.7283 -183.3857 1247.2737 -0.3780 -0.0466 -0.9246 202 206 209
-284.6768 -189.3761 1306.3857 -0.7633 0.0941 -0.6392 210 212 214
-361.3537 -206.3769 1356.1464 0.4649 -0.0073 -0.8853 184 188 193
-508.1270 -213.6666 1493.9794 -0.5168 -0.4596 -0.7223 226 230 233
-591.8933 -220.5106 1503.7025 -0.7279 -0.0467 -0.6841 205 209 212
439.8895 -108.7911 752.0801 -0.0930 -0.1734 -0.9805 99 97 98
388.1561 -112.9911 788.3740 -0.1132 -0.0736 -0.9908 212 212 212
319.7095 -122.1146 847.9241 0.0710 -0.0218 -0.9972 191 189 190
294.7737 -128.5238 881.1875 0.1679 -0.5632 -0.8091 161 147 147
189.0270 -107.7711 747.1179 0.7665 -0.0398 -0.6410 252 216 200
142.3810 -104.0940 718.1651 -0.3389 0.1543 -0.9281 255 255 247
112.1786 -105.9658 734.1001 -0.5115 0.1250 -0.8501 255 255 244
82.8971 -110.9173 762.0003 -0.5744 0.5411 -0.6142 255 255 238
50.0800 -114.0760 783.3650 -0.7011 0.2088 -0.6818 255 255 255
-13.5118 -120.7197 837.7266 -0.4822 0.0454 -0.8749 255 255 227
-52.8763 -124.9228 864.6243 -0.6398 0.2341 -0.7320 255 255 227
-94.8377 -129.6152 893.0325 -0.5949 0.1365 -0.7921 255 255 228
-203.6977 -178.5589 1241.7844 -0.5941 0.1738 -0.7854 177 181 184
-339.6594 -198.9321 1363.0059 -0.1233 -0.5589 -0.8200 192 197 198
-408.1873 -195.4357 1373.6479 -0.3208 0.5163 -0.7941 245 247 249
-487.8765 -207.8498 1456.3779 -0.0995 0.7061 -0.7011 200 201 205
-565.0936 -211.7563 1487.0259 -0.6497 -0.0969 -0.7540 216 219 225
476.1156 -106.1758 742.4308 -0.4263 -0.6963 -0.5774 133 132 135
392.5528 -109.7644 782.4351 0.2832 0.0763 -0.9560 145 145 145
392.2177 -116.8038 819.1824 -0.1433 0.1315 -0.9809 212 212 212
366.7669 -112.3642 810.7661 -0.0465 -0.2061 -0.9774 179 179 181
337.8550 -114.4239 813.6804 -0.4506 0.0606 -0.8907 152 149 152
297.3292 -123.0278 862.2624 -0.3245 -0.6449 -0.6920 163 156 158
214.6240 -110.0324 779.9800 0.7965 -0.1374 -0.5888 243 196 162
200.9619 -108.6257 763.7470 0.7910 -0.1183 -0.6003 255 181 112
148.5006 -101.0016 712.8630 -0.5287 0.0646 -0.8464 255 255 248
119.9541 -104.2137 733.3899 -0.5875 0.1629 -0.7926 255 255 247
90.5476 -108.3191 757.9478 -0.7166 0.3993 -0.5719 255 255 233
57.5422 -110.0206 773.3225 -0.5654 0.1341 -0.8138 255 255 255
23.8386 -116.4117 806.6284 -0.6627 0.0587 -0.7466 255 255 255
-84.5655 -125.7304 884.4395 -0.6289 0.1145 -0.7690 255 255 227
-187.4710 -172.4305 1228.1323 -0.5155 -0.1518 -0.8433 206 208 209
-246.9493 -175.9231 1257.3210 -0.7235 -0.0355 -0.6894 254 255 255
436.1127 -103.4559 741.3174 -0.0323 0.5596 -0.8281 171 171 171
407.7491 -110.2795 786.9702 0.3983 -0.2658 -0.8779 243 243 243
340.7330 -110.1223 809.9042 -0.4373 0.0317 -0.8987 153 148 152
324.0307 -117.9914 841.9338 -0.2476 0.2012 -0.9477 162 159 163
229.8873 -112.5672 803.7394 0.7695 -0.1391 -0.6233 255 234 226
65.5083 -108.2152 774.3481 -0.4863 0.0867 -0.8695 255 255 194
31.8041 -112.5207 799.3538 -0.6024 0.1511 -0.7838 255 255 255
-4.4517 -116.8925 830.7274 -0.6569 0.0442 -0.7527 255 255 251
-42.9589 -120.1947 849.7031 -0.6584 0.2058 -0.7240 255 255 227
-119.1620 -128.8875 905.6941 -0.5056 0.2922 -0.8117 239 239 239
-176.4639 -171.2830 1229.8013 -0.5613 -0.2302 -0.7950 230 232 234
-301.5113 -179.6867 1323.1542 -0.5418 -0.0362 -0.8397 202 206 207
420.7611 -109.9338 793.1411 0.0253 -0.3354 -0.9417 191 189 188
390.7834 -111.1737 804.0935 -0.0160 -0.0664 -0.9977 177 177 177
359.6020 -112.3306 813.5913 0.0698 -0.3284 -0.9419 104 103 106
338.4803 -118.4823 847.3328 -0.4198 0.3049 -0.8549 219 219 219
244.5012 -114.1195 822.0684 0.7573 -0.0685 -0.6495 236 148 68
154.4654 -97.8752 707.2657 -0.2064 0.0084 -0.9784 255 255 245
126.5436 -101.1213 725.5939 -0.6032 0.1816 -0.7766 255 255 248
96.0316 -103.1673 743.1489 -0.7178 0.2502 -0.6498 255 255 239
74.1518 -107.1513 773.9711 -0.3578 0.1572 -0.9205 255 255 236
40.1563 -110.2675 797.7012 -0.6001 0.2128 -0.7711 255 255 255
4.6919 -113.7353 820.5894 -0.6724 -0.0196 -0.7399 255 255 255
-33.1112 -116.0072 841.0386 -0.3773 0.3472 -0.8585 255 255 229
-74.4916 -122.3140 873.9920 -0.5300 0.1455 -0.8354 255 255 227
-231.1903 -178.0582 1295.3191 -0.4145 0.7582 -0.5032 206 211 212
-297.6832 -182.7908 1321.4554 -0.5513 0.0549 -0.8325 214 216 217
-372.4340 -189.0526 1321.2321 0.5037 -0.7611 -0.4087 207 212 213
-545.3056 -208.3480 1510.7806 -0.1832 0.2966 -0.9373 255 255 255
-659.7387 -223.4732 1597.3978 -0.3432 0.7070 -0.6184 216 220 221
-594.4189 -196.5362 1586.4902 0.0000 0.0000 0.0000 237 239 241
394.4532 -107.5689 792.0457 -0.2616 -0.3248 -0.9089 176 175 178
340.5264 -113.3306 831.1362 -0.4755 0.1833 -0.8604 168 165 168
306.9300 -114.3876 847.8870 -0.1206 -0.3961 -0.9103 194 191 192
285.8638 -110.5508 848.8609 -0.3234 -0.3474 -0.8802 153 141 145
274.9210 -116.8459 862.5232 0.6513 -0.0287 -0.7583 255 194 142
254.1961 -112.6513 833.9875 0.7720 -0.0764 -0.6310 252 182 139
174.1713 -97.8793 725.5068 0.8269 -0.0449 -0.5606 255 247 244
162.0408 -96.4515 707.6136 0.3700 0.0687 -0.9265 255 255 121
132.3502 -97.4439 717.0527 -0.4191 0.2115 -0.8829 255 255 250
103.3400 -100.7630 740.0580 -0.6132 0.1377 -0.7779 255 255 245
13.3001 -111.6785 816.4075 -0.6450 0.0229 -0.7638 255 255 255
-24.5907 -115.1929 842.6919 -0.2847 0.2586 -0.9231 255 255 229
-64.3639 -118.4350 868.9380 -0.4895 0.1301 -0.8622 255 255 227
-107.0840 -122.1384 895.7115 -0.5132 0.2257 -0.8281 255 255 227
-446.4381 -198.5049 1382.1432 -0.2187 0.6717 -0.7078 204 206 208
-504.9288 -195.9148 1510.9644 0.0000 0.0000 0.0000 189 193 196
-593.8447 -203.6169 1528.5537 -0.6254 -0.2137 -0.7504 246 250 253
469.7541 -101.0351 742.4310 -0.1159 -0.2938 -0.9488 229 229 229
444.9347 -102.8946 757.3904 0.0347 0.7836 -0.6203 171 171 171
377.8111 -108.7403 813.7755 0.3543 0.0230 -0.9348 243 243 243
357.7246 -106.3995 811.4831 0.1603 -0.4048 -0.9003 165 165 167
317.4709 -113.0562 850.5268 0.0796 -0.2719 -0.9590 158 151 156
285.9027 -115.7260 862.0921 0.2052 -0.2352 -0.9500 97 87 93
185.9173 -98.8928 742.5457 0.7671 -0.0171 -0.6413 253 167 91
140.1214 -96.0467 718.9066 -0.3572 0.1974 -0.9129 255 255 250
110.4030 -98.2086 734.1024 -0.4445 0.0645 -0.8934 255 255 245
81.0714 -103.6186 771.8801 -0.2679 0.2229 -0.9373 255 255 241
48.3427 -106.6799 786.0399 -0.7044 0.2328 -0.6706 255 255 255
-15.7338 -113.5153 842.5257 -0.5114 0.1254 -0.8502 255 255 255
-54.5927 -115.1447 863.3809 -0.6208 0.1311 -0.7729 255 255 227
-96.7316 -119.3476 891.8050 -0.5951 0.1260 -0.7937 255 255 227
-214.6978 -172.5078 1264.1073 -0.6388 -0.1106 -0.7613 209 213 214
-277.6559 -175.6030 1298.0957 -0.6702 0.1877 -0.7180 196 198 202
-340.8822 -176.8668 1335.4945 0.0061 -0.3337 -0.9427 177 181 184
389.5224 -101.2113 779.5034 -0.1222 -0.1997 -0.9722 177 175 178
390.5511 -108.1883 821.2959 0.0939 0.1860 -0.9781 179 179 179
339.9518 -107.4956 820.3306 -0.4453 0.2227 -0.8672 131 128 129
331.4000 -113.1519 852.7236 0.0071 -0.1986 -0.9801 235 236 233
196.5898 -98.9561 754.1865 0.7750 -0.0355 -0.6310 255 224 214
147.2912 -93.8218 715.0642 -0.5546 0.0793 -0.8283 255 255 250
118.2127 -96.5218 733.2004 -0.5316 0.0482 -0.8456 255 255 248
89.8521 -101.6936 768.2478 -0.2430 0.3055 -0.9207 255 255 240
55.8870 -102.9611 777.7491 -0.6438 0.0960 -0.7591 255 255 255
21.6558 -106.9224 806.3289 -0.6107 0.0328 -0.7912 255 255 255
-86.0135 -115.1874 882.9268 -0.6262 0.1013 -0.7730 255 255 227
-246.2815 -160.4028 1238.2640 -0.7481 0.1868 -0.6367 201 205 208
-400.0624 -179.7477 1375.9926 -0.4315 0.5463 -0.7179 224 228 231
-466.8648 -181.2458 1383.9791 -0.3709 0.3301 -0.8680 222 224 228
-426.9057 -159.5787 1337.7551 0.0000 0.0000 0.0000 196 200 203
452.2152 -92.4935 737.2141 -0.2064 -0.6508 -0.7307 242 242 242
405.5321 -96.2593 754.4257 -0.0464 0.3751 -0.9258 147 146 149
406.2913 -102.1135 787.2864 0.3717 -0.1513 -0.9159 182 180 180
350.7014 -106.3431 816.9177 -0.2865 0.2442 -0.9265 152 152 155
340.9162 -111.1155 853.5240 -0.0444 0.1112 -0.9928 167 164 165
285.9990 -109.1156 850.6177 -0.4028 -0.3219 -0.8568 112 96 101
223.5482 -101.8657 791.5740 0.8301 -0.0921 -0.5500 245 198 175
209.5936 -100.0778 772.9077 0.7900 -0.0909 -0.6064 246 200 172
95.3801 -96.6031 749.5894 -0.7657 0.4174 -0.4894 255 255 243
63.9681 -100.6443 775.9788 -0.5448 -0.0610 -0.8363 255 255 255
30.0273 -104.0695 800.1121 -0.5208 0.0914 -0.8488 255 255 255
-6.5738 -108.7794 831.5974 -0.6557 0.0165 -0.7548 255 255 255
-45.0393 -111.5994 853.7114 -0.6655 0.2193 -0.7135 255 255 227
-189.8883 -158.3547 1224.2112 -0.5716 -0.2337 -0.7866 255 255 255
-317.7796 -174.5648 1323.1068 -0.4876 -0.2755 -0.8285 218 222 223
-691.7615 -217.2592 1621.5503 -0.4477 0.5281 -0.7216 225 227 229
441.4805 -98.5247 768.5266 0.4303 0.3462 -0.8336 217 217 217
418.9004 -96.1211 748.1519 -0.0649 0.1532 -0.9861 171 171 171
422.3824 -102.6321 792.2849 0.0344 -0.3725 -0.9274 220 218 219
394.4752 -104.6011 815.0369 -0.1957 0.1622 -0.9672 229 226 227
354.6924 -102.6252 810.3812 -0.0929 -0.0354 -0.9950 156 154 157
296.7372 -107.8135 853.4211 -0.3590 -0.1661 -0.9184 146 138 141
237.5211 -102.5450 815.5166 0.7433 -0.0182 -0.6687 243 170 131
153.3373 -91.0010 707.8593 -0.3168 -0.0168 -0.9483 255 255 247
125.2823 -93.8899 727.7783 -0.5942 0.0633 -0.8018 255 255 250
38.4786 -102.3374 798.9398 -0.6022 0.0937 -0.7928 255 255 255
2.5274 -105.6031 824.9729 -0.6427 -0.0268 -0.7657 255 255 255
-35.5479 -107.7895 844.9082 -0.4268 0.3620 -0.8287 255 255 231
-76.4352 -112.6032 875.9524 -0.5354 0.1402 -0.8329 255 255 227
-173.6228 -153.2273 1203.9576 -0.3601 -0.2164 -0.9075 207 209 210
-236.3192 -157.6035 1254.6288 0.1726 -0.2434 -0.9544 185 189 193
-308.4494 -172.5456 1337.9336 -0.4431 0.0446 -0.8954 218 222 225
-472.5743 -195.8299 1481.8433 0.0000 0.0000 0.0000 209 213 214
477.1536 -95.5531 736.5891 0.5271 0.1039 -0.8434 0 0 0
339.5934 -104.9310 846.8079 0.0163 0.1377 -0.9903 184 182 183
253.4354 -104.4813 829.3718 0.7520 -0.0205 -0.6588 245 181 139
173.6233 -91.0660 721.4774 0.8007 -0.0849 -0.5930 255 241 240
158.4693 -87.7544 706.0674 0.1809 0.1022 -0.9782 255 255 232
131.6007 -90.8781 722.2471 -0.4518 0.1569 -0.8782 255 255 250
102.7185 -94.2536 742.5082 -0.6872 0.3215 -0.6515 255 255 244
70.9469 -96.5562 764.5550 -0.1958 -0.2002 -0.9600 255 255 194
11.0939 -101.8522 815.4792 -0.6531 0.0460 -0.7559 255 255 255
-26.9145 -106.8706 847.7654 -0.3962 0.2501 -0.8834 255 255 233
-66.8356 -109.4056 871.4927 -0.5265 0.2105 -0.8237 255 255 227
-110.5620 -114.3368 905.4077 -0.5368 0.2444 -0.8075 255 255 183
-225.8895 -158.2971 1303.2427 -0.8743 0.3635 -0.3216 201 205 208
-546.7958 -192.6024 1452.4580 0.0000 0.0000 0.0000 251 253 255
-640.9574 -200.8525 1604.8755 -0.5117 0.6106 -0.6044 220 225 226
387.5764 -97.5335 788.5710 -0.2008 -0.2591 -0.9448 180 177 180
372.6927 -98.9977 817.7571 0.4647 0.0828 -0.8816 143 142 147
353.6065 -97.2437 801.3943 0.0481 -0.0638 -0.9968 201 198 201
347.1146 -102.3152 830.7090 -0.2141 0.5172 -0.8287 168 167 170
297.5843 -102.2105 851.1836 -0.0675 -0.0197 -0.9975 121 109 113
266.2538 -104.3733 849.9544 0.7388 -0.0193 -0.6736 243 157 84
183.4485 -90.6356 739.5655 0.8118 -0.0548 -0.5814 255 170 87
138.7182 -88.6204 720.2996 -0.3758 0.2252 -0.8989 255 255 250
108.5733 -90.1766 735.0706 -0.5315 0.0709 -0.8441 255 255 248
79.7600 -96.3347 772.5218 -0.1156 -0.1172 -0.9864 255 255 241
46.6029 -99.2540 792.0652 -0.6945 0.0998 -0.7125 255 255 255
-17.7890 -104.6925 842.4003 -0.5785 0.1263 -0.8059 255 255 255
-57.3760 -106.9726 867.7023 -0.6183 0.1442 -0.7726 255 255 226
-100.6229 -111.9662 898.6758 -0.6044 0.2292 -0.7630 255 255 224
-281.5911 -162.5608 1314.5337 -0.4825 -0.1009 -0.8700 204 208 209
-335.9179 -157.6103 1324.1562 -0.0085 -0.0584 -0.9983 190 194 199
-431.6294 -178.7348 1424.9403 0.0000 0.0000 0.0000 197 201 204
-635.1305 -199.4518 1565.6689 -0.0827 -0.9555 -0.2830 207 214 216
457.9776 -86.8596 726.1452 -0.3856 -0.3721 -0.8443 152 149 152
414.2253 -91.4825 764.7238 -0.3426 0.7884 -0.5109 150 150 152
387.7299 -93.0892 782.1252 0.0013 -0.3228 -0.9465 152 149 152
391.5824 -100.4315 829.5340 0.1931 -0.0015 -0.9812 243 243 243
354.7157 -99.8405 829.9120 -0.2291 0.3969 -0.8888 212 212 212
327.8217 -103.3530 850.6190 -0.0517 -0.4020 -0.9142 173 171 169
283.9772 -106.6905 867.3845 0.1581 0.3664 -0.9169 238 150 73
193.9902 -90.4433 753.6468 0.7368 0.0720 -0.6722 255 174 112
146.3742 -86.8938 717.0230 -0.5692 0.1386 -0.8105 255 255 250
116.7432 -88.7828 732.8196 -0.5008 0.0363 -0.8648 255 255 248
87.6306 -93.6387 772.0933 -0.1032 -0.1401 -0.9847 255 255 240
54.4104 -95.7232 782.7861 -0.6983 0.0355 -0.7149 255 255 255
19.9114 -99.0693 809.3054 -0.6230 0.0396 -0.7812 255 255 255
-336.1779 -162.1966 1350.5541 -0.4703 -0.1914 -0.8615 211 213 217
-502.0058 -178.6686 1463.3589 -0.6522 -0.1200 -0.7485 188 192 195
401.6952 -92.9729 783.6189 0.3401 -0.2171 -0.9150 201 198 201
287.4906 -101.7040 857.9605 -0.3667 -0.0701 -0.9277 128 116 118
204.7510 -90.2748 763.9478 0.7733 0.0013 -0.6340 250 169 80
95.2915 -91.0226 764.6149 -0.0140 -0.1891 -0.9819 255 255 241
62.5181 -93.0412 774.4133 -0.6746 -0.0289 -0.7376 255 255 255
28.2228 -95.9813 803.4427 -0.5255 0.0578 -0.8488 255 255 255
-8.7570 -100.1060 832.6428 -0.6311 0.0566 -0.7736 255 255 255
-47.7624 -103.9956 860.8030 -0.6153 0.1636 -0.7711 255 255 229
-88.3606 -106.4485 883.7131 -0.6337 0.2102 -0.7445 255 255 226
-243.6891 -143.6329 1258.0692 -0.7762 0.3371 -0.5327 226 231 231
-312.3991 -154.8059 1299.0059 -0.5061 -0.0141 -0.8624 223 227 228
-473.1013 -168.8754 1451.6060 -0.6206 0.4139 -0.6660 202 206 207
416.1186 -87.9577 751.7936 -0.0984 0.2678 -0.9585 166 163 166
416.9832 -93.1277 785.6382 0.3183 -0.2697 -0.9088 208 208 208
393.6697 -96.2794 815.5185 -0.0962 -0.2449 -0.9648 169 166 170
357.1800 -95.6094 818.4565 -0.2961 0.4700 -0.8316 134 128 132
325.6863 -96.8555 841.6253 -0.0309 -0.4211 -0.9065 136 136 138
295.9985 -99.4562 854.9966 -0.5548 0.2135 -0.8041 202 195 195
235.4574 -94.1482 814.8367 0.7939 -0.1099 -0.5980 248 228 226
219.8669 -92.1150 783.1317 0.8014 -0.0657 -0.5945 235 223 216
152.0069 -83.7993 709.7269 -0.5153 0.0856 -0.8527 255 255 250
123.1888 -85.7776 728.1729 -0.5340 0.0178 -0.8453 255 255 250
103.1731 -88.6791 758.4158 -0.2544 -0.2845 -0.9243 255 255 234
36.5713 -93.9393 801.5015 -0.5675 0.0598 -0.8212 255 255 255
0.6430 -96.2505 825.6519 -0.6223 0.1561 -0.7671 255 255 255
-37.9954 -100.6357 854.3369 -0.3942 0.2790 -0.8757 255 255 232
-79.4253 -104.2210 881.5800 -0.5502 0.2499 -0.7967 255 255 227
-176.5857 -149.7837 1235.5723 -0.6866 0.4776 -0.5481 237 239 241
-179.5250 -143.5973 1206.6749 -0.3990 -0.1149 -0.9097 211 215 216
-238.9817 -144.8908 1246.0370 -0.6474 0.4266 -0.6316 237 241 242
-658.5858 -186.7820 1639.0804 -0.4202 0.5110 -0.7498 220 221 225
478.3984 -88.2592 754.1979 -0.3359 0.5704 -0.7496 245 242 243
450.6668 -89.2364 774.9551 0.0519 -0.4403 -0.8963 221 221 221
423.2872 -85.9708 755.8313 0.2005 0.3564 -0.9126 168 170 172
392.1941 -91.2029 803.2761 0.1246 -0.1933 -0.9732 138 135 136
341.9894 -97.6168 847.5601 0.2322 -0.1696 -0.9578 163 163 163
301.4674 -95.8782 853.4048 -0.0898 0.1144 -0.9894 109 100 100
248.5229 -94.2279 826.2124 0.7377 0.0600 -0.6725 249 215 201
158.3175 -81.2006 705.4222 -0.0643 0.1549 -0.9858 255 255 245
130.1853 -83.4136 723.9436 -0.4461 0.0602 -0.8930 255 255 253
68.5152 -87.4889 761.6443 -0.2465 -0.1694 -0.9542 255 255 187
9.2464 -94.1513 819.6942 -0.6940 0.1337 -0.7074 255 255 253
-29.0612 -98.7322 852.4639 -0.4509 0.2532 -0.8559 255 255 234
-69.2184 -101.0883 876.0466 -0.5199 0.2474 -0.8176 255 255 227
-112.9551 -104.7968 905.9528 -0.4071 0.0735 -0.9104 247 234 231
-230.5461 -145.1205 1254.8406 -0.6782 0.3642 -0.6383 207 209 210
-293.4582 -148.6073 1297.2402 -0.1571 0.1585 -0.9748 192 196 200
-657.8715 -188.1737 1631.6455 -0.4202 0.5110 -0.7498 200 202 203
357.6305 -90.9058 806.7484 0.1989 0.2180 -0.9555 125 122 125
355.4384 -97.1334 859.0334 -0.0425 -0.2038 -0.9781 230 230 230
262.4852 -94.7158 842.9246 0.7893 0.0474 -0.6122 248 161 83
167.5120 -80.4351 713.8457 0.6029 0.0358 -0.7970 255 210 121
137.4970 -81.3292 723.0639 -0.4366 0.0350 -0.8990 255 255 253
108.0442 -83.7711 739.9360 -0.6120 0.1023 -0.7842 255 255 253
77.2422 -86.7822 765.8354 -0.0931 -0.1755 -0.9801 255 255 241
44.7113 -90.4583 791.4234 -0.6347 0.0147 -0.7726 255 255 255
-59.9896 -98.9809 871.2088 -0.6395 0.1329 -0.7572 255 255 229
-103.0485 -102.4031 902.9453 -0.5833 0.1443 -0.7993 255 255 227
-291.9135 -151.9943 1338.4116 -0.2525 -0.3184 -0.9137 255 255 255
-366.2011 -156.6207 1354.6118 -0.2687 0.1466 -0.9520 225 229 230
-470.7364 -176.1888 1540.1068 -0.8791 0.2266 -0.4193 223 227 228
-441.5703 -161.8555 1481.8433 -0.6745 -0.2939 -0.6773 180 184 187
-732.0255 -187.5974 1679.3906 -0.3743 -0.2462 -0.8940 225 229 230
461.5254 -80.5054 734.9843 0.3798 -0.0293 -0.9246 107 107 107
452.1430 -85.6615 769.7326 0.1279 -0.5740 -0.8088 168 164 165
421.8405 -86.0412 775.9370 -0.3449 0.7589 -0.5523 192 186 193
390.0340 -86.1618 781.7104 0.1237 -0.1832 -0.9753 113 108 109
399.5829 -94.6747 827.7990 0.0082 -0.2338 -0.9722 141 139 140
361.3786 -93.9639 844.5563 -0.2080 -0.0683 -0.9757 180 177 178
310.4110 -93.8061 849.2874 -0.2065 0.0984 -0.9735 159 154 156
283.0452 -97.8746 872.2566 0.5209 0.1611 -0.8383 249 212 213
193.6529 -83.4240 754.8164 0.7686 -0.0625 -0.6366 241 159 89
178.1762 -80.6799 727.3887 0.8132 -0.1294 -0.5675 249 163 78
144.6953 -79.4913 720.3967 -0.5711 0.0005 -0.8209 255 255 254
114.4391 -80.7703 733.4153 -0.5999 0.1620 -0.7835 255 255 250
86.0069 -85.9077 770.7883 -0.1365 -0.3041 -0.9428 255 255 238
52.8102 -87.7331 785.9534 -0.6950 0.0561 -0.7168 255 255 255
17.8655 -90.7754 812.2632 -0.6352 0.0695 -0.7692 255 255 255
-19.5466 -93.6943 839.9182 -0.6138 0.1725 -0.7704 255 255 239
-91.9561 -98.3704 895.7067 -0.6160 0.1462 -0.7741 255 255 227
-269.1843 -143.1695 1318.2214 -0.4609 -0.1689 -0.8713 196 199 205
-328.7505 -144.2263 1347.2406 0.0000 0.0000 0.0000 206 208 209
-362.9417 -158.5806 1401.9312 0.5580 0.7987 0.2253 192 196 200
-547.9933 -179.5584 1516.8102 -0.5857 -0.2151 -0.7815 210 212 214
-503.6860 -162.4765 1485.3868 -0.3248 0.3341 -0.8848 187 191 192
-561.7206 -158.6638 1534.4293 0.0000 0.0000 0.0000 209 211 215
-777.4854 -200.7905 1733.9468 0.0000 0.0000 0.0000 191 204 208
424.5867 -82.7560 766.4483 0.0170 0.5482 -0.8362 126 124 125
348.7779 -83.4544 803.5681 0.4120 0.2171 -0.8849 220 220 220
319.0561 -91.7048 846.0385 -0.3815 -0.2822 -0.8802 120 118 119
291.1848 -95.1758 878.2399 0.4123 0.0655 -0.9087 224 142 101
205.2174 -83.6056 766.6669 0.7522 -0.0477 -0.6572 242 156 71
151.9337 -77.3150 713.3005 -0.5196 -0.1246 -0.8452 255 255 253
109.5773 -89.0393 775.8215 0.3184 -0.8132 -0.4871 255 255 238
60.8598 -85.1065 778.6314 -0.7400 0.1405 -0.6577 255 255 255
26.4598 -88.4977 807.4269 -0.5742 0.0063 -0.8187 255 255 248
-10.7135 -91.5681 835.3878 -0.6441 0.1225 -0.7551 255 255 255
-49.6202 -94.2405 858.5578 -0.6020 0.0769 -0.7948 255 255 232
-192.2606 -138.2651 1256.6598 -0.6768 -0.5060 -0.5347 188 190 194
-254.8696 -139.6952 1278.2762 -0.7453 0.3319 -0.5783 217 220 226
-328.4625 -146.5475 1341.5469 -0.5928 -0.3250 -0.7369 201 203 207
-393.1667 -147.1511 1428.4235 -0.3070 -0.5068 -0.8056 195 199 202
-555.4608 -158.2396 1471.6880 0.0080 -0.1218 -0.9925 214 215 219
-836.8152 -193.7711 1710.3540 0.0000 0.0000 0.0000 217 219 221
464.0010 -77.5448 724.7034 -0.5504 -0.3775 -0.7447 170 169 174
387.1119 -81.1381 770.4272 -0.1649 -0.1066 -0.9805 185 185 187
391.4007 -87.5306 819.9262 -0.1236 -0.3018 -0.9453 198 196 197
360.5180 -88.6937 828.4092 -0.5589 0.0496 -0.8278 176 176 176
321.7988 -87.3907 838.4554 -0.2841 -0.2667 -0.9209 121 116 120
292.4415 -89.8035 848.5770 -0.3147 0.2031 -0.9272 148 140 138
122.3867 -78.8310 730.5079 -0.5613 0.1305 -0.8173 255 255 253
90.4070 -79.0349 754.5344 -0.5501 -0.4542 -0.7008 255 255 238
34.6882 -85.3853 800.9349 -0.5649 -0.0228 -0.8248 255 255 255
-1.8127 -90.0529 835.2801 -0.6208 0.1779 -0.7635 255 255 255
-40.1925 -91.5302 855.1870 -0.4015 0.1260 -0.9071 255 255 231
-81.8140 -95.5719 885.8692 -0.5527 0.2209 -0.8035 255 255 227
-182.0699 -137.6582 1298.7517 -0.0349 0.9994 -0.0079 247 246 249
-445.4008 -145.7897 1424.0011 -0.6482 0.5050 -0.5699 220 225 226
-664.6158 -170.3301 1639.7413 -0.3533 -0.0075 -0.9355 232 236 237
471.0726 -78.8953 759.0916 -0.1679 -0.6978 -0.6964 124 121 124
421.8702 -78.1954 755.5706 0.3575 0.1838 -0.9157 218 216 217
420.1444 -81.9181 782.2930 0.3390 0.2387 -0.9100 147 146 149
401.4896 -81.0288 772.6384 0.2021 0.0045 -0.9793 196 193 196
396.4721 -84.5144 807.7622 -0.7061 -0.1163 -0.6985 166 163 166
361.5995 -84.2550 820.8525 0.0698 -0.1349 -0.9884 158 155 158
333.7282 -86.5016 840.1179 0.2335 -0.2715 -0.9337 220 218 219
301.7348 -87.8877 853.8409 -0.2314 0.5740 -0.7855 155 150 151
246.8753 -85.6769 826.0825 0.7873 -0.0819 -0.6111 229 186 166
230.7051 -84.0194 799.9750 0.8420 -0.0894 -0.5321 250 234 231
159.0699 -75.1412 708.2222 -0.0600 -0.1723 -0.9832 255 255 250
128.5025 -75.7267 724.9405 -0.4218 0.1328 -0.8969 255 255 253
67.5673 -80.9548 766.3948 -0.5413 0.1169 -0.8327 255 255 189
7.3078 -86.2257 824.3159 -0.6871 0.1436 -0.7122 255 255 255
-31.3319 -90.0676 856.6973 -0.4458 0.1447 -0.8834 255 255 234
-72.1355 -92.4738 883.3931 -0.5171 0.2014 -0.8319 255 255 227
-111.8830 -93.3553 905.5632 -0.3519 0.0554 -0.9344 232 219 214
-227.9873 -127.6528 1244.6858 -0.5094 0.3803 -0.7720 198 202 205
-294.2425 -133.6060 1304.0958 0.2010 -0.0865 -0.9758 204 208 209
-382.4599 -144.9329 1412.0162 -0.2273 0.5012 -0.8350 204 208 209
-459.7393 -152.2484 1468.2637 0.6200 -0.3896 -0.6810 223 227 228
433.4526 -77.3152 754.9515 0.1087 0.5466 -0.8303 198 192 198
373.3232 -83.2030 814.9299 0.1115 -0.0708 -0.9912 148 142 146
352.7639 -87.8232 853.0057 0.2365 -0.2014 -0.9505 172 172 174
311.9518 -86.2502 855.1981 -0.3046 0.5440 -0.7819 118 113 117
259.8387 -85.5221 842.2058 0.7616 0.0641 -0.6449 245 209 182
136.3462 -74.2144 725.4025 -0.4352 0.0614 -0.8982 255 255 255
106.9249 -76.7973 744.0469 -0.4888 -0.0777 -0.8689 255 255 253
75.9123 -79.0853 767.1509 -0.2119 0.1533 -0.9652 255 255 240
43.2149 -82.9888 795.2391 -0.5806 -0.0364 -0.8134 255 255 255
-21.9736 -87.0790 847.9951 -0.6109 0.1502 -0.7773 255 255 236
-62.3763 -90.1232 877.7188 -0.6486 0.1114 -0.7529 255 255 231
-104.8760 -92.4921 904.2733 -0.4588 0.0330 -0.8879 255 255 227
-290.6652 -135.7651 1325.5173 0.1321 -0.0791 -0.9881 217 221 224
