ply
format ascii 1.0
element vertex 789
property float x
property float y
property float z
property float nx
property float ny
property float nz
property uchar red
property uchar green
property uchar blue
end_header
64.4387 -17.6685 347.3654 -0.3683 -0.3777 -0.8495 0 1 10
9.7249 -16.5220 331.8139 0.2572 -0.5709 -0.7797 255 235 207
-8.8236 -16.7311 328.1939 0.1671 -0.4244 -0.8899 255 241 219
-23.5677 -16.1780 325.2523 0.3901 -0.2591 -0.8836 220 192 179
-26.8147 -16.3938 322.5193 0.3270 -0.2782 -0.9031 249 222 204
-40.9433 -15.6527 319.2119 0.3183 0.0724 -0.9452 254 220 202
-58.0403 -15.7410 315.6008 0.0294 0.0436 -0.9986 255 232 214
-74.6321 -15.6339 311.4838 0.2090 -0.0086 -0.9779 245 215 200
-104.9763 -14.7769 297.2157 0.3334 -0.2028 -0.9207 198 180 166
-134.7627 -14.8275 294.8439 -0.0058 -0.3441 -0.9389 255 252 233
-149.2854 -14.8985 296.5673 -0.2327 -0.2762 -0.9325 255 255 255
168.1626 -13.1537 271.2418 -0.4419 -0.2186 -0.8700 217 144 162
157.6598 -13.3333 274.5019 -0.3576 -0.1667 -0.9189 239 238 241
151.1165 -13.2143 278.8332 -0.3272 -0.1100 -0.9385 137 136 145
140.5829 -13.5030 283.2303 -0.4248 -0.0669 -0.9028 217 216 221
123.7545 -14.1023 293.5729 -0.5440 0.0679 -0.8363 187 188 195
104.0366 -14.1959 303.0312 -0.2704 0.1630 -0.9488 86 90 98
91.7632 -14.6961 308.0219 -0.4143 -0.0937 -0.9053 183 186 185
68.6163 -17.1975 347.3148 -0.3397 -0.4631 -0.8186 140 143 153
59.2566 -17.9848 366.7320 -0.4371 -0.3592 -0.8246 255 255 235
43.4382 -18.1730 369.6143 -0.1325 -0.3588 -0.9240 250 222 200
13.2218 -15.7443 331.9950 0.3284 -0.6143 -0.7174 255 236 210
-5.2735 -15.8560 328.4992 0.1163 -0.5018 -0.8571 255 240 218
-37.6758 -15.1834 320.2749 0.2406 0.0286 -0.9702 245 209 189
-54.8130 -15.0401 315.7898 0.0209 0.0576 -0.9981 255 239 226
-71.6427 -15.0957 312.9311 0.3556 0.0297 -0.9341 249 218 198
-85.8626 -14.7885 312.3584 0.0458 0.1366 -0.9896 105 126 109
-100.8954 -14.4148 301.8327 0.5936 -0.0330 -0.8041 156 140 136
-102.2401 -14.1829 298.6987 0.6060 -0.0975 -0.7895 134 126 122
-117.8141 -14.2914 295.2806 0.0757 -0.3593 -0.9302 255 255 239
-131.3144 -14.0480 294.6032 0.0507 -0.3175 -0.9469 255 255 255
-145.8288 -14.0609 295.9192 -0.1840 -0.2857 -0.9405 255 255 255
-161.6520 -14.3704 297.4420 0.6402 -0.1805 -0.7467 106 97 98
-161.7600 -14.2635 294.7847 0.5047 -0.0782 -0.8598 63 57 54
169.8735 -12.2118 269.8027 -0.4024 -0.2141 -0.8901 240 233 233
160.7492 -12.7114 273.8913 -0.2513 -0.1124 -0.9614 249 249 251
144.3460 -13.0464 282.9652 -0.4579 -0.0637 -0.8867 241 241 243
133.0568 -13.2196 287.2703 -0.4964 -0.0381 -0.8673 254 253 255
126.2987 -13.2147 292.0124 -0.5659 0.0950 -0.8190 213 215 216
115.3058 -13.7101 297.7778 -0.3850 0.0624 -0.9208 156 68 79
107.6519 -13.6695 302.5575 -0.2200 0.1101 -0.9693 119 121 127
83.5342 -14.8719 317.8435 -0.6208 -0.1549 -0.7685 89 95 104
71.9977 -16.1247 347.2708 -0.1449 -0.5587 -0.8167 92 98 103
62.5251 -16.6724 360.1705 -0.7609 -0.2228 -0.6094 255 252 237
47.1538 -17.1128 368.9640 -0.0795 -0.3188 -0.9445 255 238 218
-1.7296 -15.0198 328.4027 0.0696 -0.5325 -0.8436 255 232 210
-20.0754 -15.2419 325.5791 0.3755 -0.2540 -0.8913 173 135 118
-68.8950 -14.6251 314.6400 0.2579 -0.0001 -0.9662 255 228 211
-82.5382 -14.0826 312.4454 -0.0545 0.0414 -0.9977 197 189 183
-115.0631 -13.7023 295.8903 0.1004 -0.3119 -0.9448 255 255 255
-128.1376 -13.3070 294.4248 0.0080 -0.3489 -0.9371 255 255 255
-157.5255 -13.4224 298.5454 0.0846 -0.1887 -0.9784 145 126 114
162.4524 -11.7391 273.3077 -0.2735 -0.1362 -0.9522 239 238 241
154.0607 -12.5035 277.7806 -0.4703 -0.0920 -0.8777 235 235 235
136.4924 -12.6512 286.3330 -0.4536 -0.0090 -0.8912 207 208 212
118.2966 -12.9469 297.3196 -0.3942 -0.0050 -0.9190 209 200 201
94.6269 -13.6184 306.7705 -0.3455 0.0448 -0.9374 218 220 222
85.9701 -13.6724 314.6375 -0.6521 -0.0621 -0.7556 29 36 45
50.9148 -16.1225 368.7019 -0.0965 -0.2928 -0.9513 255 243 221
34.3356 -15.9348 369.5058 0.4904 -0.4293 -0.7584 176 140 123
30.0266 -16.0400 361.0576 0.7542 -0.4438 -0.4839 173 137 117
24.9340 -15.0034 346.0570 0.6372 -0.4888 -0.5959 185 152 133
20.9841 -15.3605 342.6945 0.6426 -0.5229 -0.5601 162 127 107
16.8137 -14.9244 332.5050 0.3994 -0.5574 -0.7278 219 192 172
1.7021 -14.0974 327.9423 0.0690 -0.5503 -0.8321 255 236 214
-16.5907 -14.7481 326.9332 0.2607 -0.2731 -0.9260 236 204 190
-34.1916 -14.3908 320.9757 0.1070 -0.1063 -0.9886 249 216 193
-48.2887 -13.6183 316.8116 0.3058 0.1205 -0.9444 255 223 209
-51.1623 -14.0107 315.6833 0.1471 0.0821 -0.9857 255 228 210
-65.7497 -13.8606 314.9883 0.1582 -0.0506 -0.9861 255 255 239
-96.8955 -13.2156 302.7437 0.3132 0.0110 -0.9496 216 182 171
-111.6711 -12.8875 295.6801 0.0803 -0.2697 -0.9596 255 255 245
-125.0169 -12.5517 294.3246 -0.0080 -0.3635 -0.9316 255 255 253
-142.0043 -13.1661 294.6959 -0.1604 -0.2750 -0.9480 255 255 255
-154.8580 -12.8439 298.1808 -0.2072 -0.2064 -0.9563 236 213 203
171.4140 -11.2821 269.5946 -0.3325 -0.1823 -0.9253 213 206 208
165.7710 -11.2306 272.4940 -0.4150 -0.2172 -0.8835 230 230 232
155.0266 -11.3401 275.2689 -0.5520 -0.0608 -0.8316 198 197 200
145.7086 -11.9031 280.8041 -0.5501 -0.0744 -0.8318 225 224 227
138.9070 -11.7840 285.1440 -0.4294 0.0009 -0.9031 204 206 208
128.6943 -12.2877 290.1113 -0.5146 0.0880 -0.8529 252 254 255
109.5662 -12.4291 301.3927 -0.2582 0.1372 -0.9563 125 108 114
97.3647 -12.8830 307.1869 -0.4363 0.0832 -0.8959 255 255 255
76.1006 -13.0899 320.3076 -0.2505 0.2045 -0.9463 87 93 98
54.8021 -15.2180 368.0857 -0.2353 -0.2473 -0.9399 255 255 246
38.4463 -15.0535 369.3949 0.1734 -0.3987 -0.9005 213 179 165
-13.0831 -13.8338 326.8216 0.1339 -0.3447 -0.9291 255 242 219
-31.0637 -13.5979 320.7992 0.0515 -0.2834 -0.9576 255 242 225
-62.7063 -13.3324 316.3729 0.1366 -0.0578 -0.9889 255 255 242
-78.5566 -13.1520 311.6703 -0.0271 0.0532 -0.9982 244 216 209
-93.7590 -12.5934 303.1123 -0.2160 -0.0218 -0.9761 247 215 203
-108.3046 -12.1137 295.9122 0.1304 -0.2260 -0.9654 240 211 191
-138.0368 -12.2080 294.1707 -0.0826 -0.2608 -0.9619 255 255 255
-167.5211 -12.3145 293.9619 0.0000 0.0000 0.0000 90 86 85
157.1886 -10.4917 274.4363 -0.3737 -0.0492 -0.9263 163 164 168
147.8256 -11.0215 278.8929 -0.4213 -0.0492 -0.9056 144 144 148
131.3564 -11.4578 289.7666 -0.4928 0.1145 -0.8626 216 218 222
120.1970 -11.8569 295.6390 -0.4595 -0.0312 -0.8876 242 242 244
112.5181 -11.6834 301.2253 -0.3727 0.3211 -0.8706 209 133 152
100.6747 -12.1688 306.2683 -0.5395 0.0559 -0.8402 255 255 255
87.3565 -11.9647 310.1105 -0.6093 0.0484 -0.7915 37 44 44
79.4918 -12.3691 319.1555 -0.4672 -0.0424 -0.8831 174 178 181
77.4376 -13.3789 341.7677 -0.2997 -0.1154 -0.9470 1 7 12
62.8253 -13.4532 346.2399 -0.2618 -0.5243 -0.8103 51 52 101
5.2141 -13.3134 328.0293 0.1212 -0.5562 -0.8222 255 234 207
-9.5910 -12.9995 326.5122 0.0795 -0.4246 -0.9019 255 247 227
-27.3648 -12.7329 320.9122 0.2178 -0.3867 -0.8961 248 219 202
-44.9270 -12.8265 317.4814 0.3120 0.1512 -0.9380 250 217 198
-59.0839 -12.4975 316.4190 0.0762 -0.0305 -0.9966 255 252 234
-75.1687 -12.1901 311.3561 0.2230 0.0875 -0.9709 254 226 213
-105.3596 -11.4782 296.2909 0.2969 -0.2629 -0.9180 246 227 218
-121.6549 -11.7957 294.1119 0.0366 -0.3713 -0.9278 255 255 239
-135.0650 -11.5635 293.8269 -0.0025 -0.2269 -0.9739 255 255 255
-150.4218 -11.7550 296.7885 -0.2410 -0.1788 -0.9539 255 255 255
-164.1243 -11.5397 290.7015 -0.0187 0.2041 -0.9788 110 105 107
166.0913 -9.9960 270.6873 -0.4023 -0.2195 -0.8888 224 221 224
150.0549 -10.1582 278.5380 -0.2699 0.0331 -0.9623 224 221 224
140.6188 -10.7051 284.0648 -0.4264 -0.0652 -0.9022 180 176 182
133.9888 -10.6355 288.6012 -0.4901 0.1036 -0.8655 255 255 255
123.5102 -11.2308 294.5062 -0.4731 0.0240 -0.8807 250 249 255
103.2877 -11.0394 303.5204 -0.4571 0.0099 -0.8894 160 162 166
91.4153 -11.6106 309.5450 -0.4947 0.2241 -0.8397 28 34 37
66.6606 -12.7746 345.6707 -0.2604 -0.5316 -0.8060 35 43 77
58.4016 -14.0705 366.6561 -0.3717 -0.1768 -0.9113 255 255 241
42.2014 -13.9798 368.6537 -0.0648 -0.2974 -0.9525 221 189 172
8.7933 -12.4507 327.8734 0.1912 -0.5466 -0.8153 255 247 222
-6.1233 -12.2121 326.5739 0.0756 -0.4554 -0.8871 255 240 220
-24.0355 -12.0321 321.4191 0.3755 -0.3928 -0.8394 219 192 176
-38.6680 -11.7351 320.9192 0.1173 -0.0105 -0.9930 251 220 201
-41.7291 -12.2347 319.1178 0.2488 0.1009 -0.9633 244 207 185
-55.8068 -11.6942 316.2441 0.0637 0.0591 -0.9962 255 228 212
-72.7017 -11.8560 313.2876 0.3100 0.0739 -0.9479 246 211 200
-102.6686 -10.8950 297.8295 0.5556 -0.2606 -0.7896 177 169 163
-118.0750 -10.9703 293.8071 0.1031 -0.3551 -0.9291 249 235 210
-131.8089 -10.7873 293.9750 0.0124 -0.1862 -0.9824 255 255 248
-146.0368 -10.7320 295.1005 -0.2308 -0.1879 -0.9547 255 255 255
-161.5981 -10.9318 292.5316 0.4597 -0.0257 -0.8877 90 76 76
169.3353 -9.4405 270.0907 -0.3655 -0.2412 -0.8990 232 229 232
160.1507 -9.8502 273.9769 -0.2364 -0.0388 -0.9709 179 175 181
153.6507 -9.6636 278.2447 -0.4807 0.0352 -0.8762 230 227 232
143.7755 -10.0762 283.4977 -0.5078 -0.0359 -0.8607 222 222 224
125.9679 -10.3121 293.5738 -0.5231 0.1502 -0.8389 185 186 190
114.6503 -10.5440 298.4174 -0.5310 0.3121 -0.7878 255 224 230
93.7812 -10.4779 308.5896 -0.4226 0.2829 -0.8611 171 178 178
82.2882 -11.2718 317.6202 -0.6775 -0.0418 -0.7344 142 146 152
62.0950 -13.0586 365.8205 -0.4532 -0.0851 -0.8873 255 255 244
46.0854 -13.1057 368.6310 -0.0917 -0.2046 -0.9746 246 216 201
12.3323 -11.8013 329.0450 0.2857 -0.5528 -0.7828 255 242 216
-2.6715 -11.3611 326.0092 0.0660 -0.4700 -0.8802 255 244 224
-21.0003 -11.6001 324.5580 0.4091 -0.3939 -0.8231 183 142 126
-52.0770 -10.7668 316.1908 0.1827 0.1523 -0.9713 255 219 202
-69.6217 -11.1924 314.3521 0.1350 -0.1024 -0.9855 255 237 223
-100.0542 -10.5586 300.6768 0.6830 -0.1317 -0.7184 138 123 117
-114.9938 -10.2481 294.6228 0.1598 -0.2999 -0.9405 255 255 255
-128.7561 -10.0807 294.0023 -0.0501 -0.1997 -0.9786 255 255 255
-160.2285 -10.6446 296.2852 0.5877 -0.0724 -0.8058 119 104 100
162.3606 -9.0426 273.6572 -0.3329 -0.0987 -0.9378 211 210 213
135.3844 -9.4867 286.3043 -0.4489 0.1708 -0.8771 206 211 212
117.6334 -9.8085 297.3565 -0.5381 0.1872 -0.8218 213 211 214
105.3004 -9.9325 301.6676 -0.2056 0.0074 -0.9786 87 88 95
97.3571 -9.9233 307.9863 -0.4342 0.1791 -0.8828 255 255 255
85.3035 -10.3498 314.9742 -0.6969 0.0293 -0.7166 210 212 216
78.3340 -11.2195 329.5919 -0.5098 0.7840 -0.3541 170 173 182
69.3881 -11.4417 342.6000 -0.1139 -0.4919 -0.8632 26 31 57
49.8548 -12.1123 368.1588 -0.1129 -0.1804 -0.9771 255 237 217
15.8871 -11.0454 329.5122 0.3788 -0.5219 -0.7643 222 188 172
-17.4079 -11.0126 325.5319 0.2646 -0.3850 -0.8842 223 195 184
-35.0087 -10.9180 320.7609 -0.0451 -0.1868 -0.9814 255 229 208
-49.0924 -10.2541 317.1089 0.3015 0.2628 -0.9165 250 212 193
-66.0159 -10.2730 314.3861 0.1325 -0.2015 -0.9705 255 255 246
-97.7790 -10.0938 303.0794 0.5203 -0.0065 -0.8539 188 156 142
-112.1658 -9.6100 295.0518 0.1427 -0.2798 -0.9494 255 255 237
-142.2898 -9.8750 294.0565 -0.1827 -0.1935 -0.9639 255 255 255
-157.9066 -10.0892 297.5599 0.0219 -0.0809 -0.9965 174 159 155
-170.5585 -9.6108 294.8733 0.0000 0.0000 0.0000 96 88 91
170.9643 -8.5085 268.9617 -0.3748 -0.2049 -0.9042 183 180 184
165.1753 -8.3780 272.0298 -0.5014 -0.1268 -0.8559 108 102 111
155.0870 -8.6219 276.2005 -0.6029 0.0077 -0.7978 225 222 226
144.6857 -8.8753 281.5670 -0.5195 -0.0633 -0.8521 232 133 155
127.9243 -9.2386 290.8516 -0.4659 0.1661 -0.8691 199 198 203
109.3644 -9.5170 302.9150 -0.0929 0.0154 -0.9956 180 100 114
88.5025 -9.5043 313.6073 -0.6068 0.1894 -0.7719 188 192 195
80.9961 -10.0767 326.5896 -0.4155 0.8068 -0.4201 127 133 136
72.9274 -10.5747 341.8568 -0.0732 -0.2895 -0.9544 13 17 34
33.5097 -11.5592 362.8106 0.6859 -0.2946 -0.6653 166 131 108
23.8956 -10.8694 341.1538 0.7556 -0.4722 -0.4540 156 123 102
19.4573 -10.5156 331.7781 0.5819 -0.4665 -0.6661 197 168 152
1.0099 -10.4849 325.8000 0.0418 -0.4665 -0.8835 255 255 240
-13.8203 -10.1224 325.4053 0.0624 -0.5018 -0.8627 255 221 202
-31.7280 -10.0634 319.6202 -0.0917 -0.3606 -0.9282 255 242 224
-45.8384 -9.7103 318.5685 0.2444 0.2919 -0.9247 242 204 185
-62.8296 -9.6150 314.8360 0.2131 -0.2320 -0.9491 255 255 238
-79.3361 -9.7430 311.4046 -0.0149 0.0420 -0.9990 229 203 195
-94.5287 -9.3356 303.3939 -0.1449 0.0384 -0.9887 220 191 176
-109.1627 -8.9810 295.0768 0.1494 -0.2547 -0.9554 255 238 219
-124.5661 -9.0844 292.8992 -0.0577 -0.2030 -0.9775 255 253 235
-139.0497 -9.1053 293.5640 -0.0663 -0.1747 -0.9824 255 255 255
-153.8434 -9.1719 296.9697 -0.2004 -0.1623 -0.9662 247 223 213
-168.9023 -9.2234 298.2042 -0.1211 -0.2646 -0.9567 104 97 95
157.0069 -7.7427 274.5347 -0.4235 0.0129 -0.9058 230 225 227
147.4846 -8.1580 279.2562 -0.3747 -0.0142 -0.9271 185 102 114
141.0198 -7.9933 284.8602 -0.4843 0.0394 -0.8740 202 197 201
136.6208 -8.3473 285.0685 -0.4090 0.1752 -0.8955 146 148 152
130.3364 -8.3253 289.6061 -0.4554 0.2472 -0.8553 243 243 245
123.7066 -8.2914 295.5740 -0.4129 -0.0696 -0.9081 255 255 255
119.9794 -8.8067 295.9500 -0.4876 0.0041 -0.8730 251 251 253
112.5444 -8.7350 302.5042 -0.2338 0.0504 -0.9710 131 37 69
100.7500 -9.2017 306.7978 -0.5701 -0.0294 -0.8210 66 68 72
76.4837 -9.7149 341.8104 -0.0604 0.1174 -0.9912 17 21 52
61.7823 -9.5981 343.1866 -0.2829 -0.3736 -0.8834 231 217 204
53.6442 -11.0587 366.7535 -0.1746 -0.1768 -0.9686 255 255 236
37.6124 -11.0491 368.6892 0.2925 -0.2671 -0.9182 178 138 120
27.4798 -10.1614 345.0959 0.7144 -0.3826 -0.5859 190 156 138
4.3629 -9.5961 325.6795 0.0684 -0.4787 -0.8753 255 232 210
-10.3295 -9.2506 325.0400 0.0559 -0.5173 -0.8540 255 233 215
-28.0881 -9.1467 318.9754 0.0775 -0.4510 -0.8892 235 207 187
-42.5894 -8.9874 319.8313 0.0649 0.1100 -0.9918 255 222 206
-59.6116 -8.9529 315.6706 0.2117 -0.1598 -0.9642 255 234 214
-76.3865 -9.0990 312.2843 0.1879 0.0093 -0.9821 240 207 200
-91.8866 -8.6544 302.5387 -0.4939 0.0860 -0.8652 209 177 163
-121.6306 -8.4183 292.7263 -0.0027 -0.2118 -0.9773 255 255 243
-135.5443 -8.2870 293.3426 0.0141 -0.1327 -0.9911 255 255 248
-150.8772 -8.4833 296.3597 -0.2661 -0.1716 -0.9485 255 255 245
165.6830 -7.2036 269.9934 -0.4036 -0.1358 -0.9048 213 210 216
150.0435 -7.3881 278.9149 -0.2327 0.0818 -0.9691 219 136 146
133.2055 -7.5774 288.9011 -0.4837 0.2846 -0.8277 147 149 153
115.5229 -7.9457 302.2564 -0.4330 0.0122 -0.9013 117 112 116
102.8593 -8.0413 304.0359 -0.5271 -0.1265 -0.8403 84 90 92
91.4545 -8.5897 312.2173 -0.4309 0.2889 -0.8549 197 199 201
82.5937 -8.3780 319.3167 -0.6513 0.5939 -0.4724 201 203 207
57.4406 -10.1503 365.9769 -0.2127 -0.1732 -0.9616 255 255 247
41.2954 -10.1722 368.7408 0.0239 -0.2264 -0.9737 193 160 141
7.9212 -8.6846 325.1949 0.1532 -0.4839 -0.8616 255 239 210
-24.7235 -8.4407 319.6844 0.3424 -0.4811 -0.8071 243 212 193
-56.2447 -8.2393 315.9471 0.1706 -0.0521 -0.9840 239 202 182
-73.5726 -8.5094 313.7076 0.1353 -0.1304 -0.9822 230 195 187
-105.3816 -8.0864 295.2171 0.2652 -0.2612 -0.9281 234 206 195
-118.2923 -7.6341 292.7031 0.0713 -0.2271 -0.9713 255 255 239
168.4391 -6.5533 270.0927 -0.3878 -0.1278 -0.9128 193 193 195
159.5206 -6.9576 273.9511 -0.2746 -0.0132 -0.9615 252 249 252
142.7423 -6.9779 282.6164 -0.6003 0.0006 -0.7998 177 99 121
125.1109 -7.0844 293.2362 -0.4117 -0.0741 -0.9083 220 222 223
94.3421 -7.7161 311.3358 -0.3701 0.2863 -0.8838 88 94 99
78.9217 -8.3634 337.5282 -0.6173 0.5018 -0.6059 21 28 57
65.1941 -8.7460 342.3661 -0.3792 -0.3767 -0.8452 39 44 79
61.0742 -9.1076 365.5177 -0.2461 -0.1794 -0.9525 255 255 251
45.1720 -9.1362 368.0047 -0.0550 -0.1733 -0.9833 222 190 176
11.4939 -8.0135 325.7083 0.2365 -0.4764 -0.8468 255 240 216
-6.8490 -8.4619 324.6174 0.1393 -0.4850 -0.8633 255 224 199
-21.5537 -7.7869 321.3275 0.4086 -0.5016 -0.7626 225 184 170
-39.3332 -8.3026 320.6873 -0.1347 -0.1093 -0.9848 255 230 211
-53.1936 -7.6263 316.8080 0.2323 0.0323 -0.9721 255 219 202
-70.6742 -7.8687 314.1560 0.0001 -0.2978 -0.9546 255 227 221
-102.6557 -7.4784 295.6229 0.4670 -0.2737 -0.8408 198 187 170
-115.0935 -6.9210 293.0332 0.1490 -0.2235 -0.9633 255 252 231
-132.6802 -7.5996 293.9817 0.0123 -0.1039 -0.9945 255 249 227
-147.0596 -7.6044 295.0650 -0.2492 -0.1678 -0.9538 255 255 255
161.8259 -6.1824 274.0369 -0.3690 -0.0491 -0.9281 211 208 212
152.5881 -6.6131 278.6481 -0.4160 0.0628 -0.9072 236 163 178
135.6204 -6.7245 287.6209 -0.4520 0.3652 -0.8138 255 255 255
128.5934 -6.4989 293.5454 -0.4014 -0.0642 -0.9137 192 192 194
109.5040 -6.5710 303.7780 -0.0039 -0.1170 -0.9931 133 125 130
105.0384 -6.8889 301.7056 -0.2131 -0.1207 -0.9695 122 117 121
68.5449 -7.7689 341.1846 -0.2016 -0.3615 -0.9103 18 24 54
48.8503 -8.1429 367.2127 -0.1101 -0.1512 -0.9823 242 213 196
14.9861 -7.3183 326.8268 0.3683 -0.4587 -0.8087 234 205 190
-3.3998 -7.6185 324.4382 0.1285 -0.4169 -0.8998 255 228 207
-17.8478 -7.2649 323.7043 0.2382 -0.5840 -0.7760 175 119 113
-35.7990 -7.3580 319.4703 -0.1270 -0.3303 -0.9353 255 244 227
-50.0505 -6.9862 318.4561 0.4067 0.2428 -0.8807 236 198 179
-66.4316 -6.8263 312.9592 0.0915 -0.4469 -0.8899 255 255 248
-85.9311 -6.8644 300.2408 -0.6681 0.0978 -0.7376 148 116 104
-98.8028 -6.9119 302.9727 0.7018 -0.1262 -0.7011 168 142 133
-99.3016 -6.6703 297.2998 0.6890 -0.2396 -0.6841 129 112 104
-129.1573 -6.8101 293.6745 -0.0566 -0.0723 -0.9958 255 255 244
-142.4496 -6.5582 293.2705 -0.1860 -0.1508 -0.9709 255 255 255
-158.8657 -6.9315 297.8129 -0.0980 0.0709 -0.9927 146 127 117
-171.4765 -6.4413 292.9987 0.0000 0.0000 0.0000 52 46 53
169.5804 -5.5601 268.4068 -0.4221 -0.1180 -0.8988 238 235 238
154.4264 -5.7020 276.5035 -0.5940 0.0759 -0.8009 178 125 143
144.6040 -6.0542 281.1847 -0.4857 0.0126 -0.8740 189 106 123
137.9073 -5.8291 286.7243 -0.4284 0.2467 -0.8693 180 181 188
119.5418 -5.8386 296.2584 -0.3773 -0.2547 -0.8904 219 218 221
81.2006 -7.0041 332.4976 -0.4855 0.7490 -0.4510 35 36 72
72.1793 -6.9745 341.6704 0.0195 -0.2284 -0.9734 71 78 107
52.9944 -7.3280 366.6857 -0.1668 -0.1484 -0.9747 255 246 223
18.4248 -6.4961 328.1284 0.5751 -0.3487 -0.7401 200 171 156
0.0873 -6.7885 324.4245 0.0363 -0.3862 -0.9217 255 232 213
-14.5037 -6.5138 323.7640 0.0821 -0.6070 -0.7905 255 250 235
-32.3623 -6.7052 318.9358 -0.1675 -0.4119 -0.8957 255 255 243
-46.8272 -6.4239 321.0997 0.3073 0.1606 -0.9380 234 195 179
-63.7335 -6.3069 314.7586 0.2719 -0.4426 -0.8545 255 247 221
-80.1431 -6.4681 312.2173 -0.0150 -0.0340 -0.9993 234 210 204
-95.7020 -6.1844 304.4460 0.2035 0.0940 -0.9746 188 157 140
-112.5215 -6.3435 293.8092 0.1571 -0.2367 -0.9588 255 255 241
-125.0718 -5.8783 292.5028 -0.0735 -0.0228 -0.9970 255 210 201
-139.3738 -5.8318 293.2608 -0.0443 -0.1098 -0.9930 255 255 254
-155.0534 -6.0561 296.8123 -0.2679 -0.0685 -0.9610 222 201 190
163.6468 -5.3224 271.4229 -0.4347 0.0079 -0.9005 237 234 235
147.0428 -5.2440 279.9633 -0.3231 0.0975 -0.9413 156 50 72
141.3310 -5.2249 285.5196 -0.5474 0.0477 -0.8355 197 187 195
130.2283 -5.3880 291.4330 -0.3421 -0.0156 -0.9395 236 236 238
111.2719 -5.3450 301.7030 -0.1503 -0.2430 -0.9583 85 86 92
99.2431 -5.6481 305.7334 -0.6192 0.0865 -0.7805 93 99 104
91.2583 -6.3245 335.7565 -0.2313 0.0575 -0.9712 66 73 82
84.9616 -6.2287 333.6253 -0.0448 0.6359 -0.7705 36 43 72
76.0057 -6.2552 342.6618 0.0714 0.0176 -0.9973 21 28 57
61.8705 -6.6300 348.8883 -0.6821 0.0060 -0.7313 255 255 253
36.6165 -7.0438 365.8510 0.4360 -0.1152 -0.8926 163 125 106
26.6533 -6.4286 342.4801 0.7629 -0.3710 -0.5294 180 147 129
22.0849 -6.1299 332.2841 0.7512 -0.2878 -0.5940 147 116 97
3.5696 -5.9278 323.8742 -0.0094 -0.3971 -0.9177 255 228 205
-43.4709 -5.6575 320.1354 -0.0648 -0.1482 -0.9868 241 206 195
-77.0577 -5.6440 312.5072 0.0680 -0.1076 -0.9919 231 200 192
-92.9491 -5.6554 303.7315 -0.3754 0.1426 -0.9158 204 173 158
-109.1450 -5.5806 293.7337 0.1395 -0.2497 -0.9582 255 255 235
-122.0713 -5.2167 292.3072 -0.0617 -0.0057 -0.9981 255 251 232
165.8130 -4.5389 270.4181 -0.3785 0.0685 -0.9231 192 190 193
156.1542 -4.7789 274.6172 -0.5081 0.0770 -0.8578 201 196 200
149.4738 -4.4701 279.3412 -0.2618 0.2015 -0.9439 186 87 105
133.3972 -4.7082 290.5193 -0.2797 -0.0097 -0.9600 241 242 246
122.0013 -4.9381 294.3397 -0.2807 -0.2541 -0.9255 220 221 225
114.7255 -4.7352 301.7509 -0.4424 -0.3705 -0.8167 96 99 98
90.5255 -5.1913 312.2403 -0.3209 0.0036 -0.9471 102 109 111
79.7525 -5.4685 343.3806 -0.2233 0.1805 -0.9579 44 52 88
56.4539 -6.1781 365.6325 -0.2131 -0.1688 -0.9623 255 255 239
40.2765 -6.0629 367.3472 0.0662 -0.1760 -0.9822 192 159 140
30.4775 -6.0023 347.6902 0.7336 -0.3220 -0.5984 183 150 129
7.0540 -5.0763 323.4563 0.0857 -0.4066 -0.9096 255 244 223
-11.0133 -5.3293 320.9147 0.1382 -0.5723 -0.8083 255 231 208
-28.6199 -5.4483 316.3165 -0.0253 -0.4598 -0.8877 255 233 218
-57.0850 -4.8318 315.5485 0.3036 -0.3281 -0.8945 251 215 195
-60.0246 -5.3475 314.8661 0.3204 -0.3916 -0.8626 255 233 211
-74.6172 -5.2043 313.3512 0.0169 -0.2688 -0.9630 231 198 191
-106.1832 -4.8794 294.3576 0.2135 -0.2022 -0.9558 255 241 226
-136.2076 -5.0935 293.1947 0.0338 -0.0910 -0.9953 255 255 252
-150.9385 -5.1163 295.3988 -0.2657 -0.1428 -0.9534 255 253 237
168.0568 -3.7772 270.0798 -0.4704 0.0344 -0.8818 255 255 255
158.8447 -4.0925 274.1871 -0.4084 0.0690 -0.9102 158 153 157
152.5569 -3.8088 279.3056 -0.3724 0.2610 -0.8906 182 86 102
142.3086 -4.0636 282.8728 -0.5440 -0.0477 -0.8378 194 189 191
124.4864 -4.0318 292.9781 -0.3270 -0.2521 -0.9108 154 156 160
101.3022 -4.4902 303.5510 -0.5908 0.0087 -0.8068 203 206 212
93.8864 -4.4807 311.3398 -0.3339 0.2176 -0.9171 99 103 108
64.3129 -5.0669 341.3730 -0.4777 -0.1288 -0.8690 42 56 94
60.3522 -5.3114 365.3176 -0.2891 -0.1917 -0.9379 255 255 255
44.1103 -5.1109 367.2159 -0.0710 -0.1940 -0.9784 210 179 162
10.6992 -4.3854 324.1981 0.2293 -0.4083 -0.8836 255 237 216
-7.6639 -4.6374 321.8068 0.2353 -0.4737 -0.8487 203 163 138
-25.2860 -4.7075 316.5439 0.2244 -0.4546 -0.8619 240 207 184
-39.9083 -4.6849 319.1524 -0.0206 -0.3630 -0.9316 246 211 200
-70.6888 -4.2595 311.6423 -0.0480 -0.5773 -0.8151 255 235 219
-103.1774 -4.2115 295.2960 0.4318 -0.1893 -0.8819 228 205 195
-119.1304 -4.4942 292.4476 -0.0514 -0.0546 -0.9972 255 255 242
-133.1393 -4.3762 293.1676 0.0226 -0.0491 -0.9985 255 255 241
-147.3118 -4.2833 294.2269 -0.2541 -0.1406 -0.9569 255 255 255
-161.2558 -4.1769 296.0909 0.3220 0.2876 -0.9020 142 130 123
160.2203 -3.1531 273.6847 -0.4606 0.0149 -0.8875 234 234 236
144.2862 -3.1718 281.1168 -0.3097 0.0267 -0.9505 214 214 216
135.3258 -3.7571 289.5513 -0.2282 -0.0570 -0.9719 199 203 207
104.2710 -3.6546 301.6918 -0.2976 -0.0082 -0.9546 117 119 121
82.3527 -4.1913 339.4244 -0.5783 0.3625 -0.7309 18 22 55
67.1944 -3.9142 339.2118 -0.1765 -0.1272 -0.9760 43 45 83
63.6053 -4.1139 362.4378 -0.6943 -0.2846 -0.6610 255 255 255
47.9574 -4.2407 367.1306 -0.1029 -0.1812 -0.9781 220 190 178
-4.2409 -4.0106 323.0015 0.2033 -0.3920 -0.8972 255 226 206
-22.1073 -4.0805 318.1612 0.3515 -0.5035 -0.7893 212 170 150
-36.4462 -3.7951 318.2056 -0.1471 -0.4256 -0.8929 255 246 234
-49.1630 -4.2598 331.2897 0.0000 0.0000 0.0000 255 255 241
-54.0665 -4.2201 316.9276 0.3426 -0.2791 -0.8971 232 192 171
-86.0468 -3.5559 297.6804 -0.5159 0.1552 -0.8425 206 185 172
-100.5747 -3.6770 296.4439 0.6618 -0.1906 -0.7250 172 151 140
-115.8229 -3.7451 292.5874 0.0215 -0.1414 -0.9897 255 255 251
-130.0034 -3.6720 293.2103 -0.0245 0.0127 -0.9996 255 229 209
-143.4762 -3.4181 293.0326 -0.1668 -0.0911 -0.9818 255 255 255
-160.3034 -3.8355 298.7760 -0.1747 0.0874 -0.9807 151 135 124
169.0942 -2.7683 267.9789 -0.4452 0.0434 -0.8944 231 228 229
154.1158 -2.8660 277.2979 -0.4648 0.3339 -0.8200 186 97 116
138.5022 -3.0716 289.1891 -0.2861 -0.1497 -0.9464 171 172 176
127.4026 -3.3049 292.5810 -0.3131 -0.2178 -0.9244 142 144 145
114.3781 -3.0372 298.5720 -0.5298 -0.4198 -0.7369 103 107 108
107.0710 -2.8440 301.5254 -0.0582 0.0408 -0.9975 183 188 186
95.3822 -3.2373 309.8029 -0.4864 0.3123 -0.8160 170 170 172
85.5273 -3.1847 336.6057 -0.5144 0.2418 -0.8227 37 44 85
70.9133 -3.1638 339.4463 0.1142 -0.1258 -0.9855 51 54 91
13.9628 -3.6196 324.4707 0.3344 -0.3828 -0.8612 242 216 191
-0.6680 -3.2104 323.4869 0.0572 -0.3618 -0.9305 247 202 181
-18.4635 -3.3716 319.3959 0.2154 -0.5917 -0.7769 207 160 167
-50.2973 -3.3317 316.5034 0.3780 -0.2184 -0.8997 220 179 166
-66.3488 -3.1310 310.0305 0.1186 -0.6655 -0.7370 255 247 231
-81.0633 -3.1291 312.8356 -0.0734 -0.4293 -0.9002 224 193 187
-96.5676 -2.9510 304.4710 0.5368 -0.0408 -0.8427 181 150 131
-98.5426 -3.2778 299.2981 0.7605 -0.1870 -0.6219 174 153 144
-112.7808 -3.0384 292.8705 0.1282 -0.1741 -0.9764 255 250 230
-126.5015 -2.8810 293.1298 -0.0566 0.0600 -0.9966 255 255 237
-155.9340 -2.8599 296.9845 -0.3339 -0.0623 -0.9406 240 224 209
162.4211 -2.3680 272.4964 -0.3436 0.0676 -0.9367 172 172 174
156.1753 -2.0389 276.1538 -0.4732 0.3730 -0.7981 198 116 132
146.9917 -2.4203 280.9192 -0.2683 0.0905 -0.9591 145 134 145
140.8668 -2.2251 286.5094 -0.4122 -0.2156 -0.8852 147 146 151
129.5415 -2.3470 290.6766 -0.2707 -0.1970 -0.9423 144 145 152
118.4293 -2.5592 294.6772 -0.2472 -0.3612 -0.8991 104 106 110
110.0465 -2.0801 300.7731 -0.2744 -0.1354 -0.9520 103 105 107
98.4591 -2.4213 306.9131 -0.6698 0.4050 -0.6223 172 174 175
74.7326 -2.4369 341.1206 0.1357 -0.0789 -0.9876 14 15 49
51.7140 -3.2944 366.4380 -0.1024 -0.1677 -0.9805 248 221 203
21.2955 -2.3915 329.6174 0.7689 -0.2276 -0.5975 188 164 145
17.6109 -2.9235 325.9985 0.5269 -0.3450 -0.7768 217 192 176
2.6681 -2.4533 323.4651 -0.0185 -0.3349 -0.9421 255 232 211
-15.0526 -2.4968 318.0163 0.0968 -0.6043 -0.7909 255 235 229
-32.7377 -2.8130 316.3062 -0.1952 -0.4276 -0.8826 255 255 245
-63.5606 -2.3800 310.3489 0.2920 -0.6067 -0.7394 255 250 233
-78.4870 -2.5595 312.8269 -0.0201 -0.4504 -0.8926 218 192 185
-93.8123 -2.3506 305.5017 0.0476 0.0785 -0.9958 187 155 139
-109.8805 -2.4304 293.4893 0.1693 -0.1960 -0.9659 255 252 233
-123.5651 -2.2376 293.7582 -0.0996 0.0681 -0.9927 255 255 255
-139.8134 -2.5977 292.9045 -0.0462 -0.0595 -0.9972 255 255 255
166.1380 -1.8345 271.7347 -0.2922 0.2065 -0.9338 212 209 215
133.0929 -1.7299 290.2993 -0.2226 -0.1942 -0.9554 204 206 208
120.7633 -1.6752 293.5146 -0.1859 -0.0835 -0.9790 185 184 189
88.2098 -2.1111 334.5565 -0.4023 0.1317 -0.9060 48 53 92
79.0714 -1.8663 343.1831 -0.0880 0.0053 -0.9961 21 27 59
55.4238 -2.2811 365.4084 -0.1832 -0.1619 -0.9697 255 245 225
39.0893 -2.1299 366.8811 0.0954 -0.1390 -0.9857 185 150 130
29.5811 -1.9556 343.9652 0.7809 -0.2669 -0.5648 183 152 133
25.4945 -2.2409 336.8002 0.8460 -0.2458 -0.4732 185 153 136
-11.7287 -1.7146 318.6181 0.2525 -0.4933 -0.8324 255 220 208
-29.2840 -1.9002 315.4200 -0.0966 -0.4511 -0.8872 244 216 191
-45.5143 -1.6066 305.5236 0.5468 -0.4328 -0.7168 255 255 255
-60.5391 -1.9120 312.8770 0.3529 -0.5907 -0.7257 255 238 216
-106.5069 -1.5919 293.4055 0.2173 -0.1688 -0.9614 255 226 207
-136.9522 -1.9286 293.0096 0.0150 -0.0486 -0.9987 255 255 235
-151.4638 -1.8861 295.1260 -0.3221 -0.0903 -0.9424 240 215 201
167.4509 -0.9184 270.2094 -0.4465 0.2246 -0.8662 236 233 236
158.8092 -1.3355 274.5781 -0.5199 0.3247 -0.7901 191 177 180
151.7708 -0.8377 279.6444 -0.2400 0.1215 -0.9631 178 90 111
141.1885 -0.9921 281.7550 -0.3240 -0.1260 -0.9376 156 155 160
135.2508 -0.8456 289.3613 -0.2068 -0.3542 -0.9120 134 139 139
123.7988 -0.9258 292.0730 -0.1786 0.0633 -0.9819 188 190 194
113.0737 -1.2630 299.3158 -0.4715 -0.3877 -0.7921 129 130 136
101.1439 -1.4803 306.2027 -0.6484 0.4448 -0.6179 8 12 18
92.7750 -1.0726 310.9421 -0.2491 0.1399 -0.9583 221 221 221
91.7317 -1.2965 334.6713 -0.1079 -0.0621 -0.9922 43 49 86
63.4326 -1.3317 343.3547 -0.6654 -0.0075 -0.7465 171 156 149
59.1985 -1.2580 364.1831 -0.4215 -0.2044 -0.8835 255 255 242
43.3119 -1.2805 367.2897 -0.0700 -0.2222 -0.9725 201 167 152
6.2193 -1.3658 321.2124 0.0690 -0.3086 -0.9487 255 232 211
-8.3985 -1.0876 319.7917 0.3708 -0.3694 -0.8521 232 200 186
-25.8944 -1.1217 314.9907 0.1679 -0.4250 -0.8895 255 249 227
-40.3886 -1.0338 317.1964 0.2564 -0.6032 -0.7553 226 189 179
-42.9057 -1.0245 308.6529 0.8441 -0.2869 -0.4529 246 210 191
-57.6773 -1.3469 313.7165 0.3447 -0.5575 -0.7553 253 219 199
-74.0790 -1.3850 310.4231 -0.1244 -0.6649 -0.7365 246 216 205
-103.5065 -0.9533 294.7400 0.3749 -0.1373 -0.9168 247 217 204
-119.9375 -1.3759 292.8239 -0.1339 -0.0011 -0.9910 255 255 240
-133.6499 -1.1623 292.8444 0.0357 -0.0298 -0.9989 255 255 240
-147.7686 -1.0479 294.1263 -0.2274 -0.0830 -0.9703 255 255 252
-163.1012 -1.1180 297.1780 -0.1034 -0.0707 -0.9921 94 79 73
160.6162 -0.4601 273.2180 -0.5202 0.0885 -0.8494 216 213 218
143.7031 -0.2106 281.8597 -0.1583 0.1393 -0.9775 208 208 210
103.1864 -0.4082 302.8497 -0.4824 0.3975 -0.7806 0 0 8
96.9741 -0.5408 313.0110 -0.3462 0.3318 -0.8775 77 76 79
82.1843 -0.8366 342.0083 -0.4522 0.0659 -0.8895 40 45 84
66.7704 -0.5011 340.6025 -0.3162 0.0676 -0.9463 10 20 55
9.8720 -0.6973 322.1085 0.1925 -0.2738 -0.9423 248 213 191
-4.8963 -0.4277 321.3165 0.3144 -0.2654 -0.9115 229 190 178
-22.6891 -0.4779 315.9598 0.3169 -0.4042 -0.8580 217 166 156
-37.1613 -0.3420 317.1098 -0.0070 -0.5281 -0.8491 245 217 209
-55.0732 -0.8257 314.8202 0.3094 -0.5554 -0.7719 215 176 162
-101.1149 -0.4259 296.2437 0.5569 -0.1287 -0.8206 216 197 185
-116.6313 -0.5680 292.3287 -0.0479 -0.0955 -0.9943 255 255 255
-130.7161 -0.4527 293.1822 0.0612 0.0110 -0.9981 255 250 233
-144.1642 -0.2295 292.9803 -0.1606 -0.0413 -0.9862 255 255 254
-161.4479 -0.6696 299.4102 -0.1954 -0.0557 -0.9792 153 133 130
169.1429 -0.0972 268.3729 -0.5347 0.2725 -0.7999 158 155 158
154.3726 -0.1179 279.0904 -0.2059 0.1835 -0.9612 208 124 134
143.4121 0.2119 286.3787 -0.3004 -0.4856 -0.8209 138 140 144
136.9065 0.1373 287.7297 -0.2396 -0.5304 -0.8132 111 110 113
125.4205 0.0997 290.8985 -0.2456 0.1280 -0.9609 113 117 120
114.2152 -0.0671 295.1938 -0.5750 -0.3275 -0.7497 33 36 44
107.1872 0.1540 302.7368 -0.2529 0.2395 -0.9374 122 123 127
99.5471 0.2240 313.1141 -0.4905 0.3728 -0.7877 255 255 255
84.9659 0.1939 338.5182 -0.6522 0.0102 -0.7580 9 11 44
70.3885 0.3176 340.6327 0.0386 0.0007 -0.9993 18 25 50
62.3209 -0.0757 361.8006 -0.7166 -0.2468 -0.6523 255 255 251
47.0133 -0.2213 365.5447 -0.0808 -0.2235 -0.9713 213 180 159
13.2149 0.0769 322.5343 0.2658 -0.2568 -0.9292 245 214 193
-1.4393 0.3665 321.5179 0.1152 -0.2385 -0.9643 255 221 204
-18.9241 0.2941 316.8283 0.1743 -0.4505 -0.8756 177 115 120
-67.3216 0.2917 307.5727 0.1739 -0.6812 -0.7112 255 247 231
-69.6268 -0.1482 306.8055 0.0192 -0.7037 -0.7102 255 242 221
-81.8986 0.2054 312.2581 -0.0844 -0.7226 -0.6861 168 157 131
-97.8979 0.2957 297.8818 0.7556 -0.1709 -0.6324 158 135 125
-113.0213 0.2243 291.6741 0.0933 -0.1143 -0.9891 255 255 249
-127.6110 0.2591 293.8675 -0.0010 -0.0150 -0.9999 255 246 230
-158.0672 0.1124 298.0845 -0.3383 -0.1081 -0.9348 201 180 169
172.1253 0.5081 269.0390 -0.0427 0.1417 -0.9890 220 218 221
166.3176 0.8912 272.5720 -0.2032 0.0678 -0.9768 193 188 192
162.5461 0.3632 272.6197 -0.2298 0.0016 -0.9732 113 110 118
156.8199 0.6518 278.3763 -0.3192 0.3230 -0.8910 188 92 106
146.2507 0.5494 281.4339 -0.2323 0.2133 -0.9490 212 209 213
128.0599 0.8940 289.7708 -0.2787 0.1288 -0.9517 212 211 214
110.4157 0.9050 302.6713 -0.4495 0.1208 -0.8851 23 23 25
73.8314 1.2007 340.3305 0.1231 -0.0707 -0.9899 12 18 50
50.7512 0.7098 365.3514 -0.0354 -0.1890 -0.9813 224 192 178
16.7642 0.7808 323.6481 0.4354 -0.2492 -0.8651 206 174 155
-33.4357 0.6055 315.5002 -0.1504 -0.4585 -0.8759 214 184 174
-94.3753 0.9690 306.2105 0.8309 -0.2301 -0.5067 180 147 129
-96.0160 0.6840 300.3794 0.6499 -0.1384 -0.7473 185 156 141
-110.0653 0.8987 292.8177 0.1754 -0.1295 -0.9759 255 249 231
-124.7090 0.8697 294.2931 -0.1093 -0.0264 -0.9937 255 255 248
-140.1808 0.6362 292.8064 -0.0623 -0.0103 -0.9980 255 255 252
159.7669 1.3277 277.3698 -0.4826 0.3447 -0.8051 134 40 58
149.9669 1.0861 281.3324 -0.3318 0.1926 -0.9235 197 184 191
120.3097 1.3194 294.5152 0.1391 0.0519 -0.9889 208 208 210
113.8545 1.5847 302.5407 -0.5874 -0.1375 -0.7976 62 59 63
102.0853 1.3282 308.2458 -0.6010 0.4592 -0.6542 149 149 149
87.4054 1.4344 334.1663 -0.5408 0.0027 -0.8411 35 42 81
54.6570 1.5614 365.4213 -0.1299 -0.1258 -0.9835 255 230 212
28.7630 1.8096 341.5312 0.8205 -0.1426 -0.5535 178 143 123
24.4855 1.5448 333.4348 0.8639 -0.1522 -0.4801 166 135 116
20.2401 1.3971 326.1460 0.6622 -0.2002 -0.7221 210 185 169
1.9351 1.2139 320.8441 -0.0257 -0.1656 -0.9859 255 227 208
-12.3574 1.7201 316.6720 0.2648 -0.3990 -0.8779 255 242 228
-15.7031 1.2605 316.1350 0.0747 -0.4641 -0.8826 255 229 231
-29.9345 1.5170 314.2765 -0.1149 -0.4742 -0.8729 249 220 203
-48.9671 1.2580 303.6088 -0.1596 -0.7362 -0.6577 255 255 255
-76.6349 1.5771 307.7739 -0.1486 -0.7608 -0.6318 229 201 190
-92.3685 1.3913 309.3271 0.8043 -0.2051 -0.5577 180 147 129
-107.1139 1.5687 293.3464 0.1835 -0.1653 -0.9690 255 236 219
-137.4499 1.2677 292.9455 -0.0228 -0.0263 -0.9994 255 255 241
-152.2575 1.2931 294.9708 -0.2958 -0.1131 -0.9485 240 215 203
167.6462 1.7516 272.2025 -0.3343 0.0692 -0.9399 218 215 219
140.5393 1.9854 281.7247 -0.0379 -0.1970 -0.9797 157 158 162
130.0407 1.8208 288.5058 -0.1127 0.2457 -0.9628 197 199 201
122.6605 2.2367 293.3511 -0.2707 0.4169 -0.8677 0 0 6
90.8894 2.2157 334.3767 -0.1105 -0.1470 -0.9829 17 19 48
77.6494 1.9750 340.9899 0.0832 -0.1293 -0.9881 29 35 68
62.8575 2.1139 348.2242 -0.7760 -0.0965 -0.6233 255 255 255
58.2151 2.6155 364.3013 -0.3837 -0.1260 -0.9148 255 232 216
42.3126 2.7081 365.5185 0.0635 -0.2585 -0.9639 201 168 150
32.2820 2.4297 344.7953 0.8131 -0.1056 -0.5725 185 153 136
5.4081 2.0058 320.8346 0.0113 -0.1139 -0.9934 255 228 211
-9.1768 2.4112 319.1719 0.4816 -0.2597 -0.8370 220 181 167
-26.4344 2.3589 313.5842 0.0919 -0.4689 -0.8785 255 255 242
-45.6459 2.0584 302.2410 0.3085 -0.7434 -0.5934 255 255 235
-60.5368 1.7964 308.3158 0.1608 -0.7354 -0.6583 255 238 219
-120.4417 1.8458 292.5796 -0.1553 -0.0422 -0.9870 255 255 245
-134.2800 2.0125 293.0635 0.0337 -0.0409 -0.9986 255 255 243
-148.4588 2.1321 293.9066 -0.2117 -0.0335 -0.9768 255 240 225
160.2523 2.3897 273.2988 -0.5626 0.2987 -0.7709 169 88 111
155.5990 2.5273 280.2856 -0.1131 0.0822 -0.9902 131 101 116
150.7451 2.1650 279.2771 -0.2457 0.0810 -0.9660 137 125 129
143.5080 2.6710 282.9576 0.0353 0.1151 -0.9927 127 126 129
133.3486 2.4841 286.6725 -0.1443 0.1253 -0.9816 99 103 108
126.9880 2.7339 294.3787 -0.3622 0.4950 -0.7898 33 35 41
107.8186 3.0564 305.3877 -0.2664 0.0416 -0.9630 4 1 4
81.4792 2.7618 341.6709 -0.2087 -0.0988 -0.9730 1 6 29
65.7625 3.1235 341.2713 -0.3520 0.0423 -0.9350 68 84 115
8.9520 2.7585 321.7716 0.1130 -0.0605 -0.9918 255 224 201
-5.6680 3.1162 320.2951 0.4159 -0.1254 -0.9007 198 162 147
-23.2559 3.0345 314.2400 0.3177 -0.4041 -0.8578 225 171 166
-41.0041 2.5595 312.4358 0.5873 -0.4493 -0.6732 174 125 116
-43.4052 2.4667 306.6076 0.8257 -0.3582 -0.4358 239 210 192
-57.2946 2.5730 307.9323 -0.0960 -0.8185 -0.5664 255 226 207
-72.6797 2.5322 303.4210 -0.0111 -0.6767 -0.7362 147 158 150
-101.5879 2.8574 295.2512 0.5434 -0.1449 -0.8269 235 207 196
-103.7759 2.3204 293.6038 0.3292 -0.1521 -0.9319 255 229 216
-117.0453 2.6058 292.0008 -0.0912 -0.0232 -0.9956 255 255 255
-130.9251 2.7823 293.1213 0.1257 -0.0247 -0.9918 255 248 233
146.9088 3.2589 283.4381 -0.1477 0.2510 -0.9566 57 51 58
112.2267 3.3274 296.3622 -0.4672 -0.3197 -0.8243 135 136 131
99.0295 3.4831 313.5379 -0.2595 -0.3309 -0.9073 220 220 218
84.7420 3.5702 341.8221 -0.6549 -0.1124 -0.7473 9 13 43
69.6474 3.8834 341.8322 -0.0377 0.1406 -0.9894 8 9 45
61.7077 3.6400 362.7816 -0.7601 -0.1212 -0.6384 255 255 241
45.8103 3.8017 364.1709 -0.0499 -0.1964 -0.9792 223 192 175
12.5422 3.5303 322.0995 0.2166 -0.0714 -0.9737 255 227 205
-2.1888 3.7987 321.3542 0.2016 -0.0462 -0.9784 211 175 160
-20.0792 3.7049 316.0349 0.2577 -0.3747 -0.8906 168 108 115
-37.3507 3.3709 313.8150 0.1414 -0.5596 -0.8166 190 148 137
-69.7391 3.2799 303.1428 0.1671 -0.5696 -0.8047 238 224 215
-98.9051 3.4531 297.0808 0.7073 -0.0717 -0.7033 209 183 174
-128.4135 3.3769 293.9157 0.0599 -0.0379 -0.9975 255 233 217
-145.1666 2.8991 293.4287 -0.1565 0.0134 -0.9876 255 255 244
160.6647 3.3977 271.3118 -0.2834 0.2556 -0.9243 149 81 109
157.3618 3.3962 279.2080 -0.1068 0.1395 -0.9844 124 108 109
134.0622 3.5834 282.5530 -0.4274 -0.5858 -0.6886 189 189 189
128.8780 3.6835 292.2504 -0.3987 0.4601 -0.7933 0 0 2
109.8623 4.0754 303.5732 -0.4826 -0.1772 -0.8577 59 57 53
49.7883 4.6452 364.3953 0.0004 -0.1165 -0.9932 231 201 188
15.9592 4.2694 322.8290 0.3675 -0.0576 -0.9282 229 202 186
-33.9697 4.1769 313.3473 -0.0797 -0.5387 -0.8387 171 143 134
-52.0789 3.8631 303.2362 -0.3245 -0.7676 -0.5528 255 255 249
-66.4168 3.9123 303.7714 0.1594 -0.6011 -0.7831 238 208 182
-82.6854 3.7909 299.5859 -0.0816 -0.6647 -0.7426 202 176 167
-96.3152 3.9876 300.0596 0.8221 -0.0900 -0.5622 199 169 157
-110.8243 4.0286 292.4068 0.1146 -0.0048 -0.9934 255 253 237
-113.2286 3.4560 291.0655 0.0274 0.0001 -0.9996 255 255 241
-141.7047 3.6765 293.0938 -0.1048 0.0025 -0.9945 255 255 249
-156.2678 3.7537 295.0923 0.0000 0.0000 0.0000 207 187 171
168.1741 4.4414 272.3730 -0.2908 -0.0102 -0.9567 158 155 158
164.1511 3.9722 271.3329 -0.2027 0.1114 -0.9729 187 184 185
159.7008 4.1264 278.6400 -0.3673 0.2219 -0.9032 155 146 149
147.3920 4.3621 280.5014 -0.3410 0.2565 -0.9044 137 134 137
131.5868 4.4560 292.2621 -0.1379 0.3962 -0.9077 3 0 5
86.4892 4.9974 334.0296 -0.6325 -0.0315 -0.7739 65 67 107
72.6506 4.9260 340.0433 -0.0809 0.0569 -0.9951 17 21 52
53.6930 5.5046 364.8859 -0.0517 -0.0320 -0.9981 230 200 185
19.4260 4.9408 324.8431 0.5893 -0.0797 -0.8039 188 164 145
1.1554 4.6667 321.1519 0.0020 0.0351 -0.9994 255 241 228
-16.4813 4.5481 315.4714 0.1297 -0.3652 -0.9218 255 255 255
-30.6115 4.9516 312.7495 -0.0722 -0.4941 -0.8664 234 204 203
-49.1043 4.7788 299.1682 -0.1483 -0.7729 -0.6170 255 255 255
-63.7917 4.6036 304.6548 0.0533 -0.7059 -0.7063 250 216 200
-80.0293 4.3181 302.7740 0.0256 -0.7237 -0.6897 194 167 151
-92.6969 4.7701 307.3629 0.5784 -0.3981 -0.7121 199 167 152
-94.5104 4.4125 303.3861 0.7919 -0.2209 -0.5693 189 157 143
-124.3047 4.2671 292.8390 -0.0970 -0.0272 -0.9949 255 255 248
-138.1167 4.4465 292.9215 -0.0783 -0.0422 -0.9960 255 255 252
-152.4893 4.5544 294.8282 -0.2393 -0.0231 -0.9707 228 201 194
162.3836 4.8769 276.5881 -0.6687 0.2962 -0.6820 180 175 177
150.7310 4.9832 280.2978 -0.3233 0.1272 -0.9377 22 21 28
140.7966 4.8325 283.0312 0.1572 -0.1068 -0.9818 69 71 73
134.8900 4.6285 281.7934 -0.1520 -0.2903 -0.9448 103 105 109
135.7657 4.9992 294.0413 0.2908 0.1807 -0.9396 111 115 118
123.8736 5.0129 296.1214 0.1017 -0.0198 -0.9946 107 108 103
91.9306 5.3842 312.4594 -0.6198 -0.5589 -0.5508 185 187 188
90.2557 5.7216 332.0952 -0.1217 -0.1919 -0.9738 115 116 122
76.5648 5.6482 340.0990 0.0068 -0.0329 -0.9994 41 52 85
61.4627 5.8823 347.6529 -0.8182 -0.1232 -0.5616 255 255 243
57.4617 6.4278 364.8081 -0.4151 -0.0667 -0.9073 255 226 209
41.5710 6.5650 365.2179 0.2739 -0.1017 -0.9564 204 170 152
37.3677 5.9892 359.9969 0.8005 0.0911 -0.5923 161 120 104
31.5021 6.1643 344.4707 0.8138 -0.0386 -0.5799 197 168 150
27.2828 5.6462 338.5593 0.8399 -0.0463 -0.5407 188 157 138
23.0281 5.5517 329.5938 0.8458 -0.0518 -0.5309 144 118 97
4.5938 5.3915 321.7924 -0.0162 0.0603 -0.9980 255 222 199
-12.9410 5.3865 314.2251 0.2751 -0.3099 -0.9101 255 255 255
-60.1322 5.4760 303.5226 -0.1032 -0.7778 -0.6200 255 255 237
-77.0054 5.0149 301.5130 0.0809 -0.5878 -0.8050 128 121 123
-107.9200 4.7124 292.9420 0.1350 -0.0412 -0.9900 255 237 218
-121.1048 5.0011 292.5245 -0.1654 0.0088 -0.9862 255 248 230
-134.9441 5.1813 292.9253 0.0114 -0.0872 -0.9961 255 255 239
-149.4834 5.2725 294.3328 -0.2201 0.0107 -0.9754 255 226 214
-150.8391 4.5942 294.9406 -0.1307 0.0523 -0.9900 255 235 219
169.0801 5.3772 269.9979 -0.4352 -0.0527 -0.8988 106 106 108
127.5338 5.6475 296.2403 -0.0687 -0.0539 -0.9962 90 83 81
109.5582 5.4853 298.4238 -0.6320 -0.3514 -0.6907 56 51 52
80.2820 6.4513 340.6892 -0.0350 -0.1000 -0.9944 22 26 56
65.1969 6.6916 341.2736 -0.2873 0.1469 -0.9465 90 95 132
8.1130 6.1781 321.9375 0.0621 0.0573 -0.9964 255 238 216
-9.9034 6.0906 316.0089 0.5164 -0.2227 -0.8269 217 168 159
-27.0375 5.9158 310.3813 0.0722 -0.4723 -0.8785 240 198 178
-41.1911 6.0635 310.9694 0.6162 -0.3478 -0.7066 161 118 105
-45.6883 5.6127 297.7984 0.1031 -0.7354 -0.6697 255 252 231
-73.4399 5.9265 301.4642 0.0236 -0.4735 -0.8805 167 156 155
-104.4533 5.4750 292.9498 0.2891 -0.0616 -0.9553 255 241 224
-118.0234 5.7185 292.4928 -0.1136 0.0741 -0.9908 255 255 255
163.0145 5.8528 275.1264 -0.3956 0.2747 -0.8764 139 134 138
151.4165 5.9781 277.9987 -0.1543 0.1242 -0.9802 54 56 62
146.6684 6.2315 283.9338 -0.1288 0.0576 -0.9900 19 20 29
141.9353 5.7999 282.3596 0.0916 0.1028 -0.9905 42 41 48
112.1777 6.2564 295.5921 -0.3916 -0.2876 -0.8740 24 21 26
105.3955 6.5827 305.4144 -0.4187 -0.0563 -0.9064 105 107 111
93.7767 6.4413 308.9082 -0.0675 -0.4784 -0.8756 32 39 39
83.6995 7.2535 340.6951 -0.5081 -0.2339 -0.8289 81 92 111
69.1596 7.4338 342.2436 0.0083 0.2783 -0.9605 28 36 68
60.7269 7.4997 363.2715 -0.7441 -0.1109 -0.6588 255 237 220
45.1219 7.6088 364.4605 -0.0403 -0.0559 -0.9976 217 185 171
11.5922 6.9960 322.1945 0.1603 0.0359 -0.9864 245 208 184
-3.0015 7.1674 321.9143 0.3693 -0.0309 -0.9288 208 169 157
-6.4967 6.6322 319.7013 0.5437 -0.1305 -0.8291 197 163 147
-23.8528 6.6325 310.9457 0.3137 -0.3981 -0.8620 255 229 214
-37.8752 6.8662 311.5456 0.2327 -0.4393 -0.8677 194 161 154
-42.7614 6.3089 298.3926 0.4444 -0.6400 -0.6269 244 214 199
-56.6146 6.3539 301.3744 -0.2404 -0.7693 -0.5920 255 255 236
-70.7264 6.4454 302.0051 0.0773 -0.4377 -0.8958 156 201 188
-101.5646 6.1612 294.2020 0.5034 -0.0621 -0.8618 239 209 196
-114.5708 6.4972 292.2647 -0.0112 0.1203 -0.9927 255 255 239
-131.2302 5.9935 292.9524 0.1581 -0.0854 -0.9837 255 245 229
-145.4577 6.1271 293.4172 -0.1628 0.0252 -0.9863 255 254 237
165.3988 6.5840 273.3551 -0.3023 0.0599 -0.9513 86 87 93
155.2326 6.5405 277.8268 -0.0258 0.0692 -0.9973 74 75 82
98.1805 6.9635 309.1790 -0.1104 -0.5231 -0.8451 111 115 116
89.0790 7.5957 319.5375 -0.5693 -0.6546 -0.4975 0 0 6
48.8451 8.5191 364.4215 0.0342 0.0145 -0.9993 235 206 191
14.9701 7.7330 322.7831 0.3512 0.0546 -0.9347 226 198 175
0.4382 7.9197 322.1136 0.1276 0.0417 -0.9909 255 225 207
-20.7883 7.2204 313.8573 0.3326 -0.3142 -0.8892 179 127 124
-34.5679 7.6412 310.8864 -0.0088 -0.4512 -0.8924 175 142 135
-52.9520 7.2752 297.3882 -0.2770 -0.7202 -0.6361 255 255 255
-67.3298 7.2776 301.9766 -0.0125 -0.5429 -0.8397 255 240 221
-83.7335 7.0236 299.5859 -0.4161 -0.4158 -0.8086 235 241 233
-97.3035 7.1624 299.8252 0.7394 -0.1190 -0.6626 196 171 159
-99.2103 6.7230 295.7868 0.6787 -0.0757 -0.7305 217 190 179
-129.2777 6.5278 293.5622 0.0885 -0.0078 -0.9960 255 246 228
-142.6121 6.7998 293.6321 -0.1227 -0.0067 -0.9924 255 255 253
-157.6891 6.8570 295.8672 -0.2977 -0.0013 -0.9547 193 168 153
158.8251 7.1294 278.3425 -0.2500 0.0712 -0.9656 57 56 61
148.9005 7.0011 283.7460 -0.2894 -0.0906 -0.9529 0 0 4
136.5307 7.8754 296.1188 0.3168 -0.3836 -0.8674 59 60 69
100.9243 7.8266 306.2650 -0.1240 -0.3518 -0.9278 175 180 178
71.9635 8.4718 341.9437 -0.2343 0.1202 -0.9647 20 25 55
52.7302 9.4154 364.4771 0.0066 0.0674 -0.9977 239 209 194
18.6268 8.4732 324.2505 0.5792 0.1082 -0.8080 212 185 169
-17.1845 7.9002 314.3479 0.2031 -0.2698 -0.9412 238 192 194
-80.3490 7.6408 299.5859 0.0864 -0.2349 -0.9682 198 170 159
-94.8888 7.7478 302.4195 0.7295 -0.2543 -0.6349 204 173 158
-111.5402 7.1925 292.4278 0.0811 0.1486 -0.9856 255 248 230
-125.5274 7.3375 293.6588 -0.0516 0.0404 -0.9979 255 252 234
-138.7993 7.6300 292.5139 -0.1182 -0.0239 -0.9927 255 255 248
-154.0750 7.6284 295.8175 -0.1851 0.1004 -0.9776 169 141 128
166.3680 7.4669 271.9439 -0.3194 -0.0728 -0.9448 145 144 152
151.7267 7.7228 282.4605 -0.2239 -0.0751 -0.9717 23 24 30
140.3502 7.7771 283.4252 0.0802 0.0092 -0.9967 34 36 40
90.0491 8.8493 309.8135 -0.1789 -0.0132 -0.9838 154 158 159
75.9446 9.2018 340.4081 -0.1778 0.0754 -0.9812 40 44 75
61.0767 9.3273 349.7681 -0.7981 -0.2027 -0.5675 255 249 231
56.7955 10.2446 365.0497 -0.2888 0.0422 -0.9565 250 225 210
36.1749 10.0045 356.3380 0.8056 0.2874 -0.5181 163 122 108
26.6357 9.3075 337.4358 0.8477 0.0359 -0.5293 168 134 114
22.1827 9.0935 327.9995 0.7615 0.1301 -0.6350 183 159 142
3.8106 8.8331 321.7710 -0.0092 0.0748 -0.9972 255 221 201
-13.8141 8.8473 313.5390 0.2473 -0.1680 -0.9543 255 238 239
-31.1125 8.5284 309.6763 -0.0338 -0.3438 -0.9384 176 139 127
-48.9987 8.3233 294.0460 -0.1248 -0.6862 -0.7166 255 255 255
-63.8866 8.0953 301.1664 -0.0891 -0.6567 -0.7489 255 253 230
-91.9293 8.4052 304.3118 0.3559 -0.3656 -0.8601 201 169 155
-108.3324 7.9316 292.3750 0.1143 0.1934 -0.9744 255 249 235
-121.9399 8.1257 292.9189 -0.1328 0.0829 -0.9877 255 255 241
167.9966 8.2658 270.4317 -0.2597 -0.2294 -0.9380 104 101 106
160.0568 8.0115 277.3369 -0.6779 0.0730 -0.7315 50 49 56
153.2026 8.6002 280.0250 -0.0794 -0.0869 -0.9930 16 15 22
142.8095 8.5516 284.1747 0.1099 -0.2080 -0.9719 57 56 63
79.3095 10.0750 339.3136 0.1013 -0.2468 -0.9638 219 223 228
64.2541 10.3168 341.7172 -0.2862 0.0287 -0.9577 13 16 54
40.1948 10.6128 364.6388 0.2644 0.1160 -0.9574 181 144 122
30.4220 9.9792 342.7586 0.8205 0.0101 -0.5715 195 166 148
7.3337 9.6156 321.7469 0.0086 0.0665 -0.9977 202 167 144
-10.6374 9.5146 314.6671 0.4907 -0.0585 -0.8694 246 198 182
-27.6881 9.3297 309.6332 0.0222 -0.2616 -0.9649 249 214 205
-45.9114 9.0120 293.8277 0.1249 -0.6614 -0.7396 255 255 244
-60.2152 8.9594 298.4341 -0.1993 -0.7025 -0.6832 255 255 251
-74.4985 9.0902 300.8870 -0.0156 -0.2891 -0.9572 252 231 233
-75.5346 8.8602 298.7965 0.1176 -0.1790 -0.9768 71 81 60
-89.2756 9.0508 305.1975 -0.2363 -0.2870 -0.9283 219 189 179
-104.6500 8.7068 292.3437 0.2056 0.2149 -0.9547 255 248 230
-118.9135 8.8306 293.0596 -0.1011 0.0985 -0.9900 255 255 247
-135.2281 8.4047 291.9452 -0.0459 -0.0522 -0.9976 255 221 204
-150.3177 8.4532 294.7569 -0.2383 0.0358 -0.9705 240 215 203
161.9758 8.7819 274.9854 -0.6253 -0.0338 -0.7797 74 74 77
146.6068 9.1446 284.3581 -0.0404 -0.4131 -0.9098 64 68 74
135.9799 9.0879 288.1088 -0.3226 -0.6073 -0.7260 24 27 33
125.3748 9.0309 293.6861 -0.2496 -0.5928 -0.7657 128 126 127
111.6912 9.3096 294.8185 -0.4363 0.2072 -0.8756 146 148 152
104.5917 9.8239 306.5557 -0.2243 0.2265 -0.9478 67 74 76
92.6408 9.7336 308.6568 -0.1440 0.0426 -0.9887 101 102 106
82.5131 10.9708 339.8922 -0.3179 -0.2483 -0.9150 106 105 110
68.4212 11.0482 343.1418 0.1156 0.2133 -0.9701 25 30 58
60.2337 11.2565 363.5483 -0.7349 -0.1280 -0.6660 252 223 205
44.2109 11.4886 364.6098 -0.0261 0.0635 -0.9976 224 194 179
10.6801 10.4597 321.7194 0.1204 0.0570 -0.9911 255 227 208
-7.1784 10.0874 317.7046 0.6068 -0.0570 -0.7928 166 133 124
-24.4536 10.0283 309.7957 0.2748 -0.1836 -0.9438 232 181 146
-42.8680 9.6831 294.7455 0.4953 -0.5428 -0.6783 253 223 208
-71.0095 9.8401 301.1775 -0.1028 -0.3498 -0.9312 255 255 243
-102.2939 9.2893 293.7406 0.3108 0.1994 -0.9293 254 225 207
-131.9442 9.1484 292.2999 0.1174 -0.0486 -0.9919 255 252 235
-146.3026 9.2744 293.5447 -0.1692 0.0466 -0.9845 255 238 222
170.9348 8.8831 271.0619 0.1104 -0.0766 -0.9909 60 57 62
164.2742 9.5068 273.8110 -0.4951 -0.2557 -0.8303 111 108 111
156.5944 9.2305 280.3238 0.0996 -0.0945 -0.9905 82 84 88
148.9624 9.8792 284.7072 0.0000 0.0000 0.0000 148 147 152
115.0571 9.9986 294.6359 -0.2502 0.3535 -0.9014 192 194 195
72.9225 11.7034 345.2305 -0.1589 0.0904 -0.9832 29 37 59
48.0456 12.3650 364.9673 0.0369 0.0943 -0.9949 233 205 192
14.1967 11.1713 322.8510 0.3287 0.1063 -0.9384 238 212 193
-3.6812 10.7262 320.9981 0.4969 -0.0401 -0.8669 204 167 157
-21.1748 10.8008 310.7737 0.4108 -0.0817 -0.9081 193 132 132
-38.0503 10.3582 308.9352 0.3363 -0.4678 -0.8173 191 155 149
-40.2351 10.2883 297.4009 0.7224 -0.4559 -0.5199 214 181 170
-56.6565 9.8508 296.2411 -0.2620 -0.6101 -0.7477 255 255 255
-99.8418 9.9059 295.5448 0.4878 0.0476 -0.8716 230 199 189
-112.8764 10.2263 293.1447 0.0777 0.1586 -0.9843 255 252 231
-115.2167 9.6185 292.8911 -0.0328 0.0823 -0.9961 255 255 249
-129.5068 9.7669 293.3216 0.1551 0.0050 -0.9879 255 255 239
-143.0965 10.0035 293.6255 -0.1291 0.0344 -0.9910 255 237 219
167.1426 10.1695 271.5396 -0.3548 -0.2974 -0.8864 53 47 56
