ply
format ascii 1.0
element vertex 802
property float x
property float y
property float z
property float nx
property float ny
property float nz
property uchar red
property uchar green
property uchar blue
end_header
150.5358 27.0624 334.9606 -0.6543 0.1816 -0.7341 47 47 72
138.6465 27.3340 342.2550 -0.5058 0.2987 -0.8093 63 66 90
115.4167 28.7903 354.2885 -0.5211 0.4113 -0.7478 31 33 48
100.1873 31.4657 388.5681 -0.6332 0.2173 -0.7428 255 246 225
84.1846 31.8756 394.3562 -0.0935 0.5554 -0.8263 255 227 204
67.3659 32.2715 397.7771 -0.0695 0.5246 -0.8485 254 219 195
29.0277 28.6228 351.3686 0.0047 0.5735 -0.8192 247 212 190
13.2355 28.9525 352.8406 0.1399 0.5146 -0.8460 233 201 189
-6.4546 28.3896 347.6145 -0.1948 0.4571 -0.8678 241 211 199
-25.5569 27.8297 343.6625 -0.2082 0.6415 -0.7383 255 255 230
-78.3716 27.0365 338.4606 0.3838 0.1136 -0.9164 242 218 211
-93.2943 27.3301 337.1288 -0.1654 0.1132 -0.9797 255 255 238
-126.1846 27.9399 343.0524 -0.3478 0.2288 -0.9092 245 224 215
181.0399 26.2955 311.8305 -0.4231 0.4927 -0.7604 45 45 70
171.1612 26.5420 318.5931 -0.4232 0.3868 -0.8193 75 75 102
161.1328 26.8002 326.5862 -0.5578 0.2006 -0.8054 80 84 105
152.9484 27.8708 332.5911 -0.6298 0.1640 -0.7592 55 56 80
141.6060 28.1653 340.7428 -0.4044 0.2411 -0.8822 62 63 87
128.9281 28.4669 347.5966 -0.3616 0.4564 -0.8130 46 52 73
118.8398 29.6364 352.9937 -0.4499 0.4434 -0.7753 49 51 69
103.6172 32.3727 386.0304 -0.6769 0.0921 -0.7303 255 239 218
88.3762 32.8211 394.1782 -0.1716 0.5352 -0.8271 255 227 204
71.3892 33.2185 396.9055 -0.1538 0.4964 -0.8544 255 227 205
32.8413 29.4849 352.3737 0.1660 0.6538 -0.7382 250 218 192
17.1090 29.8131 353.6881 -0.0217 0.4288 -0.9031 253 217 200
-2.7409 29.2403 346.9840 -0.0147 0.5134 -0.8580 218 193 179
-18.6416 29.5607 347.9497 0.1967 0.5184 -0.8322 255 226 204
-22.0870 28.6901 344.1578 0.0784 0.6019 -0.7947 255 255 246
-37.8496 28.9966 346.9971 0.2058 0.5640 -0.7997 255 239 218
-72.0526 28.7194 342.8726 0.6514 0.1433 -0.7451 212 191 179
-75.1436 27.8691 340.0527 0.5674 0.1297 -0.8132 218 198 186
-89.2818 28.1539 335.9778 -0.1266 0.1332 -0.9830 255 255 233
-108.8420 27.6268 337.9645 -0.2079 0.1726 -0.9628 255 251 233
173.9052 27.3144 317.6808 -0.3288 0.4527 -0.8288 33 33 60
163.6232 27.5947 325.0478 -0.5012 0.2959 -0.8132 56 56 86
145.0635 28.9930 340.4397 -0.4347 0.1854 -0.8813 123 127 146
132.1956 29.3093 346.5400 -0.3723 0.4388 -0.8178 60 63 87
111.7572 30.9152 368.9025 -0.1393 -0.1113 -0.9840 255 221 199
92.3987 33.7816 394.1328 -0.2924 0.4916 -0.8202 255 235 210
75.4116 34.1780 396.6103 -0.1242 0.5394 -0.8328 255 226 202
46.0926 32.2699 368.7490 0.5779 0.6994 -0.4205 206 177 162
41.1170 31.2729 358.9738 0.5692 0.7100 -0.4146 206 172 156
36.7566 30.3552 354.0211 0.4032 0.6837 -0.6083 240 207 184
20.8645 30.6723 353.2457 -0.0448 0.4453 -0.8943 239 204 182
0.9590 30.0948 347.1681 0.2534 0.5236 -0.8134 207 175 159
-14.9524 30.4278 350.1021 -0.0225 0.3283 -0.9443 244 207 194
-34.5602 29.8770 350.6565 0.0605 0.4106 -0.9098 255 228 211
-68.6905 29.5623 345.8202 0.5209 0.0782 -0.8500 208 180 169
-105.1490 28.4599 337.7838 -0.0802 0.2050 -0.9755 255 251 233
-122.0104 28.7736 341.8182 -0.3459 0.1809 -0.9207 255 249 232
-137.4617 30.0073 350.3484 -0.4117 0.4050 -0.8164 217 205 195
184.1350 27.0490 311.7678 -0.3360 0.4959 -0.8007 56 57 82
176.6759 28.0837 316.8859 -0.3841 0.5060 -0.7723 20 20 47
166.1688 28.3763 323.3160 -0.5022 0.3829 -0.7754 45 45 72
155.2885 28.6738 330.2170 -0.5235 0.2084 -0.8262 50 51 76
135.5232 30.1485 345.9094 -0.4684 0.3706 -0.8020 45 45 70
121.9367 30.4809 351.1696 -0.3859 0.4523 -0.8041 60 59 82
106.9163 33.2618 383.2145 -0.7019 -0.1361 -0.6991 255 228 207
79.4350 35.1255 395.8628 -0.1012 0.5620 -0.8209 255 231 208
57.8064 34.5142 395.1864 0.4355 0.6653 -0.6064 221 189 172
51.3492 33.3182 378.4666 0.6838 0.6470 -0.3374 210 180 165
24.6545 31.5359 353.6876 0.0082 0.4917 -0.8707 255 229 207
4.6488 30.9757 350.3013 0.3912 0.4288 -0.8143 221 189 175
-30.7976 30.7334 350.4670 -0.1144 0.2616 -0.9584 240 205 192
-85.7031 28.9813 335.9132 0.0178 0.1609 -0.9868 255 230 215
-101.5232 29.2876 338.0906 0.0113 0.2339 -0.9722 255 254 237
-118.0661 29.6128 341.1527 -0.2996 0.1851 -0.9359 255 255 239
187.0987 27.7979 311.3810 -0.3532 0.4675 -0.8104 59 57 83
158.2308 29.4671 329.2319 -0.4705 0.2836 -0.8356 91 92 112
148.0237 29.8060 339.0659 -0.5735 0.1627 -0.8029 32 32 57
125.3452 31.3274 350.3945 -0.3730 0.4505 -0.8111 58 59 82
111.8619 31.7004 357.2453 -0.7063 0.4243 -0.5667 37 35 49
110.0754 34.1513 380.7002 -0.7416 -0.4145 -0.5274 255 231 207
96.3180 34.7034 392.8976 -0.4997 0.3807 -0.7780 255 245 222
62.5631 35.5635 399.7397 0.0618 0.6324 -0.7722 242 209 188
8.5071 31.8772 354.3809 0.3455 0.2980 -0.8899 164 122 116
-11.0933 31.2779 349.9412 -0.1421 0.2332 -0.9620 251 217 202
-26.7662 31.5800 348.8250 -0.1331 0.3561 -0.9249 237 203 192
-46.1010 31.0025 346.5744 -0.2035 0.4671 -0.8605 227 206 195
-82.3338 29.8132 336.5595 0.1739 0.1785 -0.9685 244 218 211
-98.0046 30.1195 338.3058 -0.0921 0.2314 -0.9685 255 249 229
-114.1017 30.4440 340.4147 -0.2892 0.2066 -0.9347 255 255 241
-132.1678 30.8176 346.7679 -0.4097 0.3176 -0.8551 207 191 178
189.3003 28.5415 309.7899 -0.4038 0.4354 -0.8046 46 45 68
179.5015 28.8391 316.0117 -0.4833 0.5094 -0.7120 53 53 80
168.3673 29.1410 321.0162 -0.4887 0.4605 -0.7410 72 73 98
160.7082 30.2537 327.4320 -0.5121 0.3003 -0.8047 26 26 53
149.9687 30.6034 335.6062 -0.6539 0.1913 -0.7320 49 49 77
138.1892 30.9530 343.1177 -0.5650 0.2940 -0.7709 88 89 111
128.7086 32.1671 349.4731 -0.3871 0.4158 -0.8229 24 30 50
115.2623 32.5587 356.3324 -0.5529 0.4954 -0.6700 69 70 92
99.7983 35.6077 390.5880 -0.7205 0.1756 -0.6709 255 243 221
83.7802 36.1020 396.8905 -0.1168 0.5761 -0.8090 255 223 197
66.7102 36.5319 399.8164 -0.1518 0.5712 -0.8067 255 228 205
32.2812 33.2884 355.3678 0.2962 0.6315 -0.7166 241 208 185
28.3934 32.3969 353.6220 0.1312 0.5626 -0.8162 241 201 180
12.4907 32.7610 355.9099 0.1657 0.2020 -0.9653 217 185 175
-7.3344 32.1270 349.1383 -0.0965 0.2362 -0.9669 255 235 216
-23.1744 32.4488 349.6983 0.1042 0.3846 -0.9172 242 203 189
-42.5533 31.8601 347.1584 -0.0069 0.4560 -0.8899 247 220 202
-79.0289 30.6519 337.7211 0.3162 0.1827 -0.9309 238 214 206
-93.9977 30.9358 336.7758 -0.1777 0.2366 -0.9552 255 255 255
-127.6377 31.6466 344.7021 -0.4085 0.2335 -0.8824 218 206 194
182.0681 29.5932 314.9186 -0.4629 0.4772 -0.7470 53 56 80
170.8770 29.9042 319.4565 -0.4070 0.5132 -0.7556 58 59 86
152.3692 31.3914 333.1795 -0.5920 0.3078 -0.7448 55 56 80
141.1270 31.7765 341.7552 -0.4784 0.2652 -0.8372 47 48 70
118.6407 33.3931 354.8941 -0.4471 0.5237 -0.7252 75 76 96
102.8443 36.4611 386.7758 -0.7734 0.0006 -0.6339 255 245 222
87.8192 37.0499 396.4721 -0.1979 0.5313 -0.8237 255 233 210
70.8117 37.4820 399.1718 -0.1537 0.5488 -0.8217 255 233 210
41.1037 35.2705 367.2424 0.5857 0.6961 -0.4151 197 169 154
36.3492 34.2168 358.6431 0.5143 0.6801 -0.5225 221 189 172
16.2845 33.6296 356.0105 0.0725 0.2396 -0.9682 230 198 186
-3.5900 32.9861 349.3228 0.0837 0.3053 -0.9486 231 211 195
-19.6168 33.3386 351.6020 0.0892 0.2143 -0.9727 236 197 185
-35.5194 33.6313 350.8931 0.0499 0.3234 -0.9449 255 222 202
-39.1073 32.7547 349.4839 0.1438 0.4005 -0.9049 255 255 242
-75.5214 31.4879 338.2006 0.5480 0.2150 -0.8084 216 196 189
-90.2437 31.7580 336.5959 -0.1542 0.2492 -0.9561 255 250 227
-109.8637 31.2587 338.5386 -0.2263 0.2336 -0.9456 255 255 236
-123.1853 32.4654 342.7249 -0.3526 0.2230 -0.9088 255 248 231
-139.9183 33.8398 354.1894 -0.3604 0.3638 -0.8589 218 210 206
184.7630 30.3398 314.0190 -0.3765 0.4477 -0.8111 0 0 18
174.0368 30.6693 319.1620 -0.3042 0.5190 -0.7988 29 30 55
163.3403 31.0295 325.9213 -0.4566 0.3699 -0.8091 76 74 100
144.3026 32.5921 340.7838 -0.4649 0.2404 -0.8521 60 60 85
132.0156 32.9966 348.4288 -0.4291 0.3925 -0.8135 18 21 47
110.8547 34.8297 369.2570 -0.7168 0.2211 -0.6613 88 60 49
91.8813 38.0166 396.6799 -0.3289 0.4631 -0.8231 255 237 212
75.0585 38.4584 399.6468 -0.0896 0.5694 -0.8172 255 228 203
57.6268 38.8720 400.8021 0.1301 0.6786 -0.7229 231 195 175
51.6340 37.5929 388.1361 0.6570 0.6556 -0.3722 214 182 166
45.9549 36.3459 375.4400 0.5931 0.6944 -0.4074 206 174 157
20.0272 34.4896 355.6327 0.0454 0.3219 -0.9457 236 203 184
0.1979 33.8616 350.4801 0.2748 0.2990 -0.9138 227 199 188
-15.8633 34.1958 351.4128 -0.0399 0.1642 -0.9856 235 196 184
-69.6806 33.2757 346.1264 0.4177 0.1488 -0.8963 209 183 172
-72.6127 32.3665 341.8125 0.6263 0.2330 -0.7440 199 176 163
-106.1163 32.0846 338.2017 -0.0707 0.2982 -0.9519 255 251 234
187.7310 31.0855 313.5620 -0.3606 0.4268 -0.8293 47 48 70
177.2060 31.4444 319.2652 -0.3575 0.4952 -0.7918 63 63 93
166.3217 31.8037 325.0638 -0.4046 0.4637 -0.7882 57 55 78
154.9499 32.1748 331.3516 -0.5015 0.3792 -0.7776 95 95 118
135.2648 33.8276 347.4546 -0.4934 0.3831 -0.7809 102 106 127
122.0262 34.2338 353.8297 -0.4250 0.4997 -0.7548 29 30 53
112.2372 35.5659 361.3731 -0.6783 0.3876 -0.6242 64 66 86
105.9401 37.3083 383.2358 -0.8024 -0.3058 -0.5125 255 241 220
95.7653 38.9366 395.3949 -0.5817 0.3167 -0.7492 255 247 223
79.2473 39.4273 399.8129 -0.0922 0.5767 -0.8117 255 235 211
62.1314 39.9047 403.0584 -0.0362 0.6653 -0.7457 238 204 176
23.8405 35.3610 355.9870 0.1000 0.4120 -0.9057 249 214 194
3.9215 34.7523 352.1283 0.3655 0.2464 -0.8976 210 183 168
-31.6534 34.4910 350.8665 -0.0577 0.2254 -0.9726 255 230 214
-47.4238 34.7856 350.3985 -0.1143 0.4266 -0.8972 227 208 201
-66.4975 34.1640 348.9490 -0.1848 0.1262 -0.9746 226 197 189
-86.7265 32.5880 336.7484 -0.0543 0.2790 -0.9588 255 240 221
-102.4832 32.9127 338.4759 0.0024 0.3322 -0.9432 255 254 237
-119.2135 33.2879 342.0786 -0.2895 0.2335 -0.9283 255 255 244
179.9673 32.1971 318.3342 -0.5037 0.4326 -0.7478 39 39 66
168.8975 32.5642 323.4898 -0.4389 0.5119 -0.7385 78 78 106
157.8020 32.9589 330.1053 -0.4580 0.4328 -0.7765 49 49 79
146.9624 33.3808 338.5767 -0.5209 0.2741 -0.8084 87 91 110
138.0760 34.6267 345.2463 -0.5978 0.3242 -0.7332 56 57 80
125.5089 35.0766 353.0973 -0.4151 0.4828 -0.7711 92 93 116
83.5449 40.4092 400.3922 -0.1578 0.5622 -0.8118 255 236 213
27.7017 36.2318 356.3389 0.2689 0.5353 -0.8007 241 208 187
7.6715 35.6622 354.3799 0.3563 0.1575 -0.9210 205 169 154
-12.0467 35.0400 350.4881 -0.1083 0.1294 -0.9857 248 214 200
-27.7060 35.3255 349.8596 -0.0488 0.2132 -0.9758 251 217 204
-83.2110 33.4205 336.9192 0.0948 0.2869 -0.9533 255 228 217
-98.9370 33.7491 338.6663 -0.1026 0.3444 -0.9332 255 255 235
-115.3041 34.1117 341.3306 -0.2765 0.2512 -0.9276 255 255 246
-133.6666 34.5815 348.2337 -0.4936 0.1886 -0.8490 187 177 171
189.9485 31.8156 311.9025 -0.4084 0.3839 -0.8281 25 26 48
160.5448 33.7338 328.7740 -0.4897 0.4492 -0.7473 65 66 89
149.6168 34.1661 336.6244 -0.5570 0.3506 -0.7529 21 22 45
128.8109 35.9062 351.9617 -0.4144 0.4522 -0.7898 82 82 107
115.3941 36.3883 359.3536 -0.5521 0.4954 -0.6706 73 77 96
107.6693 37.9776 374.8796 -0.8100 -0.1934 -0.5536 255 226 200
99.0888 39.7818 392.0505 -0.7811 0.1528 -0.6054 255 237 212
66.1494 40.8435 402.0721 -0.1735 0.6156 -0.7688 255 224 199
31.7913 37.1838 359.6552 0.4511 0.5922 -0.6677 238 207 188
11.6135 36.5459 355.4447 0.2407 0.1119 -0.9641 198 159 145
-8.2274 35.8776 349.8262 0.0148 0.2221 -0.9749 242 208 194
-23.9928 36.1905 349.9711 0.0352 0.1962 -0.9799 255 224 209
-43.6989 35.6380 349.7427 0.0135 0.4050 -0.9142 229 203 195
-61.9858 34.9232 342.9669 -0.4223 0.0940 -0.9016 128 129 124
-79.9799 34.2793 338.4353 0.2279 0.3005 -0.9262 242 220 214
-95.1747 34.5694 337.9821 -0.1716 0.3332 -0.9271 255 255 238
-129.6632 35.4153 347.9229 -0.4037 0.1722 -0.8986 230 211 201
192.9099 32.5605 311.5945 -0.4107 0.3778 -0.8299 36 34 57
182.2934 32.9309 316.6959 -0.5179 0.4045 -0.7537 58 56 80
171.5631 33.3203 322.2312 -0.4119 0.5445 -0.7307 63 63 93
152.3314 34.9455 334.8839 -0.5349 0.4465 -0.7173 107 108 133
140.8270 35.4202 343.2193 -0.5489 0.3453 -0.7612 89 90 112
131.8008 36.7158 350.1023 -0.4526 0.4192 -0.7870 70 72 99
118.7421 37.2271 358.0334 -0.4595 0.5234 -0.7176 48 49 71
102.0989 40.5765 387.5820 -0.8451 -0.1468 -0.5140 255 236 210
87.5220 41.3541 399.7174 -0.2494 0.5134 -0.8211 255 236 214
70.2780 41.8053 401.9039 -0.1507 0.6117 -0.7766 255 231 205
52.1943 42.1115 399.1936 0.3708 0.7169 -0.5904 237 205 191
45.9867 40.5866 382.7323 0.6347 0.6936 -0.3406 211 180 165
41.0215 39.3858 374.1589 0.5857 0.6901 -0.4251 193 164 149
36.1203 38.2137 364.9812 0.6139 0.6684 -0.4200 210 178 164
15.4551 37.4270 356.0428 0.1623 0.1600 -0.9737 225 188 176
-4.4029 36.7405 350.1625 0.1315 0.2774 -0.9517 239 207 193
-20.3381 37.0911 351.3463 0.0075 0.1295 -0.9915 251 212 198
-40.2109 36.5461 351.6731 0.0376 0.4003 -0.9156 246 217 199
-73.5974 36.0455 342.2827 0.6062 0.2768 -0.7455 186 171 162
-76.5891 35.1335 339.2807 0.4768 0.3033 -0.8250 218 203 197
-91.4777 35.3959 338.0390 -0.1615 0.3405 -0.9263 255 255 236
-111.1063 34.9126 339.8206 -0.2379 0.2681 -0.9336 255 255 246
184.7198 33.6586 315.1880 -0.4386 0.3700 -0.8190 39 39 64
174.6212 34.0848 321.7697 -0.3493 0.5229 -0.7775 70 70 100
163.1472 34.4887 327.0710 -0.4197 0.4703 -0.7763 60 60 85
143.9035 36.2178 341.8703 -0.4719 0.3747 -0.7981 95 96 116
121.9380 38.0494 356.4254 -0.4287 0.5162 -0.7414 62 63 83
109.6465 38.6818 367.7923 -0.7184 0.1621 -0.6765 91 86 104
91.5868 42.3138 399.5070 -0.3985 0.4198 -0.8155 255 243 218
74.5998 42.7974 402.5195 -0.1025 0.6077 -0.7875 255 235 212
57.3849 43.3529 406.7271 0.0097 0.6693 -0.7429 255 222 199
19.1848 38.3056 356.3871 0.1615 0.2870 -0.9442 232 197 184
-0.6375 37.6313 351.5369 0.2087 0.2705 -0.9398 226 198 185
-36.3064 37.3675 350.1135 -0.0418 0.3524 -0.9349 255 245 224
-70.7732 37.0043 346.9088 0.4086 0.2238 -0.8849 208 185 173
-107.3737 35.7425 339.7712 -0.0942 0.3509 -0.9317 255 255 239
-124.8608 36.1927 345.1793 -0.3540 0.2149 -0.9102 255 244 226
187.6320 34.4002 314.6319 -0.3895 0.3542 -0.8502 40 40 65
177.5670 34.8512 321.3591 -0.3759 0.4751 -0.7956 22 23 48
166.3169 35.2641 326.5282 -0.3667 0.4819 -0.7959 65 66 93
154.8165 35.7097 332.8986 -0.4653 0.5101 -0.7234 60 60 87
146.7435 36.9982 340.0840 -0.4701 0.3883 -0.7926 81 80 101
135.0803 37.5395 349.0860 -0.4896 0.4139 -0.7675 105 106 126
112.5299 39.4994 365.2144 -0.6651 0.3396 -0.6651 105 108 120
104.5334 41.2604 381.1310 -0.8734 -0.2202 -0.4343 255 237 213
95.4781 43.2195 398.1837 -0.6279 0.2909 -0.7219 255 238 215
78.9342 43.7929 403.1786 -0.1129 0.5813 -0.8058 255 240 216
61.6752 44.3314 406.8319 -0.1084 0.6716 -0.7329 255 234 211
23.0385 39.2114 357.6268 0.2479 0.3940 -0.8850 227 191 176
2.9799 38.5357 352.8722 0.2527 0.2146 -0.9435 233 205 194
-16.6236 37.9500 351.3552 -0.0877 0.0688 -0.9938 249 212 202
-32.4514 38.2426 350.8630 -0.0599 0.3292 -0.9423 251 220 201
-66.8743 37.8340 346.3807 -0.0946 0.1207 -0.9882 224 198 189
-87.7462 36.2136 337.7010 -0.0820 0.3661 -0.9270 255 248 229
-103.8562 36.5887 340.1317 0.0012 0.3952 -0.9186 255 250 233
-120.5781 36.9973 343.5770 -0.2804 0.2880 -0.9157 255 255 238
180.3335 35.5974 320.4158 -0.5260 0.4088 -0.7458 36 33 61
169.5718 36.0443 326.3135 -0.4068 0.4689 -0.7840 62 62 89
158.0262 36.4958 332.2331 -0.4619 0.5076 -0.7273 81 81 108
138.0587 38.3303 347.2932 -0.5633 0.3972 -0.7245 99 101 121
125.1755 38.8528 354.6735 -0.4350 0.4937 -0.7530 69 75 96
115.4027 40.2864 362.3130 -0.5796 0.3871 -0.7171 31 32 52
83.1770 44.7784 403.5255 -0.1784 0.5552 -0.8124 255 234 211
65.8749 45.2936 406.4023 -0.1562 0.6942 -0.7026 255 226 203
26.9725 40.1099 358.6292 0.3741 0.4796 -0.7938 235 203 188
6.7000 39.4438 354.2901 0.3009 0.1916 -0.9342 221 189 172
-12.8166 38.7814 350.4781 -0.0694 0.1376 -0.9881 250 216 202
-28.6175 39.0777 349.8631 -0.0739 0.3320 -0.9404 255 238 219
-44.7979 39.4558 352.0112 -0.0080 0.3685 -0.9296 236 208 201
-84.1073 37.0405 337.7181 0.0451 0.3713 -0.9274 255 249 236
-100.2958 37.4328 340.7737 -0.0726 0.3839 -0.9205 255 255 234
-116.5788 37.8118 342.7268 -0.2815 0.3128 -0.9071 255 255 250
190.2494 35.1222 313.5390 -0.4529 0.2944 -0.8416 1 3 23
172.2587 36.7895 324.9897 -0.4362 0.4459 -0.7816 25 25 50
161.0203 37.2677 331.2058 -0.4972 0.4971 -0.7112 76 75 98
149.7588 37.7876 338.8586 -0.4894 0.4386 -0.7537 67 67 94
128.5625 39.6846 353.7410 -0.4604 0.4598 -0.7594 40 40 67
105.9449 41.8478 372.1515 -0.8123 -0.0024 -0.5833 75 64 65
98.7545 44.0166 394.3822 -0.8370 -0.0200 -0.5469 255 240 215
87.1651 45.7085 402.6196 -0.2874 0.5093 -0.8111 255 238 213
69.9880 46.2494 405.8930 -0.1778 0.7297 -0.6603 255 239 213
52.4746 46.7404 407.9747 0.1045 0.7394 -0.6651 227 193 175
46.5946 45.1964 394.8268 0.6444 0.6670 -0.3740 213 181 164
35.7417 42.3359 370.6975 0.5813 0.7050 -0.4064 186 157 142
31.0768 41.0980 361.8828 0.5635 0.5864 -0.5819 211 180 165
10.7487 40.3349 355.3123 0.2682 0.2126 -0.9396 223 189 176
-8.9009 39.6262 350.2228 0.0855 0.2390 -0.9673 246 210 195
-24.9494 39.9589 350.5418 -0.0547 0.3292 -0.9427 255 244 230
-62.8044 38.6402 345.2774 -0.2335 0.1547 -0.9600 211 221 229
-80.8423 37.9107 338.9497 0.1620 0.3711 -0.9144 252 226 217
-96.6238 38.2641 340.6293 -0.1495 0.3727 -0.9158 255 255 233
-112.4073 38.6041 341.2946 -0.2374 0.3396 -0.9101 255 255 246
-130.1833 39.1195 347.2454 -0.4225 0.2518 -0.8707 218 205 189
192.7459 35.8493 312.5332 -0.4668 0.2499 -0.8483 29 27 50
182.2914 36.2970 318.0887 -0.5559 0.3897 -0.7342 36 37 64
174.9593 37.5364 323.8878 -0.4246 0.4152 -0.8045 45 44 74
163.6469 38.0145 329.5465 -0.4180 0.4952 -0.7616 55 56 80
152.6897 38.5655 337.4918 -0.4854 0.4719 -0.7360 48 49 73
140.6776 39.0881 344.7539 -0.5595 0.4037 -0.7239 48 48 75
131.7357 40.4947 352.3520 -0.4885 0.4230 -0.7631 75 76 98
118.8686 41.1218 361.1785 -0.4589 0.4524 -0.7647 99 96 115
109.2087 42.6589 369.9282 -0.7051 0.2559 -0.6613 55 55 71
101.5290 44.7214 388.9553 -0.8848 -0.2237 -0.4088 255 237 211
40.6369 43.6016 379.7814 0.5586 0.6851 -0.4676 211 181 166
14.6359 41.2514 356.7850 0.2376 0.2995 -0.9240 206 167 151
-5.2770 40.5307 351.3592 0.1417 0.3073 -0.9410 246 210 193
-41.0756 40.3283 352.3305 -0.0388 0.4000 -0.9157 235 205 197
-77.7480 38.8186 341.1375 0.4205 0.3243 -0.8474 196 188 184
-92.8742 39.0836 340.2651 -0.1531 0.3913 -0.9074 255 255 238
194.9907 36.5565 311.0668 -0.3732 0.2426 -0.8955 39 40 60
184.9003 37.0163 316.8021 -0.5026 0.3810 -0.7760 69 69 96
155.3791 39.3220 335.7130 -0.4486 0.4988 -0.7416 55 56 80
143.6304 39.8700 343.1571 -0.4888 0.4418 -0.7523 115 114 135
122.0637 41.9377 359.6060 -0.4081 0.4875 -0.7719 84 85 107
91.1840 46.6453 401.9767 -0.5154 0.3307 -0.7905 255 240 214
74.2565 47.2318 406.0940 -0.1537 0.7061 -0.6913 255 239 213
56.8037 47.8177 409.8046 0.0329 0.7442 -0.6672 254 219 195
18.3897 42.1329 357.1610 0.2275 0.3713 -0.9002 233 199 181
-1.5990 41.4090 351.8696 0.1635 0.3218 -0.9326 239 204 191
-21.2418 40.8368 351.1710 -0.0841 0.2516 -0.9642 255 237 225
-37.3097 41.1864 352.0271 -0.0599 0.3806 -0.9228 255 226 211
-71.5715 40.7055 346.8843 0.3680 0.2726 -0.8889 213 190 179
-74.6565 39.7435 343.7317 0.5681 0.2848 -0.7721 168 160 152
-108.5532 39.4164 340.7251 -0.0573 0.3711 -0.9268 255 255 235
-125.7426 39.9045 345.2867 -0.3580 0.2893 -0.8878 255 234 218
187.6555 37.7353 315.8091 -0.4496 0.3107 -0.8374 67 68 90
177.6238 38.2759 322.7985 -0.4371 0.3716 -0.8191 48 49 73
166.7625 38.7854 328.9208 -0.3804 0.4534 -0.8061 32 32 57
158.7157 40.1174 335.3123 -0.4710 0.4802 -0.7400 89 87 113
146.7919 40.6625 342.0705 -0.4222 0.4556 -0.7837 15 18 44
135.0087 41.2996 351.1075 -0.4939 0.4194 -0.7617 57 60 84
125.2634 42.7198 357.5629 -0.4361 0.4989 -0.7490 38 44 64
112.2029 43.4279 367.0009 -0.6491 0.2958 -0.7008 49 50 71
103.3082 45.2122 379.6768 -0.8457 -0.0970 -0.5247 247 213 186
94.7804 47.4684 399.1888 -0.7239 0.1370 -0.6761 255 242 217
78.4702 48.2047 406.0953 -0.1586 0.6720 -0.7233 255 235 210
61.0939 48.7983 409.7635 -0.0550 0.7639 -0.6430 255 228 205
22.3189 43.0843 359.1848 0.3272 0.4654 -0.8224 228 194 178
2.1936 42.2972 352.6948 0.1874 0.3073 -0.9330 240 205 192
-17.3822 41.7019 351.3027 -0.1187 0.2086 -0.9708 255 230 216
-33.7162 42.0911 352.9991 -0.0466 0.3955 -0.9173 255 232 218
-88.9386 39.8793 339.2008 -0.0975 0.4240 -0.9004 255 255 240
-105.2655 40.2925 341.9231 0.0006 0.3843 -0.9232 255 246 228
-121.9886 40.7415 345.0623 -0.2910 0.3320 -0.8973 255 255 240
190.4176 38.4745 315.2145 -0.5131 0.2404 -0.8240 33 33 58
180.4703 39.0168 321.9384 -0.5430 0.3266 -0.7736 61 61 88
169.7943 39.5517 328.2708 -0.4430 0.3889 -0.8078 53 53 80
137.9036 42.0658 349.0172 -0.5085 0.4477 -0.7355 95 94 115
115.3732 44.2241 364.9221 -0.5708 0.3228 -0.7550 97 99 116
98.1364 48.2448 395.6677 -0.8255 -0.2999 -0.4781 255 236 208
82.7260 49.1762 406.0969 -0.2229 0.6056 -0.7639 255 244 219
65.5312 49.7993 410.2366 -0.0939 0.8254 -0.5566 255 229 201
46.9457 49.9885 405.9418 0.2177 0.7501 -0.6244 242 210 193
35.7806 46.7465 380.2430 0.6561 0.4847 -0.5785 202 175 161
26.2893 44.0624 361.5760 0.4454 0.5130 -0.7338 229 197 183
6.0243 43.2152 354.1420 0.2593 0.3164 -0.9125 233 197 184
-13.6348 42.5460 350.9517 -0.0282 0.2383 -0.9708 253 216 204
-29.8421 42.9813 353.6330 -0.0926 0.3670 -0.9256 255 245 226
-45.8879 43.3163 354.3637 0.0009 0.3947 -0.9188 237 209 202
-67.8813 41.5619 346.9225 -0.0040 0.1780 -0.9840 231 205 196
-85.3606 40.7224 339.4835 0.0014 0.4466 -0.8947 255 245 228
-101.5475 41.1356 342.3333 -0.0693 0.3439 -0.9365 255 242 225
-117.8284 41.5328 343.8406 -0.2586 0.3317 -0.9072 255 255 245
182.4240 39.7004 319.6530 -0.5610 0.2907 -0.7751 13 14 36
172.4601 40.2916 327.0349 -0.4708 0.3222 -0.8213 36 37 62
161.2263 40.8449 333.3460 -0.5057 0.4473 -0.7377 56 57 82
149.8559 41.4421 340.9162 -0.4273 0.4625 -0.7769 232 235 243
140.7250 42.8249 346.9235 -0.5260 0.4640 -0.7128 98 99 119
128.6611 43.5341 356.4161 -0.4816 0.4922 -0.7251 27 28 50
105.7828 45.8813 374.4118 -0.7580 0.1342 -0.6383 76 76 94
86.8442 50.1172 405.4714 -0.3909 0.4591 -0.7978 255 246 220
69.8048 50.7677 410.0399 -0.2042 0.8238 -0.5289 255 237 210
52.2063 51.4206 414.1534 0.0799 0.7538 -0.6522 255 227 201
40.2844 47.9554 385.7614 0.6959 0.3604 -0.6211 221 192 177
30.6928 45.2158 367.4724 0.6537 0.6158 -0.4397 203 173 160
9.8880 44.1482 355.7699 0.2789 0.3402 -0.8980 234 200 184
-9.8959 43.4465 351.9260 0.1425 0.2862 -0.9475 255 220 209
-25.9641 43.8075 352.7861 -0.1252 0.3437 -0.9307 255 244 228
-81.8998 41.5808 340.1633 0.0898 0.4282 -0.8992 253 229 221
-97.7064 41.9435 341.5582 -0.1161 0.3429 -0.9322 255 252 233
-113.8618 42.3372 343.1105 -0.2364 0.3585 -0.9031 255 255 240
192.8582 39.1877 314.1221 -0.4975 0.1627 -0.8521 41 40 63
175.2460 41.0367 326.0511 -0.4988 0.2453 -0.8313 8 11 37
164.0070 41.5852 331.8817 -0.4535 0.4228 -0.7846 40 40 65
152.9659 42.2268 339.9308 -0.4477 0.4682 -0.7618 235 238 251
131.8110 44.3194 354.7255 -0.5263 0.4425 -0.7261 40 40 65
118.5688 45.0127 362.9718 -0.4421 0.3914 -0.8071 77 80 100
109.0507 46.6744 372.2488 -0.7125 0.2126 -0.6687 44 41 62
90.7897 51.0169 404.2017 -0.6569 0.1728 -0.7339 255 239 210
74.0163 51.7454 409.8849 -0.2231 0.8123 -0.5389 255 236 211
56.5429 52.4728 414.9889 0.0347 0.7490 -0.6617 255 233 207
13.7601 45.0903 357.4666 0.2667 0.3934 -0.8798 239 207 193
-6.2208 44.3712 353.3043 0.1614 0.3495 -0.9229 250 218 204
-22.1817 44.6755 352.7560 -0.1471 0.3194 -0.9361 255 240 225
-42.1457 44.2047 354.7388 -0.0463 0.3646 -0.9300 248 218 208
-78.4242 42.4444 340.8984 0.2980 0.3970 -0.8681 202 193 192
-94.0225 42.7722 341.3179 -0.1110 0.3915 -0.9135 255 255 239
194.9856 39.8620 312.2422 -0.3724 0.1714 -0.9121 43 42 62
185.1006 40.4152 318.5362 -0.5431 0.2806 -0.7914 55 56 78
167.1049 42.3470 331.1176 -0.4576 0.3694 -0.8088 46 46 73
155.6723 42.9705 338.1687 -0.4928 0.4365 -0.7528 80 86 102
143.7370 43.5960 345.4213 -0.5253 0.4553 -0.7188 78 79 102
134.9043 45.0922 352.9636 -0.4906 0.4372 -0.7537 58 61 85
121.8173 45.8135 361.3282 -0.3786 0.4404 -0.8141 46 47 69
99.8770 48.6617 386.1961 -0.8318 -0.2434 -0.4988 250 214 185
78.2507 52.7302 409.8606 -0.2101 0.7909 -0.5748 255 240 216
61.4086 53.6891 418.4809 0.0718 0.7018 -0.7088 255 235 210
17.5848 45.9861 358.0819 0.2956 0.4613 -0.8365 246 214 202
-2.5106 45.2636 353.8957 0.1569 0.3777 -0.9125 255 227 213
-38.2996 45.0369 353.8737 -0.0341 0.3576 -0.9333 254 225 209
-72.4742 44.4175 346.8492 0.3805 0.3151 -0.8694 215 196 186
-75.1879 43.3737 342.8236 0.4678 0.3520 -0.8107 165 161 156
-90.3322 43.5953 340.9862 -0.0749 0.4362 -0.8967 255 255 238
-109.9123 43.1460 342.5087 -0.1205 0.3935 -0.9114 255 255 255
-127.6280 43.7384 348.1179 -0.4166 0.4484 -0.7909 240 216 208
187.9042 41.1362 317.7030 -0.4793 0.2293 -0.8472 67 70 94
177.7315 41.7408 324.4054 -0.4756 0.2210 -0.8515 53 52 82
158.8736 43.7511 337.4559 -0.5316 0.4116 -0.7403 201 200 209
147.0062 44.3894 344.5347 -0.4641 0.4499 -0.7630 81 81 106
125.5110 46.6540 360.6691 -0.4203 0.4566 -0.7841 28 32 51
111.9465 47.4109 369.1252 -0.6368 0.2756 -0.7201 65 66 89
102.3101 49.2371 379.7772 -0.7599 0.0093 -0.6500 109 107 124
94.3979 51.8094 401.2950 -0.7984 -0.1013 -0.5936 255 228 200
82.4969 53.7111 409.8156 -0.3743 0.6960 -0.6128 255 242 217
66.5290 55.0269 423.5706 -0.0968 0.6297 -0.7708 255 239 213
30.3162 49.4976 373.5729 0.7133 0.3645 -0.5986 197 169 156
21.5436 46.9934 360.7484 0.3594 0.4884 -0.7952 221 187 171
1.3570 46.1216 353.9403 0.1458 0.4127 -0.8991 250 219 200
-18.3454 45.4877 351.9408 -0.1274 0.3283 -0.9359 255 229 214
-34.6226 45.9345 354.3565 -0.0257 0.3728 -0.9276 255 244 230
-50.8535 46.2795 355.1385 0.1574 0.4480 -0.8801 213 191 185
-68.9539 45.3119 347.6647 0.0656 0.2956 -0.9530 240 215 205
-86.9779 44.4779 341.8983 -0.0234 0.4732 -0.8806 255 253 237
-106.4187 44.0090 343.0454 -0.0267 0.4125 -0.9106 255 255 244
-123.4889 44.5334 346.9973 -0.3110 0.4435 -0.8406 255 251 235
189.9404 41.8088 315.8636 -0.5253 0.1928 -0.8288 18 19 41
180.5278 42.4667 323.3954 -0.5327 0.1781 -0.8273 68 68 95
169.7137 43.0778 329.7256 -0.5438 0.2740 -0.7932 69 69 96
149.7626 45.1314 342.6599 -0.4093 0.4349 -0.8021 108 107 128
137.9347 45.8584 351.1920 -0.4751 0.4478 -0.7575 86 87 110
114.8915 48.1560 366.4176 -0.5347 0.3326 -0.7768 40 41 63
35.2014 51.0572 384.6588 0.7175 0.0480 -0.6949 224 192 180
25.5422 48.0524 364.0844 0.4924 0.4915 -0.7183 224 194 181
5.2170 47.0436 355.1782 0.2163 0.4292 -0.8769 247 213 195
-14.5979 46.3122 351.1992 0.0072 0.3496 -0.9369 246 209 197
-30.7946 46.8463 355.2964 -0.0741 0.3798 -0.9221 255 252 238
-46.8360 47.1458 355.2192 -0.0056 0.4402 -0.8979 227 199 188
-102.7830 44.8618 343.5200 -0.0713 0.3926 -0.9169 255 255 244
-119.5622 45.3548 346.5264 -0.3263 0.4110 -0.8512 255 255 247
183.0183 43.1704 322.0077 -0.5459 0.1245 -0.8286 102 102 125
172.1432 43.7855 328.0535 -0.5205 0.1903 -0.8324 29 30 57
161.2349 44.4397 334.9868 -0.5677 0.3537 -0.7434 48 49 73
152.9829 45.9216 341.9026 -0.4015 0.4470 -0.7993 255 255 255
141.2261 46.6569 350.1905 -0.5091 0.4508 -0.7332 49 49 77
128.6073 47.4234 358.7736 -0.4974 0.4572 -0.7373 48 49 71
118.1132 48.9320 364.4594 -0.4035 0.3983 -0.8237 42 44 62
105.4708 49.9632 376.6880 -0.7520 0.0846 -0.6537 76 73 90
96.7424 52.2771 393.7245 -0.8782 -0.2453 -0.4106 253 213 179
86.5922 54.6258 408.8831 -0.5741 0.4056 -0.7113 255 241 219
70.5537 55.8516 421.0060 -0.1524 0.6046 -0.7818 255 242 219
56.6065 57.4380 422.9365 0.1167 0.6738 -0.7296 255 238 215
51.8891 56.2167 419.9739 0.1077 0.7507 -0.6518 255 231 205
9.0064 48.0189 357.1582 0.2707 0.4672 -0.8417 246 212 196
-10.9523 47.2492 352.6149 0.1345 0.3694 -0.9195 255 228 216
-26.8618 47.6302 353.7932 -0.1056 0.3952 -0.9125 255 230 212
-65.2933 46.1437 347.0954 -0.1269 0.2819 -0.9510 250 222 213
-83.2903 45.3238 342.1059 0.0054 0.4696 -0.8829 255 242 227
-99.0856 45.6960 343.3773 -0.0884 0.4073 -0.9090 255 250 232
-115.4457 46.1380 345.4492 -0.2317 0.4006 -0.8865 255 255 249
-130.6819 47.8220 353.8545 -0.4349 0.3387 -0.8344 203 189 180
192.1974 42.4860 314.2765 -0.5105 0.1638 -0.8441 70 71 96
175.1070 44.5294 327.3011 -0.5306 0.0998 -0.8417 104 104 129
164.0830 45.1701 333.5930 -0.4989 0.3159 -0.8071 60 63 87
143.9511 47.3791 347.9148 -0.5768 0.4058 -0.7089 100 102 122
131.6623 48.1755 356.7068 -0.5436 0.4426 -0.7132 61 62 84
108.6226 50.7151 374.0590 -0.7166 0.1592 -0.6790 118 120 135
90.7169 55.5653 408.3066 -0.7502 0.1403 -0.6462 254 220 191
75.5324 56.9761 422.8283 -0.2979 0.5922 -0.7487 255 231 206
12.9388 49.0120 359.4091 0.2884 0.5105 -0.8101 242 210 195
-7.1930 48.1492 353.3430 0.1453 0.3765 -0.9149 255 230 218
-23.0989 48.5493 354.7581 -0.1653 0.4015 -0.9008 255 253 235
-43.1028 48.0233 355.2451 -0.0617 0.4337 -0.8989 252 222 207
-79.6463 46.1825 342.5441 0.1792 0.4687 -0.8650 200 190 184
-95.4696 46.5447 343.5581 -0.0577 0.4584 -0.8869 255 255 245
-111.3417 46.9216 344.5145 -0.1192 0.4364 -0.8918 255 255 243
194.6751 43.1656 312.9268 -0.4149 0.1868 -0.8905 52 51 72
185.1904 43.8300 320.0095 -0.5790 0.1079 -0.8081 52 52 77
167.2082 45.9397 333.0091 -0.5488 0.2263 -0.8047 48 48 75
155.8173 46.6545 340.2629 -0.5011 0.4147 -0.7596 102 100 124
134.7061 48.9149 354.6606 -0.5200 0.4282 -0.7391 28 29 54
121.8540 49.7799 363.9043 -0.3726 0.4115 -0.8318 60 61 83
98.5235 52.6724 384.9654 -0.8138 -0.0270 -0.5806 133 130 145
79.1937 57.7253 419.2952 -0.3758 0.5225 -0.7653 255 234 207
65.6817 59.6386 425.5262 -0.0826 0.5643 -0.8214 255 237 211
61.0610 58.5568 424.3643 0.0552 0.5715 -0.8187 255 242 218
16.8671 50.0088 361.4795 0.2983 0.5537 -0.7774 247 215 203
-3.3686 49.1068 355.0061 0.1721 0.3942 -0.9028 255 239 229
-39.3890 48.9411 356.0311 -0.0659 0.4112 -0.9092 255 227 212
-55.1261 49.1638 354.8403 0.6009 0.4556 -0.6568 158 159 156
-58.0179 47.9864 349.6869 0.5626 0.5328 -0.6321 160 177 169
-76.4921 47.1447 344.6965 0.3701 0.4257 -0.8257 173 169 168
-91.8242 47.3850 343.4920 -0.0432 0.4980 -0.8661 255 255 237
-125.5292 48.4608 350.4612 -0.3841 0.4433 -0.8099 255 240 223
197.3471 43.8823 312.3149 -0.1965 0.2206 -0.9554 17 18 38
187.7337 44.5307 318.8632 -0.5135 0.1484 -0.8452 36 37 60
177.4371 45.1996 325.3170 -0.5091 0.0540 -0.8590 48 48 75
169.6704 46.6411 331.3132 -0.6196 0.1242 -0.7750 67 67 94
158.8060 47.3989 338.9990 -0.5808 0.3672 -0.7265 190 188 200
146.8032 48.1185 346.1450 -0.5228 0.3778 -0.7642 66 69 93
125.5873 50.6305 363.4515 -0.4237 0.3813 -0.8216 81 85 106
111.3984 51.4003 370.5912 -0.5951 0.2407 -0.7667 77 78 98
101.6990 53.3821 381.7545 -0.7135 0.1795 -0.6773 89 88 107
93.3914 56.0161 401.1516 -0.8258 -0.1713 -0.5373 238 202 171
83.1496 58.6454 418.0004 -0.5951 0.3201 -0.7372 255 240 216
20.8323 51.0345 363.9046 0.3360 0.5684 -0.7510 233 203 191
0.4864 50.0333 356.0741 0.1921 0.4446 -0.8749 255 230 215
-19.2291 49.3362 353.4743 -0.1635 0.4283 -0.8887 255 248 233
-35.4125 49.7896 355.7834 -0.0671 0.4234 -0.9034 255 232 216
-51.8683 50.1930 357.1881 0.0788 0.5815 -0.8097 222 207 199
-70.0970 49.1174 349.2083 0.1165 0.3723 -0.9208 243 216 209
-73.7046 48.2048 348.2140 0.3568 0.3722 -0.8568 205 192 187
-88.1699 48.2235 343.4581 -0.0252 0.5317 -0.8465 255 245 226
-107.8763 47.8003 345.1892 -0.0620 0.4626 -0.8844 255 255 242
189.3716 45.1386 316.1491 -0.4875 0.2155 -0.8461 41 42 62
180.0317 45.8966 323.9701 -0.5315 0.0273 -0.8466 60 60 87
161.4756 48.1062 337.1967 -0.6258 0.2824 -0.7271 65 63 89
150.0498 48.9111 345.3549 -0.4556 0.3062 -0.8359 88 89 111
137.9326 49.7047 353.4520 -0.4941 0.3938 -0.7751 66 69 93
128.7198 51.3930 361.5852 -0.5238 0.3372 -0.7822 79 81 101
114.6164 52.1452 368.3035 -0.4444 0.3370 -0.8300 41 44 64
87.1633 59.5469 416.6230 -0.7594 0.2282 -0.6093 255 234 212
70.1637 60.5790 424.5527 -0.1384 0.6096 -0.7805 255 242 214
4.3208 50.9455 356.8918 0.2527 0.4958 -0.8309 249 215 199
-15.4857 50.1859 353.1956 -0.0382 0.4611 -0.8865 255 229 215
-31.5968 50.6969 356.3413 -0.0701 0.4358 -0.8973 255 236 226
-47.8390 51.0455 356.9669 -0.0665 0.5822 -0.8103 241 218 207
-84.6562 49.1077 344.1641 -0.0090 0.5503 -0.8349 255 247 232
-104.1008 48.6252 344.8902 -0.0817 0.4581 -0.8852 255 255 249
-120.8769 49.1494 347.8561 -0.3334 0.4801 -0.8114 255 246 232
191.8987 45.8210 314.9789 -0.4813 0.2706 -0.8338 39 38 61
182.5007 46.5806 322.5301 -0.5415 0.0209 -0.8404 62 63 87
171.8235 47.2862 328.8875 -0.5736 0.0572 -0.8171 86 84 109
153.3282 49.7010 344.6508 -0.4118 0.2645 -0.8720 54 54 79
141.2908 50.5015 352.5002 -0.5167 0.3599 -0.7769 48 48 75
118.2136 52.9757 367.3939 -0.3784 0.4036 -0.8330 80 85 108
104.8106 54.0449 378.1247 -0.7246 0.1652 -0.6691 49 50 71
94.9077 56.2092 390.4490 -0.8569 0.0351 -0.5144 87 85 97
74.7384 61.5385 424.2419 -0.3483 0.4094 -0.8432 255 245 219
8.1499 51.9229 358.6044 0.2913 0.5714 -0.7672 235 201 187
-11.8186 51.1147 354.2292 0.0897 0.4954 -0.8640 255 237 220
-27.8566 51.5315 355.6643 -0.0764 0.4678 -0.8805 255 246 230
-44.1807 51.9434 357.1350 -0.1094 0.5663 -0.8169 255 233 213
-66.2658 49.9334 348.6011 -0.0256 0.4092 -0.9121 255 233 220
-100.3606 49.4519 344.6537 -0.0601 0.4897 -0.8698 255 248 227
-116.7518 49.9292 346.9485 -0.2568 0.4880 -0.8342 255 255 253
174.6374 48.0119 327.9504 -0.5398 0.0562 -0.8399 50 48 73
164.1784 48.8192 335.6596 -0.5710 0.1922 -0.7981 78 79 102
156.1827 50.4153 342.8633 -0.5104 0.2198 -0.8314 129 127 139
144.3923 51.2632 351.0752 -0.6235 0.2773 -0.7310 41 42 66
131.7971 52.1464 359.7203 -0.5536 0.3313 -0.7640 103 104 126
108.0803 54.7746 375.6326 -0.6993 0.2003 -0.6862 90 90 106
78.9639 62.5574 424.0205 -0.4724 0.2397 -0.8482 255 247 221
12.0456 52.8925 360.1318 0.2886 0.6105 -0.7375 244 210 197
-8.0458 52.0295 355.0266 0.1175 0.4762 -0.8715 255 234 218
-24.0735 52.4346 356.1522 -0.1247 0.5243 -0.8423 255 236 225
-40.3664 52.8301 357.2737 -0.1287 0.5533 -0.8230 255 251 233
-81.0266 49.9631 344.4174 0.0940 0.5574 -0.8249 238 223 217
-96.8027 50.3310 345.2322 -0.0187 0.5345 -0.8450 255 234 215
-112.7412 50.7244 346.2422 -0.1710 0.5178 -0.8382 255 255 250
194.4514 46.4889 313.7061 -0.4301 0.2939 -0.8536 75 74 97
184.4519 47.1942 320.0825 -0.5794 0.0237 -0.8147 26 27 49
166.9185 49.5359 334.3338 -0.5939 0.1378 -0.7926 93 91 116
134.7882 52.8555 357.3989 -0.5312 0.3087 -0.7890 95 94 117
121.7444 53.7763 366.1835 -0.4114 0.3788 -0.8290 55 56 78
97.5873 56.7530 385.2132 -0.8004 0.2273 -0.5547 84 80 102
89.4101 59.7246 406.6995 -0.8805 0.0274 -0.4732 227 190 166
20.0098 55.1081 366.5938 0.3340 0.6911 -0.6409 241 211 201
16.0440 53.9661 363.0516 0.2709 0.6246 -0.7325 247 215 203
-4.1704 53.0152 356.8649 0.1643 0.4991 -0.8508 250 216 204
-74.5060 51.9112 348.0858 0.2083 0.4575 -0.8645 180 176 171
-77.7190 50.8895 345.5068 0.1871 0.5154 -0.8363 184 179 178
-93.1975 51.1989 345.6317 -0.0182 0.5663 -0.8240 255 255 241
-127.3042 52.4008 353.1236 -0.4012 0.4100 -0.8191 230 211 201
196.8743 47.1632 312.5285 -0.2475 0.2958 -0.9226 45 46 66
187.1138 47.8923 319.1327 -0.4893 0.1056 -0.8657 54 54 79
176.8313 48.6489 325.7788 -0.5216 0.0316 -0.8526 54 54 81
158.8857 51.1003 340.8710 -0.5830 0.1539 -0.7977 166 165 175
146.7896 51.9082 348.1422 -0.5968 0.2320 -0.7681 55 56 80
138.1262 53.6332 356.1986 -0.5364 0.2501 -0.8061 52 52 77
125.0976 54.5540 364.6979 -0.4709 0.2962 -0.8310 50 51 74
110.9043 55.4036 371.8989 -0.5226 0.3149 -0.7923 68 69 89
101.3031 57.5662 383.7678 -0.7271 0.2149 -0.6521 86 85 101
91.7319 60.0536 398.5781 -0.8674 0.0135 -0.4974 131 125 145
82.9844 63.4712 422.8635 -0.6142 0.0218 -0.7888 253 217 198
70.0547 65.5829 430.3286 -0.3201 0.7957 -0.5142 255 252 232
-0.4054 53.9707 358.1188 0.1949 0.5420 -0.8175 255 232 223
-20.1545 53.1845 354.5740 -0.1451 0.5306 -0.8351 255 255 246
-36.5539 53.7011 357.2250 -0.0981 0.5111 -0.8539 255 245 225
-70.9476 52.8700 349.6395 0.1792 0.4473 -0.8762 230 210 203
-89.5884 52.0716 346.0474 -0.0315 0.5966 -0.8019 255 255 239
-109.3045 51.6187 346.9159 -0.0831 0.5480 -0.8323 255 255 244
189.4081 48.5431 317.5136 -0.4021 0.1987 -0.8938 57 58 81
179.4299 49.3203 324.2682 -0.5562 0.0209 -0.8308 36 37 62
169.1500 50.1747 332.0142 -0.6552 0.0432 -0.7542 56 56 84
161.2906 51.7521 338.5318 -0.6497 0.0903 -0.7548 255 255 255
149.6365 52.6124 346.2404 -0.4917 0.2016 -0.8471 53 53 78
128.4791 55.3498 363.4849 -0.5548 0.1873 -0.8106 61 62 84
114.3460 56.1682 370.1558 -0.3762 0.4085 -0.8316 56 62 83
3.3910 54.9254 359.2815 0.2614 0.5937 -0.7610 255 227 213
-16.4506 54.1183 355.4796 -0.0747 0.5716 -0.8171 255 248 232
-32.9494 54.6525 358.2358 -0.0804 0.5111 -0.8558 255 235 221
-49.0093 55.0350 359.3085 -0.0714 0.6487 -0.7577 245 222 207
-67.4701 53.8202 350.8167 0.1232 0.5118 -0.8502 255 239 229
-85.9897 52.9358 346.2595 -0.0219 0.6203 -0.7841 255 255 251
-105.6504 52.4768 347.1078 -0.0925 0.5674 -0.8183 255 254 237
-122.8221 53.1174 351.1325 -0.3284 0.5079 -0.7964 255 255 235
192.2751 49.2556 316.9187 -0.4305 0.2539 -0.8662 54 55 75
182.0484 50.0095 323.1175 -0.5476 0.0596 -0.8346 86 87 112
171.4799 50.8061 329.7375 -0.6184 0.0435 -0.7847 62 61 86
152.8963 53.3870 345.4135 -0.4428 0.0771 -0.8933 23 21 45
141.2783 54.3611 354.4783 -0.5483 0.1833 -0.8160 60 60 85
118.0124 57.0002 369.3748 -0.4075 0.4104 -0.8158 61 62 84
104.4481 58.2055 380.2759 -0.7181 0.2340 -0.6555 91 93 110
94.9082 60.6287 394.0487 -0.8251 0.2398 -0.5116 97 97 115
86.3146 64.0621 418.2223 -0.8239 -0.0256 -0.5662 172 121 102
73.9196 66.2135 426.0603 -0.4152 0.5979 -0.6856 205 103 96
11.2503 57.1143 364.9214 0.2810 0.7007 -0.6558 242 208 194
7.3187 56.0445 362.4966 0.3024 0.6702 -0.6778 244 211 195
-12.7171 55.0763 356.6895 0.0351 0.6132 -0.7891 255 238 225
-28.9508 55.4976 357.8956 -0.0640 0.5257 -0.8482 255 250 234
-45.4214 56.0449 360.9127 -0.1217 0.6296 -0.7674 255 235 217
-82.3115 53.7861 346.2789 0.0173 0.6221 -0.7827 251 231 224
-101.9698 53.3312 347.2132 -0.0551 0.5921 -0.8040 255 255 236
-118.6897 53.8909 350.0860 -0.2578 0.5833 -0.7703 255 255 244
183.9321 50.5927 320.6045 -0.5289 0.0906 -0.8439 62 63 87
173.9382 51.4557 327.9137 -0.5597 0.0783 -0.8250 124 123 142
163.8683 52.4327 336.7411 -0.6127 0.0639 -0.7877 50 51 76
144.1413 55.0685 352.4850 -0.6314 0.1008 -0.7689 102 103 121
131.7133 56.1086 361.9174 -0.5667 0.1311 -0.8134 40 40 65
121.4474 57.7865 368.0096 -0.5232 0.3174 -0.7909 64 65 88
107.1017 58.7354 375.6398 -0.6249 0.3321 -0.7066 113 115 133
97.6291 61.1307 388.8430 -0.8058 0.2470 -0.5382 57 55 78
88.3371 64.0277 406.5745 -0.9183 0.0566 -0.3919 102 102 118
15.1928 58.1441 366.7903 0.3113 0.7267 -0.6123 250 221 206
-8.9031 55.9517 356.8247 0.0789 0.6199 -0.7807 255 237 218
-25.2346 56.4854 359.3352 -0.0646 0.5864 -0.8075 255 224 203
-41.5582 56.9120 360.7642 -0.1782 0.6027 -0.7778 255 254 235
-78.9614 54.7576 347.8806 0.0475 0.5974 -0.8005 198 192 187
-98.3212 54.2137 347.8221 -0.0002 0.6275 -0.7786 255 247 228
-114.5850 54.6616 349.1149 -0.1856 0.6197 -0.7626 255 255 255
194.4653 49.8715 315.0571 -0.4419 0.2982 -0.8460 72 70 94
176.2470 52.1012 326.1237 -0.5101 0.0907 -0.8553 67 65 91
166.1107 53.0486 334.2736 -0.6006 0.0835 -0.7952 60 59 80
156.3549 54.1849 344.9655 -0.5501 -0.0168 -0.8350 106 103 122
134.7619 56.8111 359.7569 -0.5662 0.0911 -0.8192 67 68 90
77.7511 66.9368 423.2026 -0.5652 0.3661 -0.7392 213 121 116
19.3656 59.4868 372.1805 0.4122 0.7746 -0.4797 240 210 200
-5.0284 56.8570 357.4124 0.1100 0.6700 -0.7342 255 236 221
-21.3037 57.2706 358.2285 -0.0818 0.6420 -0.7623 255 255 244
-75.4765 55.7253 349.4283 0.0979 0.5641 -0.8199 176 169 167
-94.8351 55.1230 348.5239 -0.0220 0.6450 -0.7639 255 255 238
-111.0566 55.5486 349.5740 -0.1215 0.6310 -0.7662 255 255 241
-129.3352 56.4368 356.1206 -0.4038 0.4566 -0.7927 208 199 195
196.8106 50.5250 313.7237 -0.2605 0.3289 -0.9077 43 41 64
186.7896 51.2906 319.8075 -0.4031 0.1805 -0.8972 20 21 41
168.3482 53.6680 331.9761 -0.6384 0.1027 -0.7628 47 45 71
159.0417 54.8654 343.0874 -0.6021 -0.0645 -0.7958 55 49 74
146.4084 55.6603 349.1971 -0.6579 0.0602 -0.7507 66 64 90
137.7497 57.4970 357.5189 -0.6083 0.0351 -0.7929 83 84 104
124.8595 58.5570 366.5750 -0.5577 0.2239 -0.7993 62 63 85
110.1257 59.3729 372.4525 -0.4647 0.4312 -0.7734 8 9 34
100.7129 61.7583 385.4043 -0.7420 0.2925 -0.6033 95 96 114
91.0435 64.4564 400.6221 -0.8630 0.1885 -0.4687 99 98 116
81.7554 67.7936 421.5410 -0.6835 0.1005 -0.7230 154 115 106
2.5559 58.9483 361.5700 0.2185 0.7094 -0.6701 253 222 205
-1.2914 57.9143 359.6432 0.1599 0.6991 -0.6969 255 232 216
-17.4534 58.1302 358.1065 -0.0626 0.6892 -0.7219 255 255 240
-37.6659 57.7052 359.6429 -0.1535 0.5780 -0.8015 255 254 235
-91.2254 56.0183 349.1276 -0.0410 0.6433 -0.7645 255 246 224
-107.3398 56.4213 349.9275 -0.0821 0.6472 -0.7579 255 235 221
-125.1513 57.2236 355.2140 -0.3091 0.4981 -0.8101 225 206 197
189.0326 51.9218 318.1896 -0.3209 0.2365 -0.9171 67 68 90
178.8684 52.7631 324.7233 -0.5574 0.0927 -0.8251 35 35 65
160.9796 55.4181 339.7304 -0.6569 -0.0671 -0.7510 50 46 70
149.3904 56.3746 347.5786 -0.5733 0.0706 -0.8163 63 64 89
127.9530 59.2519 364.3514 -0.6050 0.0956 -0.7905 50 51 76
114.2296 60.2968 372.7271 -0.3931 0.4603 -0.7960 93 95 115
75.1560 72.1607 440.4229 -0.8707 0.3203 -0.3733 115 113 125
6.4836 60.1245 365.0503 0.2565 0.7435 -0.6176 253 222 203
-13.5603 59.0339 358.6066 0.0167 0.7175 -0.6963 255 251 231
-34.0539 58.6656 360.5113 -0.1072 0.5627 -0.8197 255 255 253
-50.5172 59.2966 364.3816 -0.0380 0.6719 -0.7396 255 235 216
-68.6597 57.7243 352.7719 0.2297 0.5726 -0.7870 246 227 220
-71.9164 56.6672 350.5157 0.1949 0.5349 -0.8221 219 207 199
-87.8216 56.9711 350.3002 -0.0134 0.6640 -0.7476 255 255 240
192.2472 52.6806 318.2506 -0.3777 0.2514 -0.8912 20 21 41
181.2843 53.4000 323.1207 -0.5308 0.1305 -0.8374 25 25 52
170.8346 54.2916 329.9736 -0.6334 0.1398 -0.7611 39 37 63
152.2705 57.0713 345.9120 -0.4923 -0.0196 -0.8702 41 40 65
140.4723 58.1209 354.7251 -0.5860 0.0261 -0.8099 69 69 94
117.9646 61.1312 371.9825 -0.4922 0.3611 -0.7921 43 44 69
103.7177 62.3106 381.3433 -0.6932 0.3216 -0.6450 45 45 68
94.5213 65.0586 396.9427 -0.8227 0.1845 -0.5377 96 101 115
84.9189 68.2605 415.9143 -0.8491 0.0552 -0.5253 115 114 133
10.4998 61.3825 369.2480 0.2763 0.7293 -0.6259 255 230 215
-9.7915 60.1248 361.0412 0.0849 0.7739 -0.6276 255 248 230
-29.9931 59.5335 360.4635 -0.0067 0.6034 -0.7974 255 239 226
-46.7811 60.2232 364.6996 -0.1164 0.6709 -0.7324 255 252 231
-65.1329 58.6279 353.1085 0.2277 0.6439 -0.7305 255 234 222
-84.2571 57.9104 351.3132 -0.0004 0.6774 -0.7356 255 243 232
-103.5167 57.2497 349.7029 -0.0418 0.6647 -0.7459 255 255 242
-121.1768 58.0295 354.5545 -0.1915 0.5948 -0.7807 255 255 238
-136.7754 60.0689 363.9015 -0.5765 0.4565 -0.6777 165 161 160
194.6272 53.2999 316.6335 -0.4246 0.2783 -0.8616 21 19 42
183.5893 54.0220 321.3817 -0.4623 0.1828 -0.8677 33 33 58
173.4307 54.9373 328.3277 -0.5649 0.1651 -0.8085 60 60 85
163.2381 56.0128 337.1645 -0.6150 0.0100 -0.7885 64 65 88
143.5694 58.8609 353.3174 -0.6282 -0.0415 -0.7769 75 76 98
130.8252 59.8969 361.6662 -0.5849 0.0128 -0.8110 39 39 64
121.3718 61.8932 370.4827 -0.6225 0.1867 -0.7600 52 52 75
106.9359 62.9443 378.2650 -0.5682 0.4152 -0.7104 65 68 90
97.5979 65.5743 392.4462 -0.8225 0.1800 -0.5396 76 78 95
88.0875 68.6637 410.0826 -0.8860 0.1508 -0.4384 105 107 124
77.4395 71.9030 427.7160 -0.8224 0.4197 -0.3842 99 97 118
-5.9289 61.0772 361.9062 0.1089 0.8132 -0.5717 255 244 228
-26.2286 60.4934 361.3477 0.0340 0.6525 -0.7570 255 251 236
-42.8228 61.0354 363.7761 -0.3245 0.5680 -0.7564 255 248 225
-80.6285 58.8152 351.8814 -0.0177 0.6495 -0.7601 238 223 219
-99.9837 58.1887 350.7474 -0.0099 0.6852 -0.7283 255 237 218
-116.8585 58.7811 353.4392 -0.1378 0.6516 -0.7460 255 255 240
175.8684 55.5872 326.8253 -0.4902 0.2105 -0.8458 60 58 84
165.6451 56.6341 335.0053 -0.5909 0.0279 -0.8063 60 60 87
154.7674 57.6807 343.3754 -0.5645 -0.0902 -0.8205 58 56 82
146.1628 59.4824 350.7096 -0.6464 -0.0633 -0.7603 101 100 119
134.1174 60.6513 360.2878 -0.6083 -0.0635 -0.7912 86 87 110
110.3717 63.6681 376.2524 -0.4644 0.4503 -0.7626 74 75 97
-2.1589 62.1302 363.8047 0.1263 0.8285 -0.5456 255 243 224
-22.4849 61.4649 362.3103 -0.0091 0.7187 -0.6953 255 253 237
-38.8665 61.9095 363.6282 -0.2662 0.5448 -0.7952 255 255 240
-76.8914 59.6533 351.6022 0.0103 0.6506 -0.7593 180 171 167
-96.7776 59.2065 352.5610 -0.0254 0.6918 -0.7217 255 244 225
-113.0725 59.6442 353.5168 -0.1580 0.6789 -0.7170 255 255 248
-131.3814 60.5737 359.6716 -0.4662 0.4417 -0.7665 161 158 152
196.9236 53.9400 315.2876 -0.2380 0.3384 -0.9104 40 39 60
186.3549 54.6877 320.3517 -0.3351 0.2883 -0.8970 26 27 47
168.5553 57.3371 333.9297 -0.6133 0.0796 -0.7858 72 73 96
157.6187 58.3661 341.8194 -0.5791 -0.1051 -0.8084 62 62 80
137.1282 61.3305 358.2208 -0.6303 -0.1249 -0.7663 38 38 61
124.4249 62.5538 367.9912 -0.6362 0.0768 -0.7677 85 86 109
114.2346 64.5390 375.8981 -0.4721 0.3846 -0.7932 57 55 80
100.3722 66.0278 387.4913 -0.7776 0.2501 -0.5769 85 87 107
91.0179 68.9949 403.8124 -0.8819 0.1718 -0.4390 88 90 105
80.8940 72.3501 422.4201 -0.8118 0.3092 -0.4954 110 111 129
1.7293 63.3196 367.0352 0.1455 0.8117 -0.5656 255 231 214
-18.6375 62.4069 362.9840 -0.0226 0.7624 -0.6467 255 239 222
-34.9197 62.8051 363.8187 -0.0341 0.5865 -0.8093 255 255 244
-51.9539 63.5079 367.7295 -0.0288 0.7035 -0.7101 255 232 215
-73.1730 60.5662 352.2057 0.1293 0.6598 -0.7402 204 197 195
-92.7713 60.0179 352.1814 -0.0233 0.6903 -0.7231 255 250 235
-109.2239 60.5008 353.6335 -0.1211 0.6829 -0.7204 255 255 241
188.6653 55.2989 318.6851 -0.3069 0.3213 -0.8959 56 57 80
178.5943 56.2592 325.6948 -0.5254 0.2508 -0.8131 27 28 52
160.0259 58.9672 339.4535 -0.6141 -0.0970 -0.7832 54 52 78
148.8262 60.1074 348.3596 -0.6029 -0.0761 -0.7942 83 84 104
127.4030 63.1981 365.4198 -0.6547 -0.0332 -0.7552 91 92 112
103.3782 66.5050 383.0585 -0.6281 0.3752 -0.6818 69 70 90
84.4924 72.9414 418.6175 -0.8461 0.1700 -0.5052 99 101 119
74.5804 77.1504 443.5072 -0.9161 0.0209 -0.4003 116 117 135
5.7071 64.6406 371.4008 0.2034 0.8090 -0.5514 255 229 210
-14.5564 63.2730 362.9197 0.0472 0.8220 -0.5675 255 255 241
-48.2835 64.5150 368.7151 -0.1141 0.6970 -0.7080 255 243 223
-70.0279 61.7338 355.4052 0.2026 0.7023 -0.6825 213 200 196
-89.3131 60.9700 353.1288 0.0156 0.7159 -0.6980 255 254 241
-105.7034 61.4600 354.6822 -0.0201 0.7046 -0.7093 255 249 233
-123.1229 62.1348 357.7396 -0.1146 0.6154 -0.7798 241 216 202
-126.9221 61.2644 357.7897 -0.3051 0.5009 -0.8099 202 194 185
192.0788 56.0930 319.1327 -0.3632 0.3488 -0.8639 58 59 82
180.7357 56.8273 323.5068 -0.4984 0.2958 -0.8149 5 8 29
170.5645 57.8549 330.9670 -0.5642 0.1577 -0.8105 48 49 73
151.8755 60.8138 346.9364 -0.5782 -0.0983 -0.8100 33 33 58
139.7402 61.9075 355.1807 -0.5652 -0.1144 -0.8170 105 107 124
117.8886 65.3425 374.8609 -0.6157 0.1812 -0.7668 76 74 100
94.0448 69.4197 398.6499 -0.8371 0.2072 -0.5063 56 58 76
-6.9574 65.6883 369.3366 0.0691 0.8716 -0.4853 255 237 219
-10.8390 64.4475 365.8593 0.0796 0.8446 -0.5294 255 251 233
-27.3620 64.7462 365.4113 0.1067 0.7704 -0.6285 255 249 230
-30.9910 63.6178 363.0731 0.1007 0.6468 -0.7560 255 246 232
-44.3841 65.4499 369.0431 -0.3926 0.5673 -0.7239 255 252 233
-66.7977 62.8682 358.0437 0.2692 0.7397 -0.6168 237 220 215
-85.7394 61.9149 354.0012 -0.0044 0.7419 -0.6705 255 255 250
-102.1838 62.4028 355.5550 0.0192 0.7347 -0.6781 255 242 225
-119.5189 63.0661 358.3714 -0.0488 0.6861 -0.7259 255 248 232
183.2684 57.4523 322.0506 -0.4219 0.3633 -0.8306 77 78 100
173.0748 58.4777 329.2525 -0.4690 0.2344 -0.8515 55 58 82
162.5272 59.5737 337.2642 -0.5893 -0.0048 -0.8079 14 12 35
142.8937 62.6207 353.7035 -0.5525 -0.0584 -0.8314 58 59 84
130.3488 63.8172 362.7465 -0.6315 -0.1149 -0.7668 26 27 49
120.8905 65.9336 371.8139 -0.7040 -0.0049 -0.7102 45 45 68
106.8963 67.2229 381.0995 -0.5418 0.3941 -0.7424 88 93 107
97.0455 69.8447 393.7565 -0.8116 0.2060 -0.5468 83 85 102
87.6025 73.3105 412.9556 -0.8818 0.1205 -0.4559 99 103 120
77.7124 77.2136 434.8604 -0.9307 0.0323 -0.3645 95 100 114
-3.1729 66.8968 372.2795 0.1111 0.8787 -0.4643 255 241 226
-23.5828 65.8111 367.1204 0.1193 0.7893 -0.6024 255 244 226
-82.0558 62.8057 354.2405 -0.0608 0.7555 -0.6523 255 238 222
-98.6460 63.3351 356.1886 -0.0257 0.7310 -0.6819 255 246 228
-134.0474 64.9211 364.3260 -0.4527 0.5388 -0.7104 188 184 181
193.9611 56.6307 316.8416 -0.3981 0.3440 -0.8504 28 30 50
186.2452 58.1380 321.3101 -0.3210 0.3971 -0.8598 59 57 83
175.5768 59.1161 327.8054 -0.4374 0.3107 -0.8439 34 35 59
165.2384 60.2229 335.6880 -0.5156 0.0643 -0.8544 33 32 53
