ply
format ascii 1.0
element vertex 798
property float x
property float y
property float z
property float nx
property float ny
property float nz
property uchar red
property uchar green
property uchar blue
end_header
-1144.5192 0.2546 1871.1040 0.0000 0.0000 0.0000 225 227 229
175.2834 0.9082 288.8672 -0.2522 -0.2671 -0.9301 165 160 162
157.2161 0.5883 316.4632 -0.1385 -0.5572 -0.8188 216 212 211
149.4377 1.6007 340.5576 -0.4515 -0.1817 -0.8736 6 7 43
131.8239 0.8442 342.9943 -0.2982 -0.0073 -0.9545 22 22 52
130.2209 1.4954 361.2708 -0.2888 -0.2911 -0.9121 255 255 242
116.7916 1.1926 369.9814 -0.2191 0.0679 -0.9733 234 198 181
99.6662 1.7129 366.6740 0.7073 0.2437 -0.6636 153 111 91
86.1960 1.5451 345.3710 0.8035 0.1617 -0.5729 164 126 107
80.3920 1.3990 336.3008 0.6965 0.1679 -0.6977 162 126 109
75.8214 0.9221 331.8715 0.4777 0.2051 -0.8542 204 170 152
61.3522 1.0687 333.0694 -0.1870 0.1715 -0.9673 240 204 187
42.2490 0.9252 327.4869 -0.0068 0.1065 -0.9943 255 225 227
27.8365 1.0426 328.7478 -0.4699 0.1009 -0.8769 197 166 151
5.6818 1.0074 312.5961 -0.5142 0.3390 -0.7879 255 252 235
-5.3168 1.3819 320.4734 -0.4101 0.5285 -0.7433 255 230 211
-35.6260 1.0345 331.5875 0.4220 0.3251 -0.8463 227 193 179
-53.0891 0.9523 326.0981 -0.0446 0.0754 -0.9961 255 229 213
-68.5634 0.9992 329.1633 -0.1618 0.0900 -0.9827 255 246 230
-84.1870 1.0506 332.1620 -0.3197 0.1116 -0.9409 255 229 213
-1138.9937 4.5547 1896.9720 -0.3574 0.4391 -0.8243 228 230 231
177.5593 1.7214 287.8012 0.1051 -0.1286 -0.9861 24 19 21
173.0879 1.8794 296.6499 -0.1171 -0.3101 -0.9435 38 33 37
156.0163 1.3426 329.6206 0.1517 -0.4985 -0.8535 31 26 41
135.6600 1.6472 343.4619 -0.0096 -0.0706 -0.9975 28 28 56
120.5354 2.1302 369.3730 -0.2026 0.0352 -0.9786 240 204 187
104.9892 2.2114 372.8021 0.2235 0.2377 -0.9453 196 155 137
91.5876 1.8767 352.5353 0.8332 0.2170 -0.5086 179 141 124
64.7664 1.9152 332.7854 -0.1487 0.2257 -0.9628 255 228 208
45.5893 1.8576 325.9169 0.1515 0.2475 -0.9570 241 193 191
31.0209 2.0518 326.3589 -0.3511 0.1857 -0.9177 226 183 168
8.9720 1.8184 312.1982 -0.1258 0.4468 -0.8857 255 229 214
-16.7957 1.8306 328.2624 -0.3178 0.5162 -0.7953 255 234 216
-32.2557 1.7009 333.5292 0.2712 0.4939 -0.8262 213 179 165
-49.9588 1.6504 327.4709 0.1641 0.0917 -0.9822 242 208 194
-65.2066 1.7648 329.7488 -0.1744 0.0963 -0.9800 255 255 242
-80.7100 1.8368 332.5777 -0.2219 0.0993 -0.9700 255 244 228
-97.6591 1.6111 339.2101 -0.4272 0.1453 -0.8924 173 160 153
148.5066 3.1554 330.6985 -0.4955 -0.6106 -0.6178 15 17 37
139.6390 2.4156 344.4000 -0.1482 -0.1525 -0.9771 45 44 74
124.0358 3.0969 368.4225 -0.2545 -0.0646 -0.9649 254 220 202
108.7548 3.1553 372.2335 -0.1118 0.2141 -0.9704 214 176 159
68.1793 2.7580 332.5414 -0.1409 0.2830 -0.9487 230 192 173
53.6617 2.9299 333.3517 0.5039 0.1678 -0.8473 186 140 126
12.3537 2.5215 313.1240 0.3173 0.4744 -0.8211 235 198 188
-1.9040 2.2556 319.5181 -0.3999 0.5652 -0.7216 255 237 219
-13.1943 2.7356 326.9961 -0.4293 0.5679 -0.7023 255 239 222
-28.7364 2.4238 334.8736 -0.1256 0.4331 -0.8925 235 202 191
-46.6050 2.3891 328.3128 0.2468 0.1133 -0.9624 236 204 192
-61.4943 2.6466 328.8024 -0.2564 0.1026 -0.9611 255 252 236
-77.0083 2.6874 332.1081 -0.2174 0.0821 -0.9726 255 236 223
-93.6018 2.5739 337.5307 -0.3222 0.1353 -0.9370 205 180 170
-108.3676 2.9810 347.5712 -0.2641 -0.4657 -0.8446 113 111 112
162.1588 2.3658 313.7542 -0.5364 -0.4537 -0.7116 40 21 21
142.6953 3.3467 343.0898 -0.0922 -0.3558 -0.9300 9 12 36
127.7138 3.5799 343.8159 -0.5582 0.1680 -0.8126 64 72 108
71.4664 3.6523 331.5060 0.1045 0.3497 -0.9310 232 200 186
57.2277 3.7037 334.1556 0.0704 0.1471 -0.9866 228 189 177
15.8939 3.1606 314.8989 0.5692 0.4740 -0.6718 205 168 158
1.6123 3.1392 318.2911 -0.5002 0.5605 -0.6601 255 241 226
-43.0023 3.1921 328.3683 0.3275 0.1673 -0.9299 230 197 188
-73.2701 3.6065 330.7547 -0.2353 0.0743 -0.9691 255 251 236
-89.3994 3.5344 335.7380 -0.3595 0.1315 -0.9238 227 199 188
-103.8769 4.0090 345.2024 -0.6977 -0.0762 -0.7124 159 148 145
172.6618 3.0840 290.6780 -0.4566 -0.2550 -0.8523 54 46 49
146.1136 4.2066 342.8571 -0.2727 -0.5996 -0.7524 39 37 63
127.7971 4.0132 368.1859 -0.5354 -0.1236 -0.8355 255 234 214
112.4916 4.1001 371.6420 -0.2335 0.2069 -0.9501 232 198 182
37.7374 3.6513 326.7443 0.1943 0.4592 -0.8668 181 114 121
4.9471 4.1123 315.8484 -0.5116 0.5520 -0.6584 255 236 218
-9.6655 3.6741 325.2428 -0.3969 0.6242 -0.6729 255 232 217
-39.7175 3.8744 330.1435 0.4233 0.2373 -0.8743 215 183 171
-57.7044 3.5602 327.3338 -0.2508 0.1249 -0.9600 255 245 228
-1069.1042 21.4484 1741.3479 0.0000 0.0000 0.0000 234 236 237
173.6552 4.0755 287.4167 -0.1649 -0.0272 -0.9859 224 220 219
130.7566 4.5076 342.7241 -0.3833 0.1572 -0.9101 24 27 53
129.3742 5.2856 361.9936 0.2023 0.2324 -0.9513 255 254 237
116.0728 5.0798 370.2620 -0.2652 0.1800 -0.9472 237 203 190
99.4363 5.4411 369.1463 0.6593 0.3916 -0.6418 169 129 110
79.7996 4.9073 337.0449 0.6736 0.2988 -0.6760 165 132 111
75.1016 4.4197 332.1591 0.3898 0.3658 -0.8451 208 176 160
60.5564 4.5972 333.1111 -0.1413 0.1945 -0.9707 245 208 195
41.5774 4.3570 328.1592 -0.0474 0.4581 -0.8876 233 182 190
27.0743 4.5423 328.8009 -0.4162 0.3018 -0.8577 197 162 153
-6.1239 4.6464 322.8919 -0.3634 0.6946 -0.6209 255 228 214
-17.8197 4.9855 333.6417 -0.2763 0.5380 -0.7964 193 149 134
-33.2338 5.1544 335.4374 0.3803 0.4072 -0.8304 204 173 158
-36.5081 4.5628 331.9810 0.5288 0.4064 -0.7451 202 170 156
-53.9778 4.4267 326.4443 -0.0919 0.1226 -0.9882 255 239 223
-69.5456 4.4777 329.9511 -0.1667 0.1014 -0.9808 255 239 225
-85.2621 4.5178 333.5111 -0.3479 0.1438 -0.9264 255 233 220
-1148.7925 25.7664 1902.9667 0.4360 0.5244 -0.7314 227 229 230
176.3977 4.8007 287.2172 0.0497 0.0874 -0.9949 187 183 182
163.7748 4.5890 305.0122 -0.2108 -0.3430 -0.9154 164 157 159
134.8288 5.2769 343.5193 -0.1028 -0.0368 -0.9940 35 35 65
119.6770 6.0228 369.7045 -0.3043 0.1115 -0.9460 241 207 191
104.2155 6.1104 373.5526 0.2657 0.2994 -0.9164 196 158 141
91.0959 5.5091 354.0934 0.8387 0.2715 -0.4720 176 140 123
85.1641 5.2512 344.4670 0.7970 0.2408 -0.5539 184 149 129
64.0081 5.4288 332.9895 -0.0718 0.2166 -0.9736 255 224 209
44.8858 5.2988 326.2454 0.0635 0.3890 -0.9191 250 196 194
30.3627 5.4529 327.4479 -0.3130 0.4305 -0.8466 223 184 174
8.2939 5.0203 314.0890 -0.2666 0.6168 -0.7406 255 224 209
-2.6868 5.5011 322.0955 -0.3595 0.7260 -0.5862 255 229 215
-29.8030 5.7710 338.6868 -0.1852 0.2816 -0.9415 195 158 143
-50.7449 5.1918 327.0002 0.1137 0.1360 -0.9842 244 213 194
-66.1165 5.2732 330.1713 -0.1546 0.1238 -0.9802 255 242 225
-81.5710 5.3791 332.9070 -0.2734 0.1620 -0.9482 255 255 243
-98.2105 5.2824 338.6438 -0.4678 0.0420 -0.8829 180 165 159
179.0507 5.5424 286.7998 0.3271 0.1134 -0.9381 176 170 165
172.4871 4.9689 296.8146 -0.2041 -0.3753 -0.9041 66 54 58
158.8130 4.8037 315.0974 -0.6078 -0.2508 -0.7535 41 33 38
147.1389 5.4068 337.0483 -0.4709 -0.6298 -0.6178 165 165 167
138.7265 6.0735 344.1110 -0.2706 -0.2197 -0.9373 14 15 38
123.3628 6.9585 369.0662 -0.3220 0.0512 -0.9454 242 209 190
107.9275 7.0623 372.8415 -0.1617 0.2491 -0.9549 219 183 168
67.6363 6.2074 333.6303 -0.0807 0.2546 -0.9637 249 216 197
53.1030 6.4017 334.3226 0.4809 0.3162 -0.8178 184 141 126
48.5524 5.9472 328.8036 0.4948 0.3620 -0.7900 186 133 124
33.5731 6.3733 325.8721 0.0544 0.5377 -0.8414 225 175 164
19.4971 6.3670 329.6128 0.5017 0.6085 -0.6148 169 132 124
11.6048 5.7461 314.9130 0.1557 0.6709 -0.7250 230 193 180
0.8061 6.3509 321.3138 -0.4486 0.6752 -0.5856 253 218 207
-14.1446 6.0535 329.8624 -0.3527 0.5468 -0.7593 189 170 151
-47.5708 5.9233 328.1180 0.2482 0.1426 -0.9582 234 204 194
-62.4090 6.1294 329.4616 -0.2266 0.1198 -0.9666 255 252 235
-77.9026 6.2347 332.3801 -0.2275 0.1390 -0.9638 255 244 229
-94.0548 6.2291 336.9283 -0.3038 0.0965 -0.9478 206 183 170
157.9091 6.1486 307.2088 -0.5075 -0.1845 -0.8416 131 128 133
152.9631 5.1744 324.4415 0.1574 -0.5605 -0.8131 23 19 25
127.3682 7.1244 345.6462 -0.3517 -0.1334 -0.9266 68 73 110
71.1031 7.0417 333.4044 0.1131 0.3071 -0.9449 213 178 158
37.5265 6.9275 330.1191 0.1683 0.6229 -0.7640 154 82 95
23.0975 7.0276 332.0360 0.0499 0.6072 -0.7930 208 182 170
15.1863 6.2783 318.7456 0.5964 0.6427 -0.4808 204 169 156
-10.7673 6.9169 329.2242 -0.1630 0.6655 -0.7283 214 180 166
-26.0255 6.8224 335.0914 -0.3629 0.0615 -0.9298 114 101 97
-44.1108 6.6542 329.3695 0.3685 0.1888 -0.9102 230 200 187
-90.5330 7.0465 337.2025 -0.3333 0.1461 -0.9314 237 211 200
155.2185 6.1085 322.2013 -0.2187 0.1064 -0.9700 138 135 138
140.4206 7.1642 339.9078 -0.2495 -0.8590 -0.4471 244 241 244
130.8423 7.9857 345.4510 -0.3069 -0.1176 -0.9444 39 37 74
126.8217 7.9189 367.7982 -0.4554 0.0271 -0.8899 255 226 210
111.8509 7.9713 372.7925 -0.2565 0.2083 -0.9438 226 192 176
74.7040 7.8382 333.8545 0.4109 0.3321 -0.8490 208 174 159
56.6872 7.1555 335.5833 0.0945 0.2905 -0.9522 220 179 166
41.2987 7.6373 331.6746 -0.0701 0.6127 -0.7872 229 180 185
4.1973 7.2499 319.7068 -0.5524 0.6086 -0.5696 255 231 220
-7.1722 7.7762 328.4885 -0.1713 0.7498 -0.6391 243 210 201
-22.2801 7.8271 332.2163 0.0000 0.2226 -0.9749 214 189 174
-40.7619 7.3495 331.2523 0.5132 0.3401 -0.7880 214 186 175
-58.5553 7.0347 327.9158 -0.2444 0.1524 -0.9576 255 251 233
-74.1917 7.1080 331.4602 -0.2099 0.1400 -0.9677 255 238 223
-120.9246 7.9422 346.0936 -0.2216 0.2209 -0.9498 104 112 121
158.6640 7.2191 302.4732 -0.2387 0.0257 -0.9707 77 69 78
152.0223 7.7377 309.5605 -0.3114 0.0623 -0.9482 153 150 153
143.4401 7.2398 321.2004 -0.5261 0.5721 -0.6292 108 109 113
115.5600 8.9221 371.8721 -0.2717 0.1919 -0.9431 226 192 176
98.4531 9.3392 369.6099 0.4261 0.4484 -0.7857 171 131 111
84.6986 8.8520 345.2007 0.7918 0.3189 -0.5210 166 128 109
79.2613 8.4059 338.2081 0.6312 0.3564 -0.6889 168 132 113
59.9986 8.0490 334.5225 -0.1572 0.2911 -0.9437 231 189 176
26.5383 7.9688 330.0284 -0.3578 0.5439 -0.7590 225 195 184
7.5684 8.1913 317.2405 -0.3154 0.6864 -0.6553 255 231 216
-3.3769 8.6441 327.4172 -0.3097 0.7964 -0.5194 246 216 205
-18.9328 8.4883 334.9896 -0.0470 0.6266 -0.7780 200 178 161
-34.2971 8.6127 337.9557 0.4178 0.3670 -0.8311 187 155 141
-37.4923 8.0528 333.2095 0.6154 0.3922 -0.6837 197 167 154
-54.9622 7.8665 327.4899 -0.1467 0.1861 -0.9715 255 247 231
-70.4094 7.9811 330.4362 -0.1692 0.1865 -0.9678 255 249 234
-86.5659 7.9932 335.2665 -0.3540 0.1655 -0.9205 255 230 217
166.6782 7.6243 293.0144 -0.4786 0.4597 -0.7481 154 152 152
161.7813 7.9639 302.2986 -0.2727 0.1241 -0.9541 137 132 136
142.5646 8.6066 311.9524 -0.2562 0.4429 -0.8592 151 146 150
134.4544 8.8411 344.8395 -0.2172 -0.1792 -0.9595 43 45 65
119.0446 9.8846 370.6827 -0.3483 0.1340 -0.9278 228 194 178
103.6012 10.0080 374.8455 0.1792 0.3867 -0.9046 197 162 142
90.4005 9.2217 354.8343 0.8163 0.3811 -0.4340 173 135 118
63.4970 8.8875 334.2433 -0.0858 0.3255 -0.9416 249 208 193
44.3668 8.6725 327.8838 -0.0504 0.5672 -0.8220 239 189 190
29.7742 8.8447 329.1613 -0.2630 0.5877 -0.7651 211 174 164
10.9351 8.9665 317.4450 0.2751 0.6939 -0.6654 230 196 185
-30.6869 9.3649 339.2874 -0.2877 0.1691 -0.9427 181 145 129
-51.5450 8.6809 327.3593 0.0297 0.2103 -0.9772 255 228 211
-66.7965 8.8099 330.1604 -0.1640 0.2182 -0.9620 255 249 234
-82.6362 8.9082 333.6675 -0.3179 0.1824 -0.9304 255 233 217
-98.8778 8.9090 338.6609 -0.4813 0.2202 -0.8484 180 166 155
-116.0552 8.9788 342.9310 -0.3432 0.4355 -0.8322 94 99 111
180.8715 8.2843 290.7905 0.2690 -0.1647 -0.9489 12 12 12
154.0649 8.6280 307.4217 -0.4251 0.1572 -0.8914 124 121 126
140.8673 10.1368 333.3381 -0.7218 0.1208 -0.6815 46 41 47
122.6264 10.8338 369.5343 -0.4163 0.0847 -0.9053 239 207 193
107.5774 10.9224 374.6461 -0.2248 0.2955 -0.9285 218 182 167
66.9059 9.7320 333.7589 -0.0447 0.3573 -0.9329 244 208 188
52.4079 9.9357 334.6114 0.4009 0.4847 -0.7774 197 155 137
48.0368 9.3907 329.5805 0.3630 0.5494 -0.7526 197 142 131
33.0656 9.6860 328.8270 0.0518 0.5920 -0.8042 214 159 150
18.6605 9.7108 332.9833 0.5244 0.5879 -0.6160 164 116 107
14.4609 9.4804 322.4565 0.5950 0.6718 -0.4411 180 135 132
0.1092 9.4732 327.0865 -0.4299 0.7580 -0.4905 244 212 200
-48.2030 9.4641 327.7615 0.2309 0.2197 -0.9479 232 202 191
-63.1505 9.6419 329.7833 -0.2112 0.2229 -0.9517 255 239 223
-78.8439 9.7717 332.8187 -0.2502 0.2090 -0.9454 255 241 224
-95.1435 9.7915 337.9070 -0.3398 0.3051 -0.8896 202 177 165
163.4578 8.8626 299.7360 -0.5106 0.2373 -0.8264 122 109 120
156.4470 9.4741 305.7462 -0.4162 0.2982 -0.8590 120 119 124
151.4846 9.8453 316.3153 -0.0502 0.0078 -0.9987 149 144 145
148.2404 9.0333 317.2464 0.0953 -0.0572 -0.9938 83 82 85
136.3626 9.8802 340.7260 -0.4057 -0.8712 -0.2766 204 201 205
126.9632 10.7167 346.9818 -0.2024 -0.4789 -0.8542 56 56 95
70.3129 10.5657 333.5032 0.1333 0.3794 -0.9156 233 199 181
55.9415 10.7151 335.6765 0.0836 0.4678 -0.8799 229 191 174
37.0580 10.3397 331.7562 0.1661 0.6054 -0.7784 150 83 87
22.3755 10.4737 334.1719 0.0342 0.6871 -0.7257 211 180 172
3.5169 10.4239 324.3324 -0.4972 0.7287 -0.4709 255 232 220
-8.2882 10.9590 335.3500 -0.0793 0.7272 -0.6818 234 210 193
-44.9406 10.1925 329.2340 0.3944 0.2167 -0.8930 217 190 179
-59.5025 10.4944 328.9857 -0.2306 0.2393 -0.9432 255 247 232
-91.5546 10.6408 337.5863 -0.3302 0.2998 -0.8950 241 216 204
165.6823 9.6977 298.1317 -0.5147 0.4687 -0.7179 140 137 143
131.1781 11.4936 348.4677 -0.1450 -0.7146 -0.6843 186 186 186
125.8541 11.8217 367.2739 -0.3969 0.0353 -0.9172 236 204 192
111.2213 11.8746 373.6143 -0.2859 0.2240 -0.9317 229 197 183
74.1229 11.3236 334.7950 0.4040 0.3755 -0.8341 207 173 157
40.9120 11.0699 333.4401 -0.0028 0.6028 -0.7979 224 180 183
25.8655 11.3623 332.8125 -0.3485 0.6398 -0.6850 216 189 177
-26.9165 10.4176 334.8973 -0.3860 -0.0925 -0.9178 193 183 175
-38.4527 11.5443 335.0672 0.6710 0.1870 -0.7175 183 154 138
-41.6868 10.8993 331.3454 0.5584 0.2224 -0.7992 181 156 140
-75.0332 10.6407 331.8809 -0.2075 0.2233 -0.9524 255 233 219
-123.0121 11.5020 349.5468 -0.0843 0.1092 -0.9904 109 116 127
167.7012 10.5342 296.3046 -0.4813 0.6524 -0.5854 131 126 130
159.0708 10.2896 304.6299 -0.2674 0.3208 -0.9086 88 83 89
155.0731 11.7091 311.0339 -0.5627 0.3825 -0.7328 116 90 99
152.6787 10.8503 312.5928 -0.3259 0.1083 -0.9392 118 115 120
140.4328 10.9291 315.5683 -0.3783 0.4988 -0.7798 112 114 120
136.5855 11.1201 332.5430 -0.3280 -0.5178 -0.7901 98 97 104
114.9022 12.8171 372.7262 -0.2588 0.2118 -0.9424 230 197 181
98.7580 13.0656 374.4417 0.4380 0.4545 -0.7756 184 145 129
90.9928 12.7522 360.2570 0.8014 0.4107 -0.4349 161 121 100
84.6495 12.3813 347.7360 0.7647 0.4545 -0.4569 187 151 133
78.6840 11.9398 339.2031 0.6232 0.3958 -0.6745 157 124 103
59.3000 11.5738 334.9785 -0.1781 0.4240 -0.8880 225 184 166
44.0965 11.9926 331.3956 -0.0215 0.6376 -0.7700 232 189 187
6.9181 11.3860 321.1548 -0.2724 0.7900 -0.5494 255 229 217
-4.2824 11.8605 333.6775 -0.1467 0.7533 -0.6411 233 198 185
-16.2608 12.8342 336.9534 -0.1846 0.5593 -0.8082 223 197 176
-19.9507 11.8079 340.8716 0.4144 0.4316 -0.8013 208 185 173
-23.4166 11.1974 335.9915 0.3054 0.1585 -0.9389 195 170 158
-35.2702 12.1662 339.4449 0.4635 0.1936 -0.8647 184 150 136
-55.9241 11.3341 328.3566 -0.1866 0.2593 -0.9476 255 240 224
-71.3914 11.4861 331.3141 -0.1564 0.2718 -0.9496 255 242 227
-87.5602 11.5528 335.9199 -0.3738 0.2606 -0.8901 248 219 204
176.1283 10.7174 289.4461 -0.1607 0.0213 -0.9868 157 152 154
162.2622 11.0324 304.6879 -0.4040 0.3591 -0.8413 49 43 47
118.6002 13.7508 372.0743 -0.3796 0.1714 -0.9091 230 196 183
103.1283 13.9087 376.4370 0.0705 0.4615 -0.8843 190 149 131
62.8929 12.3814 335.3119 -0.1331 0.4508 -0.8826 246 209 189
47.5199 12.7963 331.8630 0.2161 0.6770 -0.7035 207 159 148
29.3182 12.2321 331.7314 -0.2590 0.6632 -0.7022 229 194 186
10.3167 12.1603 321.7099 0.3038 0.7890 -0.5341 232 197 186
-0.8426 12.7263 332.8503 0.0239 0.7977 -0.6025 218 181 169
-52.4076 12.1606 327.9672 -0.0564 0.2718 -0.9607 254 225 209
-67.8385 12.3100 331.0827 -0.1449 0.3221 -0.9356 255 243 228
-83.8229 12.4257 335.0165 -0.3430 0.2495 -0.9056 255 238 221
-100.8591 12.3956 342.1254 -0.3765 0.4449 -0.8126 143 134 130
-119.1686 12.3702 349.3459 -0.3172 -0.2599 -0.9121 87 94 107
168.8020 11.4379 293.0056 -0.5963 0.6824 -0.4228 126 118 125
164.6816 11.8496 303.3508 -0.5168 0.2913 -0.8051 150 145 149
136.0542 12.3825 323.2423 -0.5667 0.2260 -0.7923 125 127 133
131.8898 12.6503 340.8341 -0.2936 -0.6517 -0.6994 23 19 25
121.6577 14.7391 369.6491 -0.4658 0.1561 -0.8710 228 196 182
106.9017 14.8513 375.3859 -0.2814 0.3445 -0.8956 217 181 163
66.4057 13.2055 335.3350 -0.0402 0.4838 -0.8742 244 207 185
51.7539 13.4298 336.0621 0.2474 0.5889 -0.7694 203 160 145
32.7377 13.0270 332.5383 -0.0496 0.6570 -0.7522 230 193 182
21.8595 13.8729 338.2318 -0.0773 0.6854 -0.7241 215 182 175
17.9184 13.1774 335.0777 0.3957 0.7434 -0.5392 178 127 117
13.9005 12.7749 325.7486 0.5268 0.7282 -0.4385 197 161 146
-31.5171 13.0496 338.1636 -0.2503 0.1392 -0.9581 187 153 140
-49.0374 12.9372 328.7150 0.1493 0.2824 -0.9476 230 199 189
-64.2596 13.1306 330.9523 -0.1965 0.3242 -0.9253 255 245 228
-79.8533 13.3103 333.5590 -0.2667 0.2722 -0.9245 255 247 231
-96.5925 13.3414 339.7505 -0.3397 0.4501 -0.8258 207 184 174
178.2012 11.5002 287.6868 -0.0887 -0.1308 -0.9874 84 81 85
171.5959 12.1731 292.4995 -0.5293 0.7061 -0.4704 167 164 167
166.7479 12.6735 301.6385 -0.4046 0.2740 -0.8725 139 136 141
155.7258 12.7121 305.6707 -0.5031 0.3479 -0.7911 81 68 79
149.5920 13.3037 314.3752 0.0408 0.0745 -0.9964 15 2 11
145.5185 12.6047 312.9814 -0.0808 0.0932 -0.9924 81 78 83
138.4270 13.2750 320.7551 -0.2275 0.3836 -0.8950 118 115 118
110.4451 15.8074 374.0607 -0.3439 0.2845 -0.8949 233 202 185
69.9205 14.0239 335.3940 0.1019 0.4927 -0.8642 222 186 164
55.5750 14.1705 338.3940 0.0299 0.5295 -0.8478 220 178 160
36.4818 13.7944 333.6627 0.1118 0.6463 -0.7549 169 106 102
-9.1882 14.4526 337.8535 -0.0617 0.6930 -0.7183 255 255 231
-12.3006 13.7924 333.4646 -0.1099 0.6786 -0.7262 221 197 175
-27.5027 14.1510 331.7242 -0.4289 0.0945 -0.8984 170 150 150
-45.7674 13.6893 330.1082 0.3693 0.2730 -0.8883 221 193 182
-76.1920 14.1350 333.4376 -0.2125 0.2959 -0.9313 255 242 227
-92.7401 14.2260 338.6208 -0.3970 0.3952 -0.8284 236 208 199
178.1957 12.4580 282.7568 -0.7715 0.2736 -0.5744 107 100 102
169.5108 13.4368 301.1202 -0.2988 0.2950 -0.9076 165 160 164
158.9631 13.4496 305.6333 -0.2715 0.3499 -0.8966 96 88 95
131.4003 13.9047 330.4768 -0.2997 -0.3171 -0.8998 137 134 137
125.1458 15.6771 368.1494 -0.4411 0.1589 -0.8833 217 185 171
91.3669 16.4238 364.9176 0.7925 0.4155 -0.4465 152 114 97
73.7107 14.8041 336.4164 0.2931 0.5048 -0.8120 214 180 164
58.9221 15.0419 337.3142 -0.1161 0.5241 -0.8437 237 199 180
40.1708 14.5453 335.5103 0.0769 0.6690 -0.7393 188 135 137
25.3700 14.7486 337.2047 -0.3571 0.6305 -0.6892 217 189 181
-42.5221 14.4119 332.4033 0.5738 0.2093 -0.7918 182 157 143
-57.0192 14.8108 329.6325 -0.2195 0.3053 -0.9266 255 239 223
-60.4348 13.9836 329.8790 -0.2451 0.3086 -0.9191 255 243 226
-88.7563 15.1148 337.2217 -0.4046 0.3364 -0.8503 254 227 211
173.1100 13.0048 290.2487 -0.4132 0.7083 -0.5723 108 100 108
162.3907 14.1718 306.2905 -0.4189 0.1085 -0.9015 166 166 168
152.3113 14.1145 313.4812 -0.2917 0.1530 -0.9442 85 24 31
133.3443 14.8656 326.4768 -0.3151 0.0768 -0.9459 66 66 68
127.1663 15.4567 340.0188 -0.5233 -0.6021 -0.6030 21 21 23
114.1372 16.7401 373.3580 -0.2881 0.2761 -0.9170 229 195 182
98.4360 16.9543 377.0574 0.0267 0.4345 -0.9003 196 160 141
84.4212 15.9659 350.9414 0.6900 0.5617 -0.4565 179 146 127
78.3058 15.4596 341.2535 0.6052 0.5401 -0.5849 190 156 138
43.6602 15.3926 334.9689 0.0289 0.6957 -0.7177 223 182 180
28.7779 15.6398 335.4952 -0.2876 0.6335 -0.7183 223 192 182
9.8254 15.3319 329.1361 -0.1930 0.8605 -0.4715 247 217 204
-5.1134 15.2697 337.9000 -0.1203 0.6834 -0.7201 235 207 196
-20.6785 15.5037 339.5808 0.4361 0.3621 -0.8238 232 211 204
-39.3635 15.0655 336.6776 0.6496 0.1391 -0.7474 160 129 112
-72.6013 14.9694 333.0575 -0.1406 0.3234 -0.9358 255 239 227
179.2298 13.2979 280.1786 -0.6816 0.3357 -0.6501 121 116 120
174.9561 13.7972 288.3628 -0.5493 0.6203 -0.5598 167 164 167
171.0053 14.2998 298.1599 -0.4844 0.4225 -0.7661 114 109 113
156.2095 14.8177 314.5932 -0.5891 0.2031 -0.7821 136 44 50
117.9502 17.6553 373.0834 -0.3868 0.2423 -0.8898 223 189 176
102.7416 17.8365 378.4772 -0.1013 0.4129 -0.9051 199 161 142
62.3870 15.8821 336.8810 -0.1075 0.5635 -0.8191 237 200 178
47.2475 16.1897 336.0021 0.0746 0.6855 -0.7242 209 166 151
32.1580 16.4740 335.4691 -0.1104 0.6556 -0.7470 230 198 186
17.5117 16.6045 340.0556 0.2201 0.6380 -0.7379 217 178 168
13.5244 16.0518 331.8214 0.2675 0.8086 -0.5241 229 191 181
-1.5736 16.0994 338.2821 0.0261 0.6725 -0.7396 227 188 174
-17.2177 16.2112 343.4521 -0.0245 0.4326 -0.9013 219 193 186
-32.6692 16.5862 341.3622 -0.0375 0.0484 -0.9981 205 176 161
-36.0867 15.7961 339.5122 0.4741 0.1141 -0.8731 186 154 138
-53.4691 15.6334 329.3323 -0.0844 0.3210 -0.9433 255 227 213
-68.9191 15.8052 332.5980 -0.1207 0.3577 -0.9260 238 198 191
-85.0075 15.9679 336.4383 -0.3583 0.3098 -0.8807 254 223 206
177.0355 14.5659 286.5399 -0.5098 0.5661 -0.6477 85 77 82
172.8133 15.1128 296.0197 -0.4734 0.4332 -0.7670 112 102 110
135.3758 15.7869 323.4493 -0.4616 0.2401 -0.8540 133 135 141
121.2493 18.6076 371.1978 -0.4578 0.1790 -0.8708 204 173 158
106.5333 18.7735 377.5535 -0.3094 0.3328 -0.8908 223 187 169
65.9644 16.6965 337.2086 -0.0511 0.5838 -0.8103 244 209 186
51.1893 16.9384 338.2758 0.0991 0.5997 -0.7941 213 168 151
21.2219 17.3740 342.0816 -0.1053 0.5654 -0.8181 240 205 196
2.0655 16.8552 340.7590 0.0994 0.5239 -0.8459 218 175 160
-13.5225 17.1684 340.3509 -0.1048 0.5366 -0.8373 233 204 196
-49.8819 16.4452 329.1313 0.1180 0.3427 -0.9320 241 211 201
-65.4408 16.6203 332.7380 -0.1818 0.3678 -0.9120 255 233 217
-81.0050 16.8427 334.9156 -0.2875 0.3249 -0.9010 255 251 233
-98.3922 16.8795 343.1196 -0.1587 0.3103 -0.9373 178 163 156
163.8441 15.0319 303.2618 -0.4961 -0.0546 -0.8665 150 144 153
156.9184 15.7854 309.4071 -0.6432 0.1289 -0.7548 173 96 106
138.2316 16.6213 322.2095 -0.1700 0.1627 -0.9719 100 99 104
127.4814 16.5698 331.2849 -0.4121 -0.2401 -0.8790 161 160 163
109.9833 19.7265 375.7309 -0.3644 0.3088 -0.8785 218 182 167
69.5977 17.5051 337.8488 0.1366 0.6311 -0.7636 226 190 173
55.0089 17.7113 340.1498 0.0122 0.5436 -0.8393 228 188 172
35.7199 17.3128 334.8713 0.0849 0.6558 -0.7501 216 179 168
5.8028 17.6539 342.0817 -0.2329 0.4570 -0.8584 212 169 154
-9.9576 17.9813 341.3120 -0.0814 0.5848 -0.8071 241 211 201
-46.5930 17.2134 330.5471 0.3092 0.3307 -0.8917 217 196 185
-61.6177 17.4724 331.5872 -0.2473 0.3401 -0.9073 255 237 220
-77.1614 17.6873 334.1285 -0.2196 0.3513 -0.9101 255 239 225
-94.5327 17.7483 342.2819 -0.3715 0.3750 -0.8493 222 196 184
178.2276 15.3794 283.9657 -0.4824 0.6039 -0.6345 127 122 121
174.6066 15.9158 293.8907 -0.4735 0.5096 -0.7184 106 98 105
159.4395 16.5882 308.2177 -0.4277 0.1343 -0.8939 176 173 177
129.3274 17.5157 326.9506 -0.3313 -0.0457 -0.9424 145 145 145
98.2309 20.8897 380.0881 -0.0037 0.4267 -0.9044 185 145 127
84.5036 19.5867 355.5697 0.6598 0.6090 -0.4402 157 119 100
78.0668 19.0097 344.1181 0.6054 0.6401 -0.4731 166 130 110
73.3683 18.3052 338.7675 0.3496 0.6304 -0.6931 195 158 136
58.5976 18.5457 340.0732 -0.0712 0.5222 -0.8498 229 191 174
43.6526 18.8266 339.6950 0.1120 0.6552 -0.7471 232 193 184
39.5955 18.0578 337.7953 0.1461 0.6624 -0.7348 176 115 108
24.7628 18.2496 340.8244 -0.3672 0.4673 -0.8042 236 202 191
9.2784 18.5952 338.7785 -0.2037 0.5064 -0.8379 218 177 163
-6.0508 18.8333 340.5215 -0.0719 0.5502 -0.8319 254 224 211
-43.2576 17.9707 332.4977 0.4693 0.3190 -0.8234 178 155 144
177.3019 16.6518 293.3445 -0.5955 0.2947 -0.7473 134 122 126
151.9233 17.3991 314.1611 -0.2592 0.3086 -0.9152 132 111 112
132.5728 18.3267 326.7751 -0.3426 0.1304 -0.9304 85 82 88
121.1652 18.3480 335.8790 -0.6781 -0.2062 -0.7055 178 177 182
113.6316 20.6578 374.7886 -0.3097 0.3250 -0.8936 223 187 169
62.0318 19.3971 339.2980 -0.0726 0.5777 -0.8130 240 205 185
47.1027 19.6533 340.3658 0.0230 0.6220 -0.7827 229 193 175
28.1986 19.1243 339.4927 -0.2943 0.4779 -0.8276 226 196 184
12.9438 19.4214 339.1013 0.1787 0.5225 -0.8337 232 190 179
-2.4667 19.6462 341.9063 0.0031 0.4727 -0.8812 251 219 203
-39.9047 18.7399 334.4458 0.5585 0.2472 -0.7918 172 143 126
-58.1625 18.2957 331.3371 -0.2348 0.3486 -0.9074 255 239 223
-73.5873 18.5189 333.8506 -0.1397 0.3731 -0.9172 255 233 221
-90.3681 18.6343 340.4073 -0.4379 0.3407 -0.8320 246 216 203
171.4674 17.3563 300.1120 -0.5638 -0.0081 -0.8259 148 140 147
162.4095 17.3459 307.7090 -0.5411 0.0281 -0.8405 209 206 209
154.7926 18.1876 313.2595 -0.5792 0.2208 -0.7847 149 72 87
143.6817 18.2563 319.4694 -0.0586 0.0132 -0.9982 226 226 226
135.8554 19.1319 326.4407 -0.2798 0.1937 -0.9403 120 119 126
123.7179 19.2244 333.0879 -0.6848 -0.1365 -0.7158 198 197 200
120.4085 19.7777 357.4230 -0.4929 -0.2466 -0.8344 124 120 119
117.4295 21.5739 374.3002 -0.3710 0.2891 -0.8825 208 169 155
102.0566 21.8172 379.3873 -0.1855 0.3747 -0.9084 206 167 151
65.5694 20.2265 339.3601 0.0116 0.6342 -0.7730 232 195 175
31.7663 19.9591 339.5536 -0.1021 0.5496 -0.8292 207 173 157
16.8108 20.1424 344.0529 0.2296 0.4148 -0.8805 241 206 195
1.1937 20.4578 343.3469 0.0408 0.3952 -0.9177 238 202 186
-17.9311 19.9416 341.4285 0.2215 0.3767 -0.8995 226 197 191
-36.6524 19.5023 337.1779 0.4830 0.1460 -0.8634 193 164 149
-54.5568 19.1267 330.6860 -0.1075 0.3973 -0.9114 255 224 207
-70.0009 19.3344 334.0505 -0.1087 0.3799 -0.9186 250 210 201
-86.2677 19.5268 338.3073 -0.4002 0.3356 -0.8528 255 235 223
173.7787 18.1278 299.0807 -0.6340 -0.0790 -0.7693 46 40 51
163.3183 18.2303 303.6512 -0.4260 0.0434 -0.9037 197 194 200
139.9984 19.8885 327.9238 -0.2888 0.1822 -0.9399 99 101 102
106.0090 22.7426 379.4622 -0.3205 0.2508 -0.9134 219 183 168
50.7317 20.4797 340.6374 -0.0481 0.5380 -0.8416 229 186 170
35.4391 20.7918 339.6015 0.1124 0.5685 -0.8150 217 185 171
20.5584 20.9720 344.8744 -0.1463 0.1751 -0.9736 243 209 195
-14.4319 20.7534 343.3030 0.0372 0.3324 -0.9424 221 187 183
-33.3610 20.2586 340.4265 0.1424 -0.0460 -0.9887 213 185 172
-50.8669 19.9606 329.9395 0.0569 0.4223 -0.9047 248 220 211
-66.5095 20.1480 334.3717 -0.1540 0.3839 -0.9104 255 224 211
-82.3714 20.3881 337.0120 -0.3000 0.3722 -0.8783 255 235 218
179.9147 18.2454 287.7398 -0.1637 0.5738 -0.8024 45 28 34
165.4722 19.0165 301.6177 -0.3740 0.1685 -0.9120 186 183 186
156.4970 19.0326 310.3208 -0.6431 0.0679 -0.7628 172 80 97
143.6999 19.2393 312.3379 -0.1747 0.4429 -0.8794 255 255 255
125.6978 20.1345 328.9073 -0.4583 0.0003 -0.8888 140 138 148
118.8077 20.9697 341.2955 -0.7480 -0.0845 -0.6583 155 154 157
109.5205 23.6811 377.8850 -0.3773 0.2021 -0.9038 215 177 158
92.2876 24.0241 375.3687 0.3114 0.5287 -0.7896 169 134 112
79.1162 22.5376 351.7684 0.6397 0.6297 -0.4409 158 125 104
73.5799 21.8141 343.4420 0.4916 0.6463 -0.5837 191 156 134
69.2831 21.0350 340.3762 0.1809 0.6721 -0.7180 217 181 163
54.2900 21.3085 340.9256 -0.0296 0.5057 -0.8622 220 179 163
39.2528 21.5877 341.4548 0.1825 0.5391 -0.8222 175 127 111
24.1135 21.8455 343.1903 -0.3295 0.1872 -0.9254 236 202 188
4.9113 21.2991 343.2256 -0.0949 0.3267 -0.9404 227 188 176
-10.8558 21.5751 344.6858 -0.0248 0.3683 -0.9294 237 204 195
-47.5617 20.7391 331.6411 0.1982 0.4265 -0.8825 208 187 176
-62.8138 20.9877 333.5584 -0.2325 0.3819 -0.8945 255 233 217
-78.5852 21.2350 336.1026 -0.2313 0.4014 -0.8862 255 236 221
-95.9615 21.3801 344.3044 -0.2623 0.2091 -0.9421 209 188 177
175.6596 18.9076 296.9015 -0.5995 -0.0916 -0.7951 212 207 208
158.3532 19.8451 307.5999 -0.6271 0.1370 -0.7668 221 209 211
152.4760 20.6595 316.6525 -0.1866 0.1340 -0.9733 187 182 184
129.4353 20.9217 329.3993 -0.2426 0.1194 -0.9628 97 99 105
113.0686 24.6108 376.6284 -0.3223 0.2459 -0.9141 202 169 149
97.9674 24.8847 382.4213 -0.1349 0.4950 -0.8584 172 128 104
85.1697 23.2695 362.7622 0.6223 0.6537 -0.4307 152 116 98
58.0930 22.1220 342.1803 0.0035 0.5082 -0.8612 231 193 174
43.3434 22.3813 343.2092 0.1125 0.4815 -0.8692 203 165 160
8.6314 22.1510 342.4368 -0.0923 0.3049 -0.9479 237 200 187
-7.0607 22.4338 344.0281 -0.0276 0.3669 -0.9299 252 222 209
-44.1368 21.5160 333.6135 0.3719 0.4245 -0.8256 152 137 131
-59.0982 21.8330 332.2201 -0.2314 0.4184 -0.8783 255 233 219
-91.5811 22.2649 341.9525 -0.4216 0.3149 -0.8503 240 210 197
168.3219 19.7585 301.2788 -0.3983 0.2908 -0.8699 198 196 199
143.5213 21.6201 320.6819 -0.3294 0.3562 -0.8744 255 255 255
132.8828 21.7252 329.4954 -0.2569 0.1085 -0.9603 98 97 100
120.2682 21.8988 334.6786 -0.7975 0.0858 -0.5973 121 120 125
61.8502 22.9449 343.0707 0.0236 0.5455 -0.8378 237 199 180
46.7619 23.2268 343.9088 0.0219 0.4858 -0.8738 229 192 177
27.5452 22.7111 341.6245 -0.1922 0.2809 -0.9403 237 204 195
12.3511 22.9878 342.7661 0.0900 0.2580 -0.9620 235 196 184
-3.4128 23.2764 344.1458 -0.0154 0.3721 -0.9281 248 220 207
-40.8093 22.2963 336.2426 0.4882 0.4135 -0.7686 179 152 134
-74.8305 22.0661 335.6799 -0.1474 0.4316 -0.8899 255 225 211
170.2872 20.5346 299.4980 -0.5896 0.1024 -0.8012 113 107 115
154.6953 21.4684 314.5961 -0.3558 0.1623 -0.9204 122 79 91
136.0338 22.5360 328.8143 -0.3169 -0.1053 -0.9426 134 133 138
122.9718 22.7504 333.1311 -0.7677 0.1241 -0.6287 52 52 56
101.4264 25.8235 380.5000 -0.3078 0.4186 -0.8544 211 175 158
65.5293 23.7763 343.2948 0.1061 0.6188 -0.7784 225 190 170
50.4188 24.0644 344.2428 -0.0411 0.4871 -0.8724 232 194 177
31.1053 23.5542 341.1504 0.0259 0.3891 -0.9208 218 188 175
16.0444 23.8081 344.8804 0.1584 0.1770 -0.9714 236 197 183
-37.6152 23.0946 338.7607 0.3456 0.3523 -0.8698 206 173 161
-55.4801 22.6618 331.6092 -0.1179 0.4811 -0.8687 255 231 218
-71.1741 22.8900 335.6891 -0.1218 0.4273 -0.8959 255 244 231
-87.4128 23.1339 339.6745 -0.4085 0.3575 -0.8398 255 227 210
-104.4606 23.3343 345.5323 0.2401 -0.3330 -0.9118 110 113 119
172.5003 21.2893 298.2254 -0.6800 -0.0607 -0.7307 141 138 142
145.3628 22.4541 317.4198 -0.1506 0.4723 -0.8685 250 250 250
105.3210 26.7456 380.2851 -0.3359 0.3682 -0.8669 217 181 163
69.2395 24.6096 343.9915 0.2975 0.6506 -0.6988 218 182 165
34.8177 24.3822 341.5753 0.1557 0.4251 -0.8916 213 181 166
19.7626 24.6441 346.1074 -0.0550 0.0514 -0.9972 234 193 179
0.3284 24.1167 344.0690 -0.0493 0.3334 -0.9415 255 223 207
-15.2854 24.4161 344.7645 0.1383 0.2885 -0.9474 223 192 182
-34.0083 23.9222 339.1363 -0.0400 0.2458 -0.9685 223 193 180
-52.0833 23.4700 332.4427 0.0044 0.4925 -0.8703 245 214 204
-67.5940 23.7172 335.6227 -0.1428 0.4244 -0.8941 255 229 214
-83.5357 23.9777 338.7438 -0.2970 0.4196 -0.8578 255 234 219
181.1144 21.1921 290.8593 -0.2669 0.2719 -0.9246 143 51 66
156.2581 22.2873 311.2400 -0.5464 0.2553 -0.7977 177 87 106
149.5519 23.1971 319.0341 -0.1660 0.3753 -0.9119 255 255 255
138.2088 23.3675 325.9466 -0.5267 -0.0695 -0.8472 74 75 82
125.3214 23.5973 330.2007 -0.4948 0.1619 -0.8538 82 84 88
108.9219 27.6731 379.2633 -0.3636 0.3027 -0.8810 206 167 151
93.5827 27.9989 384.4352 0.0998 0.5725 -0.8138 172 132 114
86.1342 27.1036 370.7764 0.6248 0.6958 -0.3543 165 127 108
79.2006 26.2400 356.2352 0.5736 0.7062 -0.4151 162 127 107
73.4836 25.4301 347.3334 0.4962 0.6761 -0.5447 182 148 128
53.9386 24.9078 343.5745 -0.0481 0.4832 -0.8742 220 180 161
38.5265 25.2109 342.7189 0.1624 0.4023 -0.9010 216 183 167
4.0233 24.9640 344.4985 -0.0999 0.2941 -0.9505 244 211 193
-11.5762 25.2591 345.1267 0.0596 0.2577 -0.9644 232 199 192
-48.6609 24.2752 333.4155 0.1085 0.4739 -0.8739 206 185 174
-64.0167 24.5466 335.3934 -0.1980 0.4466 -0.8726 255 238 225
-79.7885 24.8175 338.0670 -0.2205 0.4615 -0.8593 255 231 218
-97.4278 25.0511 346.6381 0.1899 0.0739 -0.9790 186 169 161
174.2707 22.0469 295.5113 -0.6550 -0.1109 -0.7474 218 217 220
158.3347 23.0769 309.2298 -0.7455 0.3819 -0.5462 216 129 149
140.6430 24.1913 323.3303 -0.3701 -0.0706 -0.9263 100 99 106
128.8189 24.3969 329.9409 -0.2001 0.1724 -0.9645 132 129 134
120.4223 25.4291 338.0681 -0.7436 -0.0562 -0.6662 50 51 57
97.6019 28.9281 384.5881 -0.1741 0.5904 -0.7881 199 161 142
57.5207 25.7425 343.7143 0.0415 0.5170 -0.8550 232 194 177
42.4799 26.0337 344.8968 0.1351 0.3572 -0.9242 207 163 148
23.2918 25.5032 343.4701 -0.2009 0.0817 -0.9762 240 204 187
7.7234 25.8132 344.0253 -0.0959 0.2684 -0.9585 237 201 183
-7.8909 26.1072 345.7976 -0.0163 0.2479 -0.9687 235 202 195
-44.9358 25.0868 333.7607 0.3421 0.4520 -0.8238 121 114 114
-60.3184 25.3808 334.3750 -0.1894 0.4957 -0.8476 255 235 221
-76.0908 25.6492 337.9059 -0.1710 0.4894 -0.8551 255 228 215
-93.0046 25.9039 344.4474 -0.3611 0.3701 -0.8559 229 201 190
160.2901 23.8526 306.4563 -0.6061 0.4458 -0.6587 204 194 200
150.7560 24.0037 314.8242 -0.0931 0.0093 -0.9956 165 165 167
143.7605 24.9822 322.7810 -0.2941 0.1022 -0.9503 158 155 156
131.9667 25.2075 329.4350 -0.2496 0.0809 -0.9650 148 147 152
110.5133 26.5122 343.1916 -0.2492 0.0452 -0.9674 117 114 119
61.2168 26.5779 344.4183 0.1237 0.5337 -0.8366 219 177 157
46.1090 26.8776 345.5290 0.0917 0.3421 -0.9352 225 186 175
26.8878 26.3490 342.3755 -0.1065 0.2420 -0.9644 254 218 203
11.5258 26.6489 343.6519 -0.0143 0.2005 -0.9796 245 209 193
-4.2749 26.9609 344.6042 -0.0522 0.3045 -0.9511 255 235 220
-41.7966 25.8912 337.8937 0.4724 0.4665 -0.7478 163 135 124
176.5464 22.7785 294.3418 -0.5559 -0.0411 -0.8302 208 196 200
170.1371 23.6758 300.7170 -0.6934 0.3362 -0.6373 154 151 157
153.5939 24.7928 314.0066 -0.2952 0.2137 -0.9312 127 118 121
134.4724 26.0174 327.0133 -0.5549 0.0316 -0.8313 140 139 144
122.5756 26.2602 334.1399 -0.7345 0.1022 -0.6708 119 121 125
101.0592 29.8478 382.4674 -0.3594 0.5049 -0.7848 207 169 150
65.1450 27.4142 345.8137 0.2598 0.6306 -0.7314 218 181 161
49.7369 27.7148 345.2398 0.0315 0.3825 -0.9234 229 191 174
34.4345 28.0341 345.4622 0.1557 0.3778 -0.9127 190 162 149
30.5292 27.1869 342.7697 0.0653 0.3625 -0.9297 229 197 185
15.2457 27.4884 344.3597 -0.0067 0.1083 -0.9941 242 206 193
-0.4721 27.8103 344.0317 -0.0540 0.3343 -0.9409 255 235 218
-38.6038 26.7211 340.2343 0.2795 0.4764 -0.8336 217 190 179
-56.6232 26.2044 333.8784 -0.1070 0.5400 -0.8349 255 230 217
-72.4431 26.4814 337.4891 -0.1486 0.5005 -0.8529 255 227 213
-88.7081 26.7609 342.0140 -0.3873 0.4388 -0.8108 249 220 207
-121.6878 28.2455 357.4835 -0.4902 0.2928 -0.8210 132 141 156
177.8079 23.5306 291.4368 -0.4069 0.0814 -0.9098 185 117 128
172.1128 24.4220 299.0528 -0.8158 0.2055 -0.5406 170 167 173
162.4826 24.6152 304.8354 -0.4703 0.4712 -0.7462 192 190 193
146.2437 25.7753 320.7255 -0.1963 0.2813 -0.9393 255 255 255
125.0024 27.0784 331.3152 -0.5844 0.1054 -0.8046 57 56 61
113.8634 27.3503 342.3843 -0.3526 0.0662 -0.9334 53 54 63
104.6901 30.7579 380.8107 -0.3728 0.5105 -0.7749 216 178 159
87.4467 31.1003 379.3835 0.4260 0.6559 -0.6231 156 116 97
80.8294 30.0977 367.8306 0.6048 0.7214 -0.3374 178 147 127
69.0618 28.2586 347.4089 0.3875 0.6615 -0.6421 201 164 142
53.4312 28.5596 345.6580 -0.0162 0.4492 -0.8933 236 198 181
18.8827 28.3310 344.9749 -0.0438 0.0795 -0.9959 244 205 191
-16.1331 28.1088 345.4041 0.1311 0.2942 -0.9467 221 188 179
-34.8073 27.5557 339.7194 -0.1203 0.4408 -0.8895 237 211 202
-53.1804 27.0254 334.6974 -0.0524 0.5499 -0.8336 247 222 212
-68.8449 27.3122 337.6009 -0.1542 0.4932 -0.8562 255 229 214
-84.8847 27.6057 340.9183 -0.3012 0.5088 -0.8065 255 234 221
180.8961 24.2335 291.6360 -0.3904 0.1592 -0.9068 179 102 126
165.6638 25.3509 304.9642 -0.3900 0.4514 -0.8026 189 184 190
136.4846 26.8279 324.0453 -0.5382 0.0424 -0.8417 134 133 136
116.8007 28.1698 340.2393 -0.5208 0.1131 -0.8461 112 114 120
93.4804 32.1016 387.9558 -0.1029 0.5716 -0.8141 181 139 119
74.2060 29.1377 354.6602 0.5769 0.6972 -0.4257 156 121 101
37.9540 28.8705 344.9518 0.1277 0.3500 -0.9280 216 183 167
22.5446 29.1700 343.8820 -0.0566 0.1417 -0.9883 246 210 193
3.1874 28.6509 344.7971 -0.0857 0.3253 -0.9417 255 223 207
-12.3368 28.9546 345.0862 0.0811 0.3129 -0.9463 240 208 198
-31.1540 28.3860 338.0295 -0.5231 0.3554 -0.7746 215 198 192
-49.7014 27.8503 335.2272 0.0094 0.5218 -0.8530 211 193 181
-65.1377 28.1397 337.2835 -0.1607 0.5131 -0.8431 255 224 209
-81.0276 28.4420 339.9645 -0.2185 0.5322 -0.8179 255 225 213
-98.2442 28.7596 346.5430 0.2094 0.4562 -0.8649 146 136 140
-115.0189 29.0941 349.1359 -0.5224 0.4796 -0.7051 112 121 134
173.2536 25.1528 295.0011 -0.7384 0.1417 -0.6593 225 222 226
168.1205 26.0962 303.8448 -0.4545 0.3742 -0.8084 184 177 188
140.1275 27.6022 324.0464 -0.3743 0.0939 -0.9225 129 129 131
128.0416 27.8805 330.1562 -0.3501 0.0584 -0.9349 95 94 102
120.0406 28.9903 339.1705 -0.6746 0.1756 -0.7170 99 101 102
106.3944 29.3136 344.6433 -0.1705 0.4034 -0.8990 30 32 33
97.1992 33.0233 386.7004 -0.1989 0.5727 -0.7952 204 163 145
57.0178 29.3992 345.7372 0.0575 0.5055 -0.8609 229 191 174
41.6539 29.7092 345.4549 0.1198 0.3195 -0.9400 231 193 178
6.9266 29.4946 345.0699 -0.1322 0.2968 -0.9457 251 217 202
-8.6936 29.8114 346.2623 -0.0124 0.3454 -0.9384 240 205 194
-46.0479 28.6756 335.2991 0.2482 0.4840 -0.8391 135 133 132
-61.5323 28.9727 337.1422 -0.1322 0.5502 -0.8245 255 234 219
-77.3455 29.2755 339.9348 -0.1766 0.5507 -0.8158 250 218 206
-94.2481 29.6092 345.6594 -0.1885 0.4486 -0.8737 209 188 177
175.3667 25.8769 293.4088 -0.5506 0.2118 -0.8075 203 200 203
170.7212 26.8361 303.2133 -0.7222 0.2361 -0.6502 133 132 135
161.0631 27.0794 309.3647 -0.5827 0.3173 -0.7482 200 133 138
149.4781 27.3434 313.6512 -0.2595 0.3464 -0.9015 255 255 255
143.2318 28.3880 323.3748 -0.3003 0.1421 -0.9432 115 115 117
134.7733 29.4966 329.8047 -0.4938 -0.0116 -0.8695 128 132 138
131.4855 28.6969 330.6897 -0.3166 0.0086 -0.9485 104 101 106
109.5373 30.1451 342.9492 -0.2951 0.3964 -0.8693 97 101 104
101.2125 33.9577 386.3943 -0.0468 0.6322 -0.7734 199 159 139
60.9385 30.2530 347.3256 0.2467 0.6044 -0.7575 220 181 165
45.4327 30.5539 346.2859 0.1359 0.3316 -0.9336 199 159 141
26.1811 30.0073 343.8182 0.0042 0.2774 -0.9608 245 209 189
10.6297 30.3391 344.9873 -0.1168 0.2657 -0.9570 253 219 203
-5.0311 30.6681 346.8748 -0.0377 0.3416 -0.9391 255 227 212
-26.9440 29.1787 329.6445 -0.7321 0.2752 -0.6232 92 93 88
-39.7337 30.3944 342.9116 0.3025 0.4407 -0.8451 224 199 187
-42.8549 29.5226 339.1553 0.4341 0.4770 -0.7642 168 147 140
-57.9409 29.8051 337.2084 -0.1081 0.5765 -0.8099 255 229 214
-73.7018 30.1127 339.6597 -0.1674 0.5598 -0.8115 254 223 208
-90.4271 30.4548 345.2333 -0.2676 0.5364 -0.8004 236 209 202
-122.8656 32.0928 358.2881 -0.3342 0.5162 -0.7886 140 148 159
177.9723 26.5853 292.7354 -0.3760 0.2353 -0.8962 189 181 184
163.3870 27.8269 307.8317 -0.4980 0.2563 -0.8285 192 184 191
153.4307 28.0971 314.8157 -0.1548 0.4011 -0.9029 106 103 109
122.2607 29.7904 335.4116 -0.7470 0.1626 -0.6446 102 103 110
103.4494 31.4596 362.6716 -0.4394 0.1775 -0.8806 14 12 15
88.6490 35.2836 388.7370 0.0502 0.6502 -0.7581 154 112 90
81.7429 34.1437 376.4208 0.4112 -0.1189 -0.9038 153 117 97
74.7299 33.0088 361.2364 0.5132 0.7587 -0.4013 180 147 129
69.3033 32.0169 353.0798 0.4481 0.6933 -0.5644 167 131 115
64.9349 31.1108 349.1461 0.3192 0.6527 -0.6871 216 183 167
49.2352 31.4096 347.4115 0.1183 0.3840 -0.9157 225 184 168
29.7656 30.8464 343.6802 0.0977 0.3360 -0.9368 248 210 191
14.2240 31.1785 344.6631 -0.1211 0.2492 -0.9609 247 210 198
-1.2042 31.5206 347.7840 -0.0558 0.3541 -0.9335 255 238 220
-20.5642 30.9547 345.8196 0.2616 0.3909 -0.8825 192 174 175
-35.8147 31.2237 342.1492 0.0086 0.4295 -0.9030 240 212 201
172.2622 27.5603 300.3339 -0.8745 0.1583 -0.4585 183 180 184
156.9097 28.8746 315.7476 -0.5134 0.2758 -0.8126 151 134 140
150.5437 29.9656 324.4740 -0.3856 0.0269 -0.9223 255 255 255
145.5238 29.1649 320.8383 -0.2053 0.0290 -0.9783 145 142 143
124.8627 30.5801 332.7181 -0.7068 0.1486 -0.6916 129 129 131
113.2066 30.9666 342.7994 -0.4296 0.4108 -0.8042 63 62 65
93.2371 36.2677 390.9998 -0.1807 0.6085 -0.7727 191 151 130
53.0239 32.2628 348.3619 0.0618 0.4531 -0.8893 227 188 172
33.6803 31.7130 346.7403 0.1430 0.3363 -0.9308 246 210 191
2.3742 32.3704 347.0291 -0.0960 0.3638 -0.9265 255 239 223
-17.0657 31.8263 346.4825 0.2280 0.3984 -0.8884 208 176 164
-54.3507 30.6326 337.0120 -0.0956 0.5936 -0.7991 245 219 210
-70.1028 30.9497 339.9496 -0.1614 0.5658 -0.8086 255 225 213
-86.4090 31.2853 343.8149 -0.3046 0.5829 -0.7533 253 223 212
180.6083 27.2967 292.4671 -0.4477 0.2122 -0.8686 237 234 237
165.7081 28.5622 306.2436 -0.4159 0.2280 -0.8804 191 189 192
136.2342 30.2503 324.9578 -0.4281 0.0806 -0.9001 57 57 59
116.0031 31.7777 340.6277 -0.4470 0.4392 -0.7793 112 114 116
102.6932 32.1325 346.4857 -0.1969 0.3891 -0.8999 34 36 40
37.2827 32.5535 346.2569 0.1299 0.3447 -0.9297 242 207 189
21.6204 32.8610 344.8722 0.0387 0.3294 -0.9434 251 214 199
17.8441 32.0063 343.8966 -0.0431 0.2774 -0.9598 253 217 202
-13.3363 32.6885 347.2412 0.0740 0.4356 -0.8971 235 202 193
-32.0472 32.0653 342.6631 -0.2305 0.4660 -0.8543 182 134 120
-50.8553 31.4654 337.1503 -0.0699 0.5596 -0.8258 213 195 183
-66.2479 31.7727 339.1798 -0.1245 0.5909 -0.7971 237 203 190
-82.5634 32.1222 343.1075 -0.2471 0.6035 -0.7581 246 216 205
182.5125 28.0041 291.1668 -0.5205 0.1783 -0.8350 239 236 239
173.3491 28.2557 296.1786 -0.7666 0.1175 -0.6313 165 160 164
168.6800 29.3070 306.1979 -0.4415 0.0544 -0.8956 134 131 137
158.7874 29.6066 312.5196 -0.7687 0.1333 -0.6255 169 86 105
150.9859 30.6977 318.3227 -0.0729 0.2335 -0.9696 255 255 255
139.5688 31.0223 324.2777 -0.2956 0.1943 -0.9353 103 105 109
127.2964 31.3673 330.2694 -0.4889 0.0626 -0.8701 137 134 137
118.9669 32.5776 338.8251 -0.5165 0.4899 -0.7023 133 134 143
106.1106 32.9761 346.0056 -0.1480 0.4104 -0.8998 122 121 126
96.9814 37.1650 389.2993 -0.1796 0.5269 -0.8307 199 159 139
60.4380 33.9691 349.3099 0.2948 0.6238 -0.7239 213 178 160
56.4448 33.0914 347.3690 0.1836 0.5607 -0.8074 210 172 155
40.9603 33.3988 346.4881 0.1346 0.3850 -0.9131 240 204 187
6.1030 33.2000 346.1007 -0.1469 0.3443 -0.9273 254 219 206
-9.6147 33.5420 347.5554 -0.0403 0.4401 -0.8971 246 216 203
-47.4241 32.3041 337.6135 0.0995 0.5036 -0.8582 151 145 145
-62.7263 32.6148 339.5820 -0.0875 0.6157 -0.7831 255 232 218
-78.9204 32.9676 343.2628 -0.1887 0.6204 -0.7613 250 217 208
-96.1069 33.3685 349.1585 0.0635 0.5096 -0.8580 169 161 157
175.9530 28.9655 295.5175 -0.5104 0.1823 -0.8404 220 218 221
161.0874 30.3510 310.9916 -0.5592 0.1024 -0.8227 182 86 102
142.9368 31.8148 324.3558 -0.3466 0.0672 -0.9356 131 128 133
130.7800 32.1742 330.4748 -0.2887 0.0016 -0.9574 93 92 99
109.8304 33.8198 346.3559 -0.3106 0.4055 -0.8597 59 55 61
101.6039 38.1611 391.3234 0.1807 0.5209 -0.8343 176 134 112
83.5027 38.4341 387.7814 0.1697 0.6647 -0.7276 149 107 87
76.8578 37.1906 375.7669 0.5614 0.7300 -0.3897 175 139 122
70.4084 35.9874 362.8288 0.5345 0.7400 -0.4083 156 122 104
64.6896 34.8909 352.6702 0.3872 0.6811 -0.6214 197 162 142
44.6863 34.2470 346.9965 0.1438 0.4221 -0.8951 230 193 178
25.4100 33.7045 345.3680 0.0589 0.3802 -0.9230 245 209 191
9.7696 34.0491 346.2815 -0.1609 0.3391 -0.9269 249 215 201
-5.9369 34.3957 347.5846 -0.0324 0.3957 -0.9178 253 223 208
-40.8475 34.0824 343.9039 0.3897 0.3771 -0.8402 210 184 175
-43.9756 33.1588 339.2042 0.3614 0.4376 -0.8233 103 94 93
-59.1880 33.4572 339.9085 -0.0959 0.6463 -0.7570 255 232 224
-75.1288 33.7985 342.5984 -0.1648 0.6257 -0.7625 249 219 211
-92.3775 34.2220 348.7869 -0.0830 0.5949 -0.7995 234 212 206
-126.2886 36.1313 365.6983 -0.0924 0.9495 -0.3000 221 221 223
178.2094 29.6641 294.2440 -0.3706 0.1766 -0.9119 213 210 216
163.5786 31.0911 309.7253 -0.5642 0.0707 -0.8226 196 148 153
156.9847 32.2306 317.4148 -0.5642 0.2176 -0.7965 107 102 106
153.5461 31.4515 316.7880 -0.0775 0.3497 -0.9337 255 255 255
134.6881 32.9767 331.2044 -0.3480 0.0041 -0.9375 140 139 144
121.4805 33.3525 336.0005 -0.6576 0.4065 -0.6343 150 150 152
113.0385 34.6346 345.0688 -0.3703 0.4480 -0.8137 133 132 137
99.1289 35.0364 350.4432 -0.4474 0.0032 -0.8944 65 65 67
89.1392 39.6023 395.5891 -0.1940 0.5184 -0.8328 177 135 113
48.5501 35.1171 348.4861 0.1287 0.4762 -0.8699 234 198 183
29.0513 34.5521 345.6310 0.0782 0.4168 -0.9056 249 214 196
13.4669 34.8772 345.6091 -0.1547 0.3568 -0.9213 244 205 191
-21.4756 34.6628 345.9347 0.4082 0.3876 -0.8265 197 184 177
-37.2306 34.9622 345.4297 0.1241 0.3638 -0.9232 237 209 198
-55.5527 34.2920 339.7035 -0.1332 0.6460 -0.7516 246 222 212
-71.5271 34.6459 342.7745 -0.1652 0.6367 -0.7532 254 226 215
-88.2054 35.0477 347.3961 -0.2089 0.6443 -0.7357 250 227 219
-122.9925 37.0749 368.6318 -0.2804 0.7840 -0.5538 140 148 155
145.3475 32.5710 322.3453 -0.4056 -0.1768 -0.8968 101 98 101
124.5071 34.1381 334.5469 -0.7628 0.2953 -0.5752 44 43 50
92.9985 40.5329 394.8468 -0.4486 0.3798 -0.8090 190 150 127
52.2904 35.9788 349.2541 0.1527 0.5484 -0.8221 229 192 177
32.7153 35.4093 346.4634 0.1038 0.4320 -0.8959 255 221 205
17.1361 35.6788 344.0349 -0.0294 0.4126 -0.9104 249 215 199
1.4312 36.1242 348.7600 -0.1015 0.3836 -0.9179 255 238 221
-2.3054 35.2409 347.4172 -0.0472 0.3851 -0.9216 255 243 232
-18.0056 35.5535 347.2726 0.3606 0.4930 -0.7918 222 199 187
-52.0290 35.1415 340.1474 -0.1404 0.6259 -0.7672 208 192 181
165.4541 31.8068 307.4951 -0.5575 -0.0149 -0.8300 200 188 194
147.9836 33.3195 320.9017 -0.3852 -0.2158 -0.8972 155 150 149
136.3332 33.7140 327.0170 -0.3540 0.1127 -0.9284 104 102 110
116.2929 35.4588 344.2625 -0.3144 0.5154 -0.7972 137 138 145
106.5225 36.7447 350.3248 -0.0058 0.2095 -0.9778 38 45 47
102.0750 35.8022 347.1064 -0.0390 0.0917 -0.9950 93 95 96
56.0431 36.8492 350.0231 0.2241 0.5914 -0.7746 219 183 166
36.5238 36.2551 346.9186 0.1259 0.4927 -0.8610 248 212 195
20.7820 36.5506 345.3292 0.0657 0.4639 -0.8834 248 209 195
-14.3321 36.4634 349.6212 0.0549 0.5636 -0.8242 233 203 193
-33.4979 35.7807 344.1451 -0.0361 0.4001 -0.9158 234 204 194
-48.5181 35.9895 340.5433 -0.0631 0.5705 -0.8189 149 143 140
-67.5951 35.4683 342.1438 -0.1255 0.6565 -0.7438 255 228 218
-84.2285 35.8773 346.5624 -0.2758 0.6666 -0.6925 255 244 235
-100.6283 36.2473 349.5007 0.1587 0.4854 -0.8598 107 113 120
-1173.4803 203.5103 1954.1305 0.0393 -0.3046 -0.9517 225 229 232
173.4678 31.3782 297.5427 -0.7014 -0.0236 -0.7124 232 232 232
168.0607 32.5387 306.7904 -0.5063 -0.0843 -0.8582 205 204 207
157.9316 32.8991 312.4268 -0.7237 0.0618 -0.6873 121 83 93
139.2275 34.4817 325.6979 -0.3309 0.2679 -0.9048 77 76 81
126.7146 34.8670 330.9616 -0.6017 0.1691 -0.7806 111 110 113
119.3557 36.2475 342.5005 -0.3794 0.5840 -0.7176 111 110 113
96.2873 41.3303 390.8027 -0.1963 0.3750 -0.9060 165 128 104
77.7726 41.5306 385.4964 0.4565 0.7387 -0.4959 153 118 95
71.5875 40.1866 373.5681 0.5059 0.7742 -0.3803 171 138 119
65.7558 38.9676 363.2107 0.5652 0.7220 -0.3991 160 124 104
60.2826 37.8048 353.7463 0.3971 0.7107 -0.5808 207 174 155
40.3300 37.1261 348.0776 0.1100 0.5522 -0.8264 239 203 186
5.2667 36.9440 347.7317 -0.1511 0.4005 -0.9037 250 216 202
-10.6275 37.3187 349.5649 -0.1314 0.5410 -0.8307 250 221 206
-64.0534 36.3246 342.6058 -0.0628 0.6984 -0.7130 254 226 215
-80.4436 36.7156 346.1187 -0.2310 0.6765 -0.6993 252 226 219
-97.5419 37.1632 351.3716 0.1223 0.5187 -0.8462 153 148 152
-1139.8566 206.4367 1932.2496 0.0895 0.4423 -0.8924 227 231 235
184.1039 31.7507 290.2995 -0.3125 0.1013 -0.9445 170 167 173
175.3474 32.0674 295.6702 -0.5002 0.1105 -0.8588 216 213 216
160.0353 33.6195 310.4352 -0.5282 0.1126 -0.8416 181 87 107
154.4636 34.8709 320.2979 0.0751 0.0763 -0.9943 255 255 255
150.0698 34.0307 317.7225 -0.0083 -0.1257 -0.9920 255 255 255
141.9570 35.2381 324.2338 -0.4363 0.2203 -0.8724 115 115 115
129.3559 35.6192 328.8615 -0.3578 0.2597 -0.8970 115 116 120
122.0792 37.0211 340.1511 -0.5936 0.5642 -0.5739 161 163 165
109.8332 37.5667 349.5150 -0.1288 0.2837 -0.9502 62 61 66
84.0994 42.8220 395.4827 0.1024 0.5855 -0.8042 179 141 120
44.0769 37.9873 348.7616 0.1000 0.5966 -0.7963 237 204 188
24.5705 37.4214 346.5662 0.0775 0.4901 -0.8682 247 211 196
8.9395 37.7841 347.5252 -0.1622 0.4304 -0.8879 254 222 210
-6.8787 38.1827 349.8571 -0.1141 0.5126 -0.8510 249 220 205
-41.6818 37.7659 343.9039 0.3516 0.4770 -0.8055 201 180 169
-44.9146 36.8327 340.7103 0.2355 0.4873 -0.8409 137 131 129
-60.6394 37.2030 343.6989 -0.0809 0.7137 -0.6958 254 229 217
