ply
format ascii 1.0
element vertex 786
property float x
property float y
property float z
property float nx
property float ny
property float nz
property uchar red
property uchar green
property uchar blue
end_header
153.2018 -99.7536 328.3872 -0.4104 -0.4037 -0.8177 49 50 75
146.1340 -102.4461 336.6278 -0.3748 -0.5289 -0.7614 82 83 103
138.2805 -104.7645 346.3042 -0.4942 -0.5964 -0.6325 95 96 114
122.3099 -111.1719 368.7249 -0.7112 -0.4322 -0.5544 253 252 255
115.0465 -116.7195 386.0419 -0.7825 -0.0240 -0.6221 123 124 142
90.9185 -126.0867 416.1834 -0.8791 0.0607 -0.4728 109 113 130
200.2034 -93.7800 310.7653 0.0531 0.4027 -0.9138 0 0 0
188.0014 -94.5070 313.4425 -0.2753 0.6055 -0.7467 37 36 55
176.8934 -96.2876 318.1988 -0.2837 0.5113 -0.8112 48 49 71
163.8630 -96.9321 321.2261 -0.2967 0.0985 -0.9499 92 93 116
155.8921 -98.2759 326.2029 -0.3834 -0.2862 -0.8781 36 37 62
129.1351 -106.5553 354.1537 -0.5368 -0.5590 -0.6320 101 105 122
104.8712 -119.8441 397.6809 -0.7670 0.1589 -0.6217 106 108 126
94.4527 -123.6212 411.2563 -0.8639 0.1885 -0.4670 105 106 126
180.6591 -95.7521 318.3056 -0.3579 0.5588 -0.7481 33 34 54
167.5433 -96.3324 321.6242 -0.2482 0.4039 -0.8805 101 100 119
148.1339 -100.2301 333.4480 -0.5127 -0.3974 -0.7610 78 79 102
139.1011 -101.3268 339.3710 -0.4452 -0.4759 -0.7585 101 100 121
132.0981 -104.8661 350.5882 -0.4775 -0.5319 -0.6993 92 94 114
124.1826 -108.0796 362.6645 -0.7323 -0.4883 -0.4746 101 102 111
116.5935 -112.7301 378.4118 -0.7885 -0.3175 -0.5267 149 152 163
108.0887 -117.4373 394.3722 -0.7945 0.0766 -0.6024 116 117 135
191.4156 -93.8718 313.3437 -0.3721 0.4701 -0.8003 16 16 32
170.7482 -95.4030 320.6805 -0.3285 0.4575 -0.8263 71 72 97
158.3588 -96.6788 324.8922 -0.4089 0.1398 -0.9018 34 35 59
150.7834 -98.6329 331.1801 -0.5352 -0.2596 -0.8038 106 109 129
97.3850 -120.4170 406.3415 -0.8250 0.1841 -0.5343 76 77 99
87.4042 -125.9561 424.8507 -0.8882 0.0028 -0.4594 124 129 153
193.5721 -92.3466 311.6277 -0.3010 0.3332 -0.8935 32 32 46
181.4973 -93.3252 315.9186 -0.3788 0.5961 -0.7079 24 25 45
161.5978 -95.7557 324.6001 -0.3326 0.4341 -0.8372 51 49 75
142.2766 -100.0788 337.7544 -0.4062 -0.3849 -0.8288 68 69 91
133.4947 -101.7056 344.8405 -0.5230 -0.4311 -0.7352 71 72 97
125.0126 -104.0757 355.2569 -0.6916 -0.4290 -0.5811 77 80 104
118.8083 -109.6525 372.1760 -0.7616 -0.4211 -0.4926 95 99 116
110.9156 -114.7584 389.7189 -0.7771 -0.1368 -0.6144 105 109 126
100.9010 -118.2839 402.3854 -0.7877 0.1326 -0.6016 133 136 156
196.9301 -91.6315 311.7660 -0.1084 0.2555 -0.9607 13 16 28
185.4740 -93.0025 316.2348 -0.3068 0.5703 -0.7619 48 49 69
173.2314 -94.0400 319.9714 -0.3009 0.4943 -0.8156 64 66 86
152.8878 -96.6928 328.7446 -0.5103 -0.0418 -0.8590 95 96 114
144.2970 -97.9386 335.6535 -0.5321 -0.1420 -0.8347 119 119 137
113.9535 -112.4202 384.4080 -0.7968 -0.2539 -0.5482 93 95 113
90.2642 -122.2435 417.7329 -0.8674 0.0345 -0.4965 78 82 99
200.4838 -91.0442 312.3821 -0.0555 0.1418 -0.9883 42 44 60
188.5768 -92.0891 316.0274 -0.3115 0.5057 -0.8045 46 47 67
176.4298 -93.1322 319.2473 -0.2809 0.5062 -0.8154 54 55 77
163.9753 -94.2140 323.4028 -0.3481 0.4886 -0.8001 33 32 55
155.5656 -95.1998 327.8110 -0.4344 0.1948 -0.8794 88 89 111
136.1181 -99.8660 342.3764 -0.5636 -0.3281 -0.7581 72 74 94
127.8560 -102.3231 351.6854 -0.6089 -0.4005 -0.6847 100 102 120
120.7165 -106.5617 366.4193 -0.7457 -0.4495 -0.4917 101 105 124
104.0816 -115.8119 398.7600 -0.7586 0.0447 -0.6500 85 88 110
93.8706 -119.8719 413.8218 -0.8524 0.0675 -0.5185 117 121 140
191.7898 -91.2934 314.9008 -0.4543 0.2973 -0.8398 25 25 41
180.1046 -92.5548 319.5171 -0.3515 0.4954 -0.7944 40 41 61
167.7225 -93.6433 323.0791 -0.2923 0.5768 -0.7628 57 58 83
146.9375 -96.3503 333.1436 -0.6200 -0.0153 -0.7844 61 61 86
138.4742 -97.9131 339.5331 -0.6057 -0.0922 -0.7903 39 42 66
130.6674 -100.5097 348.5888 -0.5968 -0.2994 -0.7444 84 85 105
123.4578 -104.3827 361.2129 -0.7701 -0.4152 -0.4844 85 86 109
114.9366 -107.9488 376.0167 -0.7700 -0.4621 -0.4401 80 84 103
107.2345 -113.3004 394.4572 -0.7960 -0.1326 -0.5906 86 90 109
183.0309 -91.4539 319.2575 -0.3670 0.4113 -0.8344 26 27 47
170.9974 -92.7821 322.9611 -0.3239 0.5745 -0.7517 52 50 74
158.3114 -93.8196 326.1527 -0.3998 0.4573 -0.7944 77 78 100
149.2346 -94.5244 331.4305 -0.5752 0.1148 -0.8099 35 38 62
96.5841 -116.5096 408.8151 -0.8359 0.0459 -0.5469 102 103 121
86.5462 -121.6615 426.3270 -0.8957 0.0561 -0.4411 155 157 174
193.0465 -89.1847 312.7838 -0.4128 0.0667 -0.9084 47 47 65
173.9753 -91.6494 322.6651 -0.3246 0.5303 -0.7832 79 80 103
162.0083 -93.2397 326.4259 -0.3142 0.5741 -0.7561 25 24 47
141.4263 -96.5342 338.1856 -0.5315 0.1087 -0.8400 83 87 103
132.5836 -97.9635 345.3600 -0.6464 -0.1010 -0.7563 82 83 105
124.4927 -100.6344 354.9398 -0.7276 -0.2917 -0.6209 90 92 109
117.4343 -105.1665 370.9221 -0.7427 -0.4589 -0.4877 79 84 105
109.8211 -110.4619 389.3583 -0.8208 -0.2659 -0.5056 99 103 122
100.1348 -114.3276 403.4098 -0.8019 -0.0126 -0.5974 91 94 114
196.0757 -88.2359 312.0648 -0.1574 -0.0370 -0.9868 31 31 47
185.9769 -90.4417 318.0092 -0.3317 0.3080 -0.8917 61 63 80
164.6523 -91.7951 326.0305 -0.3116 0.5829 -0.7504 27 24 43
151.7290 -92.9070 329.5868 -0.4705 0.3168 -0.8236 74 78 99
143.9090 -94.7446 336.6055 -0.5509 0.1874 -0.8132 47 47 72
136.0958 -96.9109 343.3752 -0.6581 0.1257 -0.7423 96 100 121
112.8184 -108.1200 383.1066 -0.8252 -0.3877 -0.4108 114 118 133
89.5609 -118.2359 419.2135 -0.8653 0.0093 -0.5012 100 104 123
199.5975 -87.6691 312.2737 -0.0391 -0.1144 -0.9927 28 28 41
188.5392 -89.1627 316.9293 -0.3826 0.1411 -0.9131 0 0 14
177.2562 -90.8101 321.9653 -0.3224 0.4262 -0.8453 45 45 68
155.9550 -92.6584 329.2291 -0.3695 0.5108 -0.7762 38 36 60
126.8065 -98.3643 351.1540 -0.7228 -0.0803 -0.6863 98 100 117
118.8896 -101.6032 364.4225 -0.7541 -0.3659 -0.5455 103 104 122
103.5855 -112.1840 399.3919 -0.7748 -0.0548 -0.6299 45 49 68
93.4552 -116.4255 415.2538 -0.8262 -0.1056 -0.5534 93 97 116
82.4559 -120.3232 433.4518 -0.9019 0.1239 -0.4137 160 159 178
202.5140 -86.8323 312.0323 -0.0243 -0.1674 -0.9856 0 0 0
191.5859 -88.2194 316.1086 -0.5207 -0.0172 -0.8536 39 40 60
179.7928 -89.4540 320.5857 -0.3489 0.2709 -0.8972 0 0 14
168.3195 -91.1910 325.6896 -0.3018 0.5091 -0.8060 38 35 59
158.8175 -91.4184 328.7901 -0.3712 0.5440 -0.7525 72 73 96
147.1898 -93.7141 335.0099 -0.6171 0.2933 -0.7302 75 75 100
137.6061 -94.2604 340.2053 -0.6617 0.1957 -0.7238 73 77 96
129.3669 -96.3578 348.3192 -0.6420 0.0722 -0.7633 105 107 124
106.5060 -109.4327 395.2648 -0.7960 -0.2098 -0.5677 100 104 121
182.9273 -88.5250 320.2203 -0.4052 0.1055 -0.9081 27 28 50
170.9145 -89.8530 324.6132 -0.3356 0.4129 -0.8467 50 48 71
149.6614 -91.9997 332.7696 -0.5296 0.4675 -0.7078 95 95 118
120.9560 -98.7173 358.3401 -0.7621 -0.2306 -0.6050 84 87 107
113.5964 -103.4281 373.9765 -0.7568 -0.4707 -0.4536 111 113 130
96.0752 -112.8238 409.5290 -0.8077 -0.1332 -0.5743 95 96 116
86.1351 -118.2680 428.0946 -0.9093 0.0814 -0.4081 141 142 165
193.5916 -86.6854 313.8329 -0.4925 -0.1221 -0.8617 38 39 59
174.3060 -88.9819 324.3786 -0.3452 0.3142 -0.8844 78 81 105
162.3486 -90.6203 328.2565 -0.3108 0.5190 -0.7963 43 44 67
152.2996 -90.4706 331.9454 -0.4036 0.5731 -0.7132 72 73 98
141.0076 -93.2628 339.0514 -0.5401 0.3281 -0.7750 58 62 81
132.1123 -94.6651 346.1646 -0.6062 0.2911 -0.7401 69 72 91
123.7728 -97.0175 355.1864 -0.7449 -0.0793 -0.6624 56 59 81
115.7692 -100.4260 368.7186 -0.7096 -0.3863 -0.5893 94 98 115
108.7523 -106.1092 387.7549 -0.8239 -0.3708 -0.4285 71 75 94
99.5877 -110.6140 404.5891 -0.7446 -0.1980 -0.6375 94 98 117
185.3508 -87.1620 318.9771 -0.4648 -0.0450 -0.8843 17 18 36
164.8945 -89.1536 327.6983 -0.3402 0.4072 -0.8476 54 53 76
143.5489 -91.5767 337.6100 -0.4978 0.4062 -0.7663 8 11 35
135.6948 -93.7087 345.8976 -0.6574 0.3160 -0.6841 62 65 87
89.1638 -114.9584 421.7687 -0.8817 -0.0461 -0.4696 95 99 116
-827.8688 -517.9105 2635.1423 0.0000 0.0000 0.0000 255 255 255
198.0407 -84.0360 311.3916 -0.1232 -0.2254 -0.9665 0 0 12
193.8253 -84.2143 311.6051 -0.2648 -0.2020 -0.9429 41 43 60
187.1740 -85.4312 316.7435 -0.4225 -0.1553 -0.8930 36 38 58
176.8834 -87.6782 323.3363 -0.4091 0.2339 -0.8820 78 79 102
169.1629 -88.9044 327.7066 -0.3961 0.2800 -0.8745 58 56 80
156.0763 -89.8929 331.7973 -0.3452 0.5966 -0.7245 83 85 109
146.9446 -90.6035 336.9281 -0.5599 0.4642 -0.6863 62 64 89
126.0271 -94.6440 352.1606 -0.7277 0.1894 -0.6592 99 103 122
117.9312 -97.6908 362.9928 -0.7377 -0.2591 -0.6234 66 70 89
110.6697 -102.4520 379.2606 -0.7831 -0.4777 -0.3981 102 106 123
102.3446 -107.5835 399.6362 -0.7547 -0.1806 -0.6307 92 96 113
92.0710 -111.5135 414.7951 -0.8235 -0.1978 -0.5318 107 111 130
82.5636 -118.0320 437.6627 -0.8918 0.0647 -0.4479 141 149 171
179.5851 -86.4195 321.5813 -0.4720 0.1079 -0.8750 63 64 87
158.9596 -88.6377 330.8827 -0.4111 0.5407 -0.7339 57 57 85
137.8561 -91.5773 342.0675 -0.6782 0.3684 -0.6359 66 70 87
129.7460 -93.7814 350.4386 -0.6414 0.2755 -0.7161 81 85 106
106.0747 -105.8743 395.6812 -0.7286 -0.4195 -0.5414 99 103 120
200.5969 -82.8405 310.3631 -0.0891 -0.2801 -0.9558 0 0 0
190.5522 -84.7382 315.8535 -0.4796 -0.1788 -0.8591 20 22 39
181.9250 -85.0227 320.5823 -0.4740 -0.0199 -0.8803 25 26 46
170.9585 -86.9556 325.7058 -0.3876 0.1847 -0.9032 26 27 49
162.5585 -87.8096 330.0363 -0.4049 0.4095 -0.8175 26 27 49
149.4703 -88.9751 335.0931 -0.4900 0.5363 -0.6873 58 59 84
141.0151 -90.3566 341.0498 -0.5575 0.4508 -0.6971 78 79 104
120.3994 -95.3029 359.0939 -0.7874 -0.0626 -0.6132 62 65 85
111.3735 -97.9689 371.4067 -0.7573 -0.3054 -0.5773 102 106 123
94.2342 -107.2733 407.8987 -0.7795 -0.2854 -0.5576 86 90 109
85.4370 -114.3801 431.4872 -0.9048 -0.0075 -0.4258 112 116 131
191.4935 -82.5978 313.0293 -0.4748 -0.1684 -0.8638 40 41 61
173.2708 -85.3951 324.6897 -0.3287 0.1323 -0.9351 31 31 54
152.8736 -88.0837 334.7315 -0.4092 0.5550 -0.7242 54 54 79
131.9891 -91.5744 347.8905 -0.5720 0.3727 -0.7307 121 123 141
123.6128 -93.9086 357.0566 -0.7240 0.1521 -0.6728 13 18 44
107.2882 -101.4052 386.1222 -0.7430 -0.5314 -0.4069 93 97 114
98.7278 -106.5049 404.6392 -0.7154 -0.3035 -0.6294 88 92 111
194.0414 -81.4597 311.6687 -0.3917 -0.1319 -0.9106 36 38 56
184.3780 -83.6442 318.3654 -0.5053 -0.0957 -0.8576 29 31 51
177.0803 -84.8965 323.9875 -0.4067 0.0608 -0.9116 45 45 68
164.6519 -86.0848 329.0149 -0.4318 0.2116 -0.8768 39 39 64
156.6373 -87.4828 334.4380 -0.3834 0.4947 -0.7799 55 56 80
144.0958 -89.0714 340.1914 -0.4379 0.4961 -0.7498 77 80 102
135.9040 -90.9109 347.4055 -0.6027 0.4086 -0.6854 87 90 112
114.1120 -95.7873 366.4142 -0.7309 -0.1734 -0.6601 53 57 76
88.1851 -110.6019 422.6084 -0.9088 -0.1365 -0.3942 98 101 121
186.9404 -82.4139 316.8000 -0.4452 -0.1308 -0.8858 40 42 59
168.1656 -85.2869 328.2514 -0.4549 0.0810 -0.8868 54 55 77
147.1519 -87.8045 338.8871 -0.5116 0.4650 -0.7225 39 42 66
126.0918 -91.8174 353.7077 -0.6596 0.2372 -0.7132 89 90 110
117.2387 -94.0745 364.2643 -0.7521 0.0378 -0.6580 86 90 109
100.8651 -102.7222 398.5621 -0.6820 -0.5127 -0.5216 112 116 133
81.2577 -113.3512 437.6726 -0.8834 -0.0746 -0.4627 138 142 163
196.2676 -80.1015 309.8626 -0.2547 -0.0916 -0.9627 36 38 56
179.5090 -83.4449 322.4843 -0.5398 -0.0349 -0.8411 56 57 80
158.9931 -85.7432 332.6626 -0.4635 0.4162 -0.7823 36 37 62
150.2615 -86.5943 337.9222 -0.4792 0.4275 -0.7666 75 76 98
137.4976 -88.3156 344.5020 -0.6681 0.3864 -0.6359 86 89 113
129.2656 -90.3972 352.3202 -0.5915 0.3521 -0.7253 104 106 121
108.2836 -96.8712 376.4828 -0.7926 -0.3058 -0.5275 107 109 127
90.6054 -106.3856 413.9525 -0.8578 -0.2149 -0.4669 109 113 132
199.2430 -79.1982 309.0645 -0.1653 -0.1173 -0.9792 0 0 0
188.1228 -80.4187 314.2302 -0.5132 -0.0905 -0.8535 74 75 95
181.8035 -82.0190 320.5725 -0.5447 -0.0696 -0.8358 67 67 92
170.1072 -83.4883 325.9906 -0.4075 0.0120 -0.9131 50 48 73
162.2474 -84.7053 332.0834 -0.4865 0.2703 -0.8308 68 68 93
140.9432 -87.3218 343.0352 -0.5977 0.4057 -0.6915 86 88 106
119.8767 -91.7521 360.0922 -0.7596 0.2239 -0.6107 89 90 108
110.8792 -94.4664 371.8164 -0.7830 -0.1401 -0.6060 49 52 72
102.5346 -98.5319 388.7908 -0.6865 -0.5603 -0.4636 109 113 130
93.6344 -103.5054 408.1731 -0.7978 -0.2956 -0.5254 93 97 116
84.7581 -110.3529 432.3500 -0.8798 -0.1303 -0.4572 88 88 113
191.5841 -79.7773 313.5953 -0.5169 -0.0434 -0.8549 42 44 62
173.0749 -82.3734 325.1433 -0.3422 0.0018 -0.9396 69 68 91
153.1468 -85.3517 336.5972 -0.4436 0.3749 -0.8141 70 71 96
132.0398 -88.6031 349.8756 -0.5621 0.3860 -0.7315 74 74 99
122.4978 -89.8466 357.1466 -0.7184 0.2781 -0.6376 91 93 110
194.1124 -78.5779 312.4919 -0.4996 0.0457 -0.8651 64 66 86
183.1439 -80.0012 317.8999 -0.5208 -0.0556 -0.8519 35 36 61
176.4240 -81.5315 324.2676 -0.4043 -0.0386 -0.9138 88 87 110
164.6980 -83.1781 329.6960 -0.5540 0.1297 -0.8224 0 0 21
156.1718 -84.1069 335.6829 -0.4123 0.2792 -0.8672 74 75 97
143.9060 -85.9542 341.5033 -0.4295 0.4181 -0.8005 76 79 100
135.5112 -87.6339 349.5253 -0.5898 0.3918 -0.7061 111 113 130
113.4643 -92.1089 367.6952 -0.7472 0.0867 -0.6589 86 90 107
105.0062 -95.6583 382.1158 -0.7743 -0.3720 -0.5118 99 103 120
96.7872 -100.8129 402.0513 -0.7186 -0.4439 -0.5353 101 105 124
87.1621 -106.0496 423.5107 -0.9110 -0.2024 -0.3593 112 115 135
185.6630 -78.7469 317.0455 -0.4639 0.0402 -0.8850 119 121 136
166.8111 -81.4472 327.6899 -0.5260 0.0866 -0.8461 89 88 111
147.2079 -84.9128 341.0851 -0.4858 0.3294 -0.8096 107 109 127
138.6183 -86.3120 347.1324 -0.6495 0.3448 -0.6778 78 81 105
125.7792 -88.4462 355.3897 -0.6387 0.3399 -0.6903 67 68 88
117.1420 -90.9333 365.6034 -0.7339 0.1651 -0.6589 56 62 85
80.4147 -108.6047 437.4095 -0.9069 -0.0894 -0.4117 223 224 235
196.4785 -77.3178 311.0558 -0.3439 0.0988 -0.9338 82 83 103
178.2501 -79.7670 322.3156 -0.5604 -0.0781 -0.8246 88 88 113
158.8403 -82.6644 334.1523 -0.4987 0.1864 -0.8465 53 54 76
150.3672 -83.7597 339.1280 -0.5176 0.2309 -0.8239 107 106 126
129.2153 -87.3429 354.4659 -0.5986 0.3651 -0.7130 125 127 144
107.2120 -92.6878 376.1487 -0.8188 -0.0401 -0.5727 85 87 105
98.4323 -96.5888 392.3716 -0.7071 -0.5316 -0.4663 89 94 110
89.7355 -102.1460 414.5464 -0.8564 -0.2470 -0.4534 108 112 131
197.6625 -75.4802 309.0833 -0.0543 0.2093 -0.9763 29 28 44
188.4400 -77.6782 315.7558 -0.5384 0.0948 -0.8373 84 85 105
180.6880 -78.3841 320.3383 -0.5579 -0.0500 -0.8284 97 98 118
169.8941 -80.4158 326.1510 -0.4344 0.0299 -0.9002 45 43 67
162.0493 -81.5682 333.1528 -0.5536 0.0884 -0.8281 74 78 99
140.9612 -84.3201 344.6600 -0.6216 0.3496 -0.7010 65 66 89
119.6549 -88.6733 363.1553 -0.7238 0.2632 -0.6378 76 79 100
110.2569 -90.7842 372.8673 -0.7820 0.0267 -0.6227 99 101 119
92.8730 -99.4767 407.9967 -0.7911 -0.3911 -0.4704 106 109 129
83.5630 -105.5208 431.8787 -0.9054 -0.1755 -0.3865 128 132 151
190.7974 -76.4538 313.7384 -0.5487 0.0997 -0.8301 40 41 61
172.3190 -78.9388 325.4160 -0.4132 0.0299 -0.9101 102 100 124
152.3929 -81.8184 337.3500 -0.5121 0.1542 -0.8450 62 63 85
143.2350 -82.3359 342.7832 -0.4821 0.3264 -0.8131 95 95 118
131.7251 -85.3370 351.8873 -0.5936 0.3119 -0.7419 102 103 121
122.8152 -87.1450 360.4356 -0.6982 0.3255 -0.6376 72 73 96
100.6825 -93.4344 386.4674 -0.7435 -0.3399 -0.5759 98 102 119
192.9564 -75.0954 312.4309 -0.5226 0.0663 -0.8500 11 10 29
182.7572 -76.8671 318.7691 -0.5396 -0.0009 -0.8419 32 32 57
175.5162 -78.0208 324.3867 -0.4646 -0.0496 -0.8841 56 56 84
163.9877 -79.7601 330.8810 -0.6137 0.0473 -0.7881 68 69 91
156.0613 -81.0567 336.6820 -0.4297 0.0917 -0.8983 77 78 98
134.9426 -84.1713 350.4884 -0.6179 0.2611 -0.7416 90 92 109
113.3727 -88.9900 369.7069 -0.7256 0.0823 -0.6831 78 82 101
103.8079 -91.3215 382.0505 -0.7700 -0.2393 -0.5915 95 96 114
94.9425 -95.5387 398.5305 -0.7334 -0.5388 -0.4144 102 103 121
86.2403 -101.6040 423.3374 -0.8933 -0.2683 -0.3606 121 125 144
185.9127 -76.0155 317.8130 -0.4294 0.0661 -0.9007 47 48 70
165.9491 -77.9558 328.6736 -0.5285 0.0432 -0.8478 29 30 53
147.3198 -82.0243 342.1796 -0.5426 0.2156 -0.8118 76 79 100
137.9656 -82.7569 348.7006 -0.6305 0.2218 -0.7438 91 92 114
125.4744 -85.2775 357.1895 -0.6426 0.3318 -0.6907 89 90 110
116.0862 -86.8172 366.8095 -0.6936 0.1303 -0.7085 69 71 96
79.7949 -105.4440 444.0441 -0.8980 -0.1213 -0.4230 150 154 171
196.3805 -74.4252 311.9198 -0.4049 0.0295 -0.9139 50 52 72
189.1651 -75.2036 317.2940 -0.5001 0.0210 -0.8657 71 69 94
177.7329 -76.5364 322.2283 -0.5704 -0.0946 -0.8159 46 44 70
170.3110 -77.6956 327.5800 -0.4502 0.0312 -0.8924 69 70 92
158.3646 -79.3394 334.7188 -0.4990 -0.0012 -0.8666 130 132 147
150.5690 -80.8487 340.8547 -0.5855 0.0770 -0.8070 73 77 98
129.0385 -84.2622 356.0640 -0.6418 0.2809 -0.7135 92 95 117
106.6978 -89.1315 376.8672 -0.7817 -0.0337 -0.6228 90 96 115
97.5002 -92.5367 392.0372 -0.6782 -0.4216 -0.6019 74 80 98
88.5439 -97.5765 413.3536 -0.7692 -0.4870 -0.4136 119 122 142
198.7038 -73.2024 310.9865 -0.0486 0.0549 -0.9973 81 80 99
180.2865 -75.2559 320.8616 -0.5167 -0.0694 -0.8534 73 71 97
161.4028 -78.1992 333.5551 -0.5751 -0.0519 -0.8165 86 88 108
140.6587 -81.0457 346.4693 -0.6346 0.2099 -0.7438 97 99 116
131.8219 -82.4516 353.7846 -0.6392 0.1501 -0.7542 77 78 103
119.8119 -85.8111 364.8174 -0.6662 0.1485 -0.7309 50 52 70
109.4919 -86.9006 373.5562 -0.7383 0.0652 -0.6713 106 108 126
82.4569 -100.9130 432.1241 -0.8457 -0.3380 -0.4131 114 117 139
203.2341 -73.1319 312.2291 0.2044 0.0879 -0.9749 0 0 0
190.7653 -73.5151 315.6350 -0.5415 -0.0384 -0.8398 50 48 71
171.8037 -75.7040 325.9004 -0.4547 -0.0008 -0.8906 111 112 132
152.0030 -78.5208 337.7129 -0.5513 0.0001 -0.8343 67 72 96
143.8528 -79.9138 344.9778 -0.5319 0.1692 -0.8298 62 63 85
122.5962 -83.9106 362.5578 -0.6651 0.1629 -0.7288 112 114 131
99.8299 -89.3408 384.9394 -0.6603 -0.2658 -0.7024 70 77 95
90.6728 -93.4927 403.5909 -0.7381 -0.5167 -0.4338 109 113 132
192.5850 -71.9991 312.9482 -0.4775 -0.0812 -0.8749 53 54 74
182.5700 -73.8871 319.3816 -0.4790 -0.0954 -0.8726 67 70 94
174.9205 -74.7046 324.5922 -0.4859 -0.0656 -0.8716 52 52 77
162.9271 -76.1121 330.7121 -0.5746 -0.0522 -0.8168 49 50 73
155.1354 -77.3858 336.8810 -0.4480 -0.0210 -0.8938 65 66 91
134.9548 -81.0863 352.0143 -0.6363 0.0397 -0.7704 92 94 112
125.6871 -82.4650 360.3145 -0.6468 0.1297 -0.7516 74 74 99
112.7127 -85.2481 370.9149 -0.7327 0.0651 -0.6774 94 99 113
103.0577 -87.4076 381.8779 -0.7600 -0.1197 -0.6388 107 109 129
84.8443 -96.8567 421.6975 -0.8083 -0.4546 -0.3742 77 83 104
184.6919 -72.4256 317.9437 -0.3916 -0.1121 -0.9133 22 24 44
165.9101 -74.9556 329.2969 -0.4980 -0.0425 -0.8662 58 59 84
146.2465 -78.1685 342.4719 -0.5865 0.0484 -0.8085 43 46 70
137.6608 -79.4581 349.8066 -0.5742 -0.0380 -0.8178 78 78 106
115.6803 -83.3997 367.5979 -0.6992 0.0242 -0.7145 40 41 63
91.3496 -88.1434 394.4114 -0.7199 -0.5058 -0.4753 51 54 78
195.4257 -71.0162 312.0752 -0.3491 -0.1584 -0.9236 34 34 52
187.5892 -71.4493 317.0207 -0.4524 -0.1949 -0.8703 26 27 49
176.7846 -73.0162 322.0920 -0.5734 -0.1307 -0.8088 38 38 63
169.3658 -74.1512 328.2429 -0.4795 -0.0654 -0.8751 62 64 89
157.8538 -75.9848 335.0619 -0.5017 -0.0934 -0.8600 92 93 116
149.0636 -76.7205 341.1571 -0.6000 -0.0776 -0.7962 43 46 70
128.4379 -80.5663 357.3167 -0.6475 0.0729 -0.7586 97 97 115
105.8272 -85.0817 377.9957 -0.7677 -0.0302 -0.6401 110 111 129
86.5610 -91.7553 406.9655 -0.7703 -0.4749 -0.4256 110 114 135
78.7354 -100.8466 445.0356 -0.6178 -0.5154 -0.5938 151 162 177
196.9001 -69.3831 310.5099 -0.0739 -0.2287 -0.9707 38 40 55
179.0603 -71.6223 320.8740 -0.4925 -0.1611 -0.8553 109 110 128
160.2894 -74.4690 333.0818 -0.5734 -0.1185 -0.8106 82 83 103
140.4025 -77.8879 347.8025 -0.5382 -0.1268 -0.8332 42 43 68
131.3369 -79.0046 354.9917 -0.6380 -0.0415 -0.7689 50 52 72
118.6567 -81.6527 365.0444 -0.6181 -0.0026 -0.7861 64 65 88
109.1519 -83.5365 375.4105 -0.7021 -0.0066 -0.7121 84 88 105
95.4481 -87.0223 387.6931 -0.5666 -0.3438 -0.7488 97 98 118
200.9643 -69.0534 310.8943 0.1010 -0.2251 -0.9691 0 0 0
189.9778 -70.1739 315.2070 -0.5002 -0.2335 -0.8338 48 47 70
170.8298 -72.1479 325.8243 -0.5050 -0.1450 -0.8508 71 72 97
151.2188 -74.9776 338.0384 -0.5687 -0.1590 -0.8070 66 69 93
143.4616 -76.6030 346.2965 -0.5011 -0.1462 -0.8529 61 61 86
121.7529 -80.1063 362.9373 -0.6120 -0.0567 -0.7888 116 116 139
99.5286 -85.9011 386.2512 -0.5487 -0.2465 -0.7988 88 92 113
89.1358 -88.5468 401.5898 -0.8095 -0.3824 -0.4456 95 99 116
80.1815 -94.5932 428.8393 -0.7766 -0.4747 -0.4142 131 137 156
182.2403 -70.7575 319.8101 -0.4591 -0.2281 -0.8586 64 65 88
174.2266 -71.3520 324.7650 -0.4716 -0.1781 -0.8636 83 84 106
162.5505 -72.8496 330.9003 -0.5339 -0.1266 -0.8360 31 31 54
154.3269 -73.8584 336.9314 -0.4446 -0.1589 -0.8815 62 63 87
133.8177 -77.1143 351.8552 -0.6485 -0.1557 -0.7451 88 88 113
125.1925 -78.9011 360.8342 -0.6427 -0.1167 -0.7572 100 102 122
112.0620 -81.5579 371.6903 -0.7286 -0.0009 -0.6850 58 62 81
-35.9715 -96.2017 438.1310 -0.6061 -0.1638 -0.7784 244 252 247
191.6107 -68.5741 312.9727 -0.4742 -0.2205 -0.8523 56 57 78
184.1750 -69.2315 317.9780 -0.3908 -0.2615 -0.8826 46 47 69
165.4038 -71.6487 329.6122 -0.4571 -0.1451 -0.8775 53 54 76
146.0387 -74.9754 343.5568 -0.5424 -0.2019 -0.8155 121 123 141
114.9539 -79.5966 368.4604 -0.7127 -0.0428 -0.7002 81 82 102
103.5923 -84.7811 382.8785 -0.7171 -0.1466 -0.6814 92 96 115
90.1686 -83.6986 391.6548 -0.7648 -0.3229 -0.5575 91 95 112
82.3849 -90.3266 416.0442 -0.8452 -0.4021 -0.3521 88 92 111
72.2420 -95.3013 438.0588 -0.5563 -0.5669 -0.6076 255 255 255
-958.5897 -422.5166 2365.9180 0.0000 0.0000 0.0000 251 252 247
194.2970 -67.5700 311.7040 -0.3779 -0.2474 -0.8922 40 41 61
176.9318 -70.1399 322.9444 -0.5016 -0.2198 -0.8367 57 58 83
168.4213 -70.5883 327.9627 -0.4985 -0.2007 -0.8434 52 52 75
157.0960 -72.4512 335.0604 -0.4798 -0.2057 -0.8529 71 72 95
148.6967 -73.4596 341.4901 -0.5745 -0.2290 -0.7858 84 85 105
135.9453 -75.0775 349.0291 -0.5649 -0.2214 -0.7949 65 66 89
127.5656 -76.7508 357.3453 -0.6588 -0.1466 -0.7379 91 93 110
104.9522 -81.1768 377.7540 -0.7365 -0.1693 -0.6549 55 58 80
94.2492 -82.5781 387.0251 -0.5582 -0.2539 -0.7899 79 81 99
76.1695 -93.7718 434.9889 -0.7101 -0.5044 -0.4913 128 130 150
-31.2773 -93.4421 432.2723 -0.7376 -0.1300 -0.6626 246 255 251
196.0354 -66.0783 309.9272 -0.2707 -0.2953 -0.9163 51 50 69
186.4399 -67.8894 316.0863 -0.4241 -0.3182 -0.8479 31 32 52
159.7988 -71.1293 333.5098 -0.5316 -0.2245 -0.8167 39 40 62
139.4142 -74.0462 347.4084 -0.4936 -0.2868 -0.8210 21 24 48
118.1065 -77.9530 365.4773 -0.6404 -0.0956 -0.7621 46 47 69
108.5408 -79.8186 376.2471 -0.6499 -0.1544 -0.7442 83 89 108
84.8123 -86.6737 405.7682 -0.8667 -0.2385 -0.4381 135 139 156
199.1695 -65.2437 309.2791 -0.0273 -0.3309 -0.9433 0 0 0
188.8902 -66.6866 314.4591 -0.4321 -0.3126 -0.8459 22 21 41
177.4464 -67.8178 320.4872 -0.4719 -0.2416 -0.8479 60 60 87
170.3283 -68.9081 325.5793 -0.5259 -0.2843 -0.8016 58 59 84
150.4343 -71.3831 338.0022 -0.5581 -0.2624 -0.7872 42 43 68
130.3306 -75.1225 354.8247 -0.6294 -0.1619 -0.7601 68 69 91
120.8798 -76.2350 363.0563 -0.6009 -0.1622 -0.7827 62 63 87
98.3107 -81.4574 386.5625 -0.4874 -0.2444 -0.8383 78 82 101
78.8726 -89.6533 424.4368 -0.8538 -0.3604 -0.3758 93 97 116
190.8294 -65.2613 312.4300 -0.4070 -0.2745 -0.8712 14 16 36
180.4754 -66.8750 318.9387 -0.4885 -0.2674 -0.8306 91 92 114
161.3613 -69.1722 330.9289 -0.4821 -0.2281 -0.8459 100 101 124
153.0215 -69.9407 336.1198 -0.4324 -0.2654 -0.8617 54 54 79
141.2522 -71.9191 344.2624 -0.4601 -0.2942 -0.8377 42 43 68
133.0665 -73.4421 352.2120 -0.6735 -0.2069 -0.7096 104 105 125
111.3826 -77.8588 372.9384 -0.6807 -0.1499 -0.7171 81 85 104
87.7765 -83.8079 400.1528 -0.8674 -0.2360 -0.4381 101 105 122
181.7637 -64.9967 316.5008 -0.4304 -0.2756 -0.8596 84 85 105
172.0966 -67.2122 323.7925 -0.4362 -0.2757 -0.8566 58 59 82
164.6983 -68.2519 329.6076 -0.4372 -0.2276 -0.8701 76 77 99
144.5080 -70.8405 342.3379 -0.5195 -0.3175 -0.7933 63 66 90
124.0609 -74.8256 360.6500 -0.6263 -0.2071 -0.7516 126 128 145
114.2114 -75.9137 369.2410 -0.6756 -0.1774 -0.7156 69 70 90
102.3541 -80.3381 383.0685 -0.6653 -0.2530 -0.7024 58 61 85
88.9818 -79.2639 391.1713 -0.8368 -0.0899 -0.5400 102 107 121
81.6591 -86.2731 416.4087 -0.9045 -0.2285 -0.3600 95 99 118
71.3245 -90.8189 438.7766 -0.8099 -0.2590 -0.5263 175 177 183
193.3762 -64.1653 311.5661 -0.4078 -0.2253 -0.8848 25 26 46
175.1188 -66.1835 322.0202 -0.4488 -0.2795 -0.8488 74 75 97
167.4393 -67.0642 327.8578 -0.4982 -0.2534 -0.8292 47 48 70
156.0564 -68.7946 334.5399 -0.4405 -0.2995 -0.8463 49 50 75
147.3796 -69.5151 340.4203 -0.5602 -0.3187 -0.7646 68 69 91
134.8440 -71.2085 348.3089 -0.6106 -0.2376 -0.7554 125 127 142
126.3300 -72.6542 356.8260 -0.6202 -0.2572 -0.7411 79 80 103
103.9233 -77.0385 377.5304 -0.6756 -0.3243 -0.6621 39 44 60
93.0456 -78.1460 387.1925 -0.6023 -0.2089 -0.7705 117 118 136
-32.8630 -89.1016 431.2183 -0.7304 0.0606 -0.6803 251 255 254
-51.9295 -90.9427 439.8004 -0.2268 -0.0830 -0.9704 255 229 213
194.3138 -62.3281 309.1418 -0.3691 -0.2376 -0.8985 42 44 62
185.5223 -64.4716 315.7099 -0.4615 -0.3005 -0.8347 79 80 103
177.6317 -64.9451 320.3068 -0.4995 -0.2696 -0.8233 48 49 71
158.5097 -67.3258 332.6145 -0.4779 -0.3067 -0.8231 24 24 49
137.9987 -69.9365 345.8792 -0.5546 -0.2759 -0.7851 48 49 73
117.0287 -74.0109 365.8711 -0.6379 -0.2101 -0.7409 32 33 55
84.1090 -82.6269 407.7105 -0.8763 -0.1987 -0.4389 79 81 99
74.9241 -88.4281 433.5775 -0.8701 -0.2143 -0.4438 125 126 146
-47.5237 -89.4306 436.8992 0.0018 0.0773 -0.9970 255 223 207
187.0827 -62.8789 313.1218 -0.4363 -0.2573 -0.8622 55 54 77
168.8109 -65.0267 324.9712 -0.5518 -0.2921 -0.7811 105 107 124
149.2732 -67.6343 337.0888 -0.5648 -0.3148 -0.7628 90 92 109
129.4754 -71.3829 354.6908 -0.6082 -0.2471 -0.7543 63 64 87
120.0045 -72.3998 363.1520 -0.5993 -0.2329 -0.7659 72 73 96
106.8605 -75.1562 375.1100 -0.5938 -0.2974 -0.7476 72 76 93
97.0894 -77.0282 385.8505 -0.5409 -0.2167 -0.8127 91 93 110
77.8263 -85.0338 424.5614 -0.8931 -0.2874 -0.3461 113 117 134
-26.4756 -83.5578 416.5483 -0.7811 0.5361 -0.3200 255 255 255
-43.1745 -89.0121 439.5774 -0.0700 0.3443 -0.9363 255 229 216
197.4134 -61.5228 307.9752 -0.2531 -0.2207 -0.9419 24 25 43
179.7105 -63.5034 318.2773 -0.5323 -0.2196 -0.8176 34 35 57
160.6158 -65.6741 330.1743 -0.4391 -0.2936 -0.8491 52 52 77
152.0993 -66.3269 335.3460 -0.4368 -0.3045 -0.8465 24 23 46
140.9208 -68.5972 344.0301 -0.4868 -0.2821 -0.8267 78 82 99
132.3572 -69.8010 352.3491 -0.6514 -0.2590 -0.7132 81 82 102
110.2387 -73.7146 372.1450 -0.5932 -0.3270 -0.7357 66 70 91
86.7863 -79.5507 400.7311 -0.8810 -0.1394 -0.4521 103 105 120
-38.2177 -87.1643 438.7827 -0.3930 0.3351 -0.8563 255 209 193
-58.8580 -88.1850 444.4341 -0.3459 -0.3112 -0.8852 255 233 214
189.4077 -61.6299 311.6814 -0.3660 -0.2159 -0.9052 12 11 34
181.9399 -62.1589 316.4938 -0.4369 -0.2278 -0.8702 61 62 84
170.7999 -63.5102 322.6300 -0.4566 -0.2635 -0.8498 41 42 64
163.4454 -64.4941 328.5701 -0.4022 -0.2705 -0.8747 42 43 66
143.4392 -67.0291 342.0062 -0.5317 -0.3015 -0.7915 52 52 77
122.8396 -70.7152 359.5220 -0.6192 -0.2420 -0.7470 103 104 122
113.0611 -71.8149 368.7596 -0.6168 -0.3005 -0.7275 96 97 115
101.1139 -75.9118 381.6777 -0.6501 -0.3307 -0.6841 65 68 83
89.9181 -77.1704 394.5056 -0.8614 -0.1435 -0.4873 72 78 96
79.9845 -80.8153 414.0813 -0.8783 -0.2611 -0.4006 108 112 131
70.1824 -87.0381 442.6606 -0.9147 -0.1554 -0.3731 144 149 161
-22.2464 -81.6749 412.3611 -0.7099 0.5511 -0.4386 255 255 255
192.9881 -61.0175 311.1809 -0.3730 -0.1356 -0.9179 84 85 105
174.3790 -62.7870 321.6828 -0.4271 -0.2660 -0.8642 48 49 71
154.6604 -64.8996 333.3805 -0.4393 -0.3009 -0.8465 38 38 65
146.5380 -65.8863 339.8346 -0.5566 -0.2995 -0.7749 39 40 62
134.1884 -67.6314 348.4630 -0.6477 -0.2509 -0.7194 49 50 75
125.4931 -68.9339 356.7856 -0.6120 -0.2458 -0.7517 25 25 50
103.0343 -73.1700 377.9051 -0.6660 -0.3248 -0.6715 85 89 108
-33.3467 -85.0361 434.6151 -0.7267 0.3082 -0.6139 255 247 231
-53.5023 -85.9009 439.9219 -0.2268 -0.0830 -0.9704 241 187 182
194.3602 -59.4157 309.3756 -0.4706 -0.0664 -0.8798 46 47 67
184.1236 -60.8459 315.2466 -0.5067 -0.2564 -0.8232 52 52 75
176.8213 -61.5311 320.1786 -0.4749 -0.2288 -0.8497 98 99 119
165.9986 -63.2014 326.3638 -0.5098 -0.2460 -0.8244 43 44 67
157.1981 -63.5153 331.6086 -0.4625 -0.2893 -0.8381 26 27 49
137.1453 -66.2446 346.0558 -0.5884 -0.2536 -0.7678 88 89 107
115.7331 -69.6755 365.0374 -0.6196 -0.2803 -0.7332 71 73 93
92.4984 -74.6065 388.5092 -0.7440 -0.1725 -0.6455 101 105 124
83.3090 -78.5440 407.7178 -0.8620 -0.2435 -0.4446 117 116 135
73.4822 -83.6367 434.6544 -0.8941 -0.1842 -0.4082 96 100 119
-48.7906 -84.7874 440.5395 0.0018 0.0773 -0.9970 244 187 184
186.4778 -59.6475 312.9473 -0.4077 -0.2135 -0.8878 5 4 27
168.4012 -61.8498 325.0561 -0.5946 -0.2569 -0.7619 50 51 74
148.1674 -63.8335 336.4880 -0.5735 -0.2808 -0.7696 83 84 106
127.9793 -67.0677 353.4065 -0.6182 -0.2218 -0.7541 119 120 144
105.7353 -70.8905 373.1613 -0.6137 -0.2994 -0.7306 83 86 105
-28.1986 -81.9212 428.0298 -0.8044 0.4849 -0.3434 255 255 240
-44.5894 -84.7985 443.6217 0.0891 0.3746 -0.9229 239 181 178
196.3106 -58.1304 307.8490 -0.4176 -0.0147 -0.9085 50 49 65
178.1158 -59.7166 317.4623 -0.5123 -0.1701 -0.8418 49 50 73
159.3977 -61.9845 329.1669 -0.4487 -0.2662 -0.8531 51 54 78
139.5264 -64.6015 343.5114 -0.4933 -0.2466 -0.8342 72 73 96
130.8935 -65.6665 351.4226 -0.6588 -0.2485 -0.7101 109 110 128
118.7024 -68.1714 362.0008 -0.6022 -0.2504 -0.7581 82 83 105
108.7481 -69.2047 370.5807 -0.5965 -0.3168 -0.7375 54 54 79
95.4575 -72.3696 384.6827 -0.6342 -0.1765 -0.7527 95 97 112
86.0129 -75.6372 400.7695 -0.8532 -0.1790 -0.4899 56 59 81
76.5557 -80.3204 423.9339 -0.9029 -0.2551 -0.3460 135 139 156
71.2912 -85.6677 452.7270 -0.8930 -0.3430 -0.2913 126 130 142
-23.3923 -80.5101 420.9330 -0.8719 0.1289 -0.4724 255 244 225
-39.5400 -83.3210 443.3295 -0.3632 0.3886 -0.8468 255 233 218
198.8954 -57.2142 307.2748 -0.3423 0.0655 -0.9373 0 0 0
188.8700 -58.4812 311.6241 -0.2756 -0.1459 -0.9501 44 42 66
169.8232 -60.0152 322.4478 -0.4952 -0.2257 -0.8389 52 52 75
162.6482 -61.0407 328.2997 -0.4205 -0.2252 -0.8789 81 82 104
150.7476 -62.4383 334.5782 -0.4674 -0.2408 -0.8506 107 108 131
142.2983 -63.1757 341.2069 -0.5315 -0.2591 -0.8065 76 78 103
121.5310 -66.4639 359.0677 -0.6134 -0.2230 -0.7577 45 45 68
98.7480 -70.6628 380.2688 -0.6787 -0.2767 -0.6803 31 37 57
88.9452 -73.1992 394.8766 -0.8536 -0.1664 -0.4937 87 87 103
-58.8813 -81.8771 440.2373 0.0000 0.0000 0.0000 243 190 181
191.8343 -57.6275 311.0451 -0.2981 -0.0230 -0.9542 31 32 52
180.9124 -58.6592 316.3875 -0.4614 -0.0947 -0.8821 32 33 53
173.0691 -59.1462 321.2463 -0.4132 -0.1883 -0.8910 35 36 59
153.4776 -61.0987 332.7856 -0.4930 -0.2431 -0.8354 69 71 96
133.1674 -63.8400 347.6790 -0.6559 -0.2534 -0.7110 47 47 72
124.9888 -65.4094 356.7213 -0.6135 -0.1880 -0.7670 110 111 131
111.9848 -67.6988 367.5887 -0.6079 -0.2970 -0.7363 70 71 91
78.9788 -76.2869 414.3538 -0.8676 -0.1381 -0.4778 105 108 132
95.7959 -137.3741 760.3640 0.0000 0.0000 0.0000 255 255 255
-34.5503 -81.3163 441.7277 -0.5992 0.5732 -0.5589 255 255 232
-54.5665 -80.9512 439.9356 0.0000 0.0000 0.0000 235 179 175
-77.0749 -70.2635 384.6897 -0.0184 -0.5246 -0.8511 244 249 245
193.7035 -56.2317 309.7163 -0.4380 0.0568 -0.8972 7 9 29
183.5891 -57.6160 315.3446 -0.5607 -0.0899 -0.8231 32 33 53
165.1061 -59.7207 326.3356 -0.5065 -0.1912 -0.8408 93 94 117
156.8791 -60.2632 331.3636 -0.4901 -0.2308 -0.8406 53 53 78
144.6214 -61.5926 338.9754 -0.5635 -0.2400 -0.7905 56 57 82
135.9993 -62.4247 345.5444 -0.6106 -0.2503 -0.7514 96 97 115
115.0461 -66.0874 364.8476 -0.6137 -0.2651 -0.7437 79 80 105
101.4109 -68.4332 376.3535 -0.6950 -0.2390 -0.6781 95 100 114
91.8627 -70.7709 388.8075 -0.7993 -0.1838 -0.5722 89 94 110
82.2329 -74.1320 406.7451 -0.8342 0.0527 -0.5490 106 108 126
72.4263 -78.9700 433.1442 -0.8776 -0.2755 -0.3923 152 150 165
-29.9603 -79.6852 438.1678 -0.7054 0.5968 -0.3823 255 235 214
-132.1773 -75.3944 415.8793 0.4992 -0.2337 -0.8344 255 255 255
174.9978 -57.6387 319.0984 -0.4271 -0.1517 -0.8914 99 101 121
167.1429 -58.1656 324.6711 -0.5784 -0.1894 -0.7935 83 84 106
147.0181 -60.0823 335.9951 -0.5920 -0.2128 -0.7773 77 78 103
127.2612 -63.3914 353.3910 -0.6473 -0.1552 -0.7463 81 82 104
104.8215 -67.0723 373.4483 -0.6582 -0.2006 -0.7256 41 47 68
-45.2988 -79.0424 442.7229 0.0000 0.0000 0.0000 239 186 174
-48.5426 -76.8076 439.6340 0.0000 0.0000 0.0000 253 221 209
196.6646 -55.4052 309.0266 -0.4119 0.1354 -0.9011 22 21 39
183.3972 -55.3008 311.6656 -0.4051 -0.0297 -0.9138 27 28 48
177.7222 -56.5590 318.1678 -0.4884 -0.0936 -0.8676 75 76 98
158.5243 -58.4560 329.0985 -0.4507 -0.2272 -0.8633 55 56 80
138.2288 -60.6316 342.3885 -0.5164 -0.2396 -0.8222 93 95 113
130.4063 -62.1721 351.2216 -0.6885 -0.1455 -0.7105 83 84 104
117.6051 -64.1670 361.8057 -0.5863 -0.2188 -0.7800 83 86 107
107.8777 -65.4012 370.1491 -0.6297 -0.1884 -0.7536 95 100 114
94.4013 -68.2103 384.3341 -0.6827 -0.1991 -0.7031 76 82 101
84.6376 -70.8933 399.9166 -0.8746 0.0976 -0.4748 102 100 117
74.9033 -74.9473 422.3278 -0.8942 -0.2530 -0.3694 159 72 99
-41.3313 -78.8299 443.8755 0.0000 0.0000 0.0000 234 185 179
-51.5377 -67.4318 376.7339 -0.3610 -0.4842 -0.7970 243 192 184
-106.2959 -69.3369 387.0312 -0.1764 -0.7546 -0.6320 255 255 255
-124.2238 -71.3582 399.1844 0.0000 0.0000 0.0000 255 255 255
188.0055 -55.0867 311.7431 -0.2433 0.0782 -0.9668 64 62 85
180.8538 -55.6804 316.8551 -0.4374 -0.0075 -0.8992 53 51 79
169.1644 -56.6715 322.2233 -0.5239 -0.1679 -0.8350 58 59 84
161.6301 -57.4324 328.1068 -0.3917 -0.2091 -0.8960 124 123 142
150.2457 -59.0632 334.4881 -0.4920 -0.1582 -0.8561 66 69 93
141.4861 -59.5534 340.9439 -0.5461 -0.2292 -0.8057 42 42 70
120.5487 -62.6530 359.0775 -0.5955 -0.1720 -0.7847 67 68 90
98.0732 -66.8797 381.5783 -0.7143 -0.2017 -0.6702 100 104 119
68.9393 -78.9502 444.3104 -0.8330 -0.4771 -0.2801 166 164 177
-23.7416 -72.0963 417.2538 -0.7437 -0.1695 -0.6467 255 232 213
-47.8795 -67.2291 368.6760 -0.1222 -0.6311 -0.7660 238 187 181
190.8659 -54.2026 311.4234 -0.2671 0.1649 -0.9494 78 80 100
171.8503 -55.5512 320.4049 -0.4494 -0.1162 -0.8857 60 61 83
152.5510 -57.5244 332.5785 -0.5306 -0.1771 -0.8289 77 78 103
132.1456 -59.9642 347.1875 -0.7003 -0.1669 -0.6940 57 59 79
123.7511 -61.4277 356.7489 -0.6034 -0.1070 -0.7902 101 100 119
110.4314 -63.2110 366.3308 -0.6648 -0.2216 -0.7134 44 48 67
87.2813 -68.2456 393.8295 -0.8438 -0.0444 -0.5349 72 75 88
78.3500 -72.6280 415.3735 -0.8412 -0.1241 -0.5263 214 115 133
-19.2297 -71.0002 397.4337 0.0000 0.0000 0.0000 255 255 231
-82.4947 -67.0635 382.3782 -0.1760 -0.6610 -0.7294 244 242 236
-99.8864 -66.3081 382.3624 -0.0534 -0.6838 -0.7278 226 227 222
193.3497 -53.1499 310.3676 -0.4316 0.1787 -0.8842 52 53 73
183.0032 -54.3955 315.5059 -0.5542 0.0382 -0.8315 58 59 82
175.3422 -54.8168 319.6943 -0.3779 -0.0520 -0.9244 61 62 84
164.2237 -56.1998 326.0556 -0.4750 -0.2112 -0.8543 90 90 108
144.1622 -58.2158 338.8338 -0.5628 -0.1969 -0.8028 92 93 116
135.0890 -58.6681 344.9313 -0.6671 -0.1615 -0.7273 81 82 104
113.8276 -61.9643 364.3510 -0.6380 -0.2439 -0.7304 50 52 72
100.9613 -64.9293 377.0624 -0.7147 -0.1860 -0.6742 89 94 110
90.2856 -66.0128 387.7116 -0.7862 -0.1251 -0.6052 57 60 82
81.5492 -70.2320 411.5841 -0.6882 0.1218 -0.7152 227 121 143
71.2425 -74.1670 433.0920 -0.7886 -0.4471 -0.4221 246 159 177
-60.0991 -65.3448 370.9349 0.1819 -0.7612 -0.6225 233 209 201
-77.9552 -65.3045 380.6635 0.0714 -0.6902 -0.7201 200 197 189
-96.4734 -66.2065 381.8673 -0.0077 -0.6438 -0.7652 203 203 198
-131.9123 -68.0136 399.2697 0.0000 0.0000 0.0000 255 255 255
184.7524 -52.9440 313.1148 -0.4053 0.1132 -0.9072 0 2 22
166.7924 -54.9702 324.9722 -0.5325 -0.1944 -0.8238 76 77 97
155.1144 -56.2293 330.6859 -0.4996 -0.1799 -0.8474 45 45 70
146.3380 -56.6535 336.3224 -0.5792 -0.1870 -0.7935 82 83 105
126.6038 -59.8509 353.9073 -0.6645 -0.1016 -0.7404 58 59 82
103.6266 -62.7988 372.6773 -0.6401 -0.1205 -0.7588 85 89 106
-41.7847 -63.6168 368.6760 0.1780 -0.5995 -0.7803 230 183 179
-73.3019 -64.1712 382.5215 0.2303 -0.6714 -0.7044 255 247 229
-92.7347 -65.8900 381.8673 0.1379 -0.6715 -0.7281 184 183 179
-112.1623 -64.6137 380.4622 -0.0345 -0.7906 -0.6114 253 250 242
196.3592 -52.2641 309.6969 -0.4123 0.1982 -0.8892 48 49 69
177.0573 -53.2597 318.2863 -0.4283 -0.0103 -0.9036 29 30 53
157.6292 -54.8887 328.6070 -0.4594 -0.2048 -0.8643 34 37 61
137.5707 -57.1451 342.5086 -0.5564 -0.1578 -0.8158 45 45 68
129.4291 -58.3367 351.6587 -0.7142 -0.0631 -0.6971 108 107 126
116.6034 -60.2814 361.2857 -0.5444 -0.2196 -0.8096 57 55 80
93.5204 -64.1936 383.8169 -0.6424 -0.1691 -0.7475 112 114 131
84.6346 -67.8514 406.3891 -0.3765 0.2744 -0.8849 215 109 129
74.6115 -71.5016 424.8860 -0.7792 -0.4491 -0.4372 231 134 153
-38.1838 -62.9290 371.0073 0.1020 -0.6970 -0.7098 254 230 211
-55.6420 -63.6589 373.8344 0.0414 -0.7577 -0.6513 255 242 224
187.7088 -52.0542 312.8460 -0.2403 0.2308 -0.9429 19 18 39
179.4197 -52.0672 317.0885 -0.4408 0.0753 -0.8945 56 57 82
168.5201 -53.3566 322.5246 -0.5014 -0.1272 -0.8558 74 75 97
160.6629 -53.8711 327.3140 -0.4051 -0.1815 -0.8961 79 80 103
149.2757 -55.4528 334.5310 -0.5073 -0.1351 -0.8511 57 58 81
140.5107 -55.8796 340.6287 -0.5456 -0.1413 -0.8260 110 111 133
119.8307 -58.9781 359.2966 -0.5234 -0.1594 -0.8370 49 50 75
107.0330 -61.4898 371.6661 -0.6530 -0.0790 -0.7532 86 90 109
96.8774 -62.6259 381.3386 -0.7016 -0.1199 -0.7024 65 68 90
88.5591 -66.2989 404.4568 -0.2335 0.5014 -0.8331 230 126 149
-34.4280 -62.0615 371.7995 0.0339 -0.7302 -0.6824 255 236 219
-86.9083 -63.5084 381.7185 -0.1093 -0.7141 -0.6915 199 197 196
-105.0944 -63.4411 381.6708 -0.0512 -0.7241 -0.6878 213 209 203
191.2457 -51.4145 312.7962 -0.2441 0.2695 -0.9315 55 56 76
171.2055 -52.2348 320.5696 -0.4156 -0.0569 -0.9078 81 82 104
152.0465 -54.2186 332.8947 -0.5349 -0.1496 -0.8316 13 14 38
131.9914 -56.7422 348.4725 -0.7325 -0.0531 -0.6787 42 42 70
110.0026 -59.7713 366.8226 -0.7175 -0.1346 -0.6834 80 84 101
92.6070 -65.1106 396.2287 -0.8595 0.0999 -0.5013 116 78 89
76.4705 -67.2361 413.4154 -0.6805 -0.2894 -0.6732 252 215 191
-9.7098 -62.1306 369.9674 0.3505 -0.4899 -0.7982 249 227 209
-30.2392 -60.3923 367.8418 -0.0265 -0.6971 -0.7165 250 225 208
-50.4378 -60.2635 366.6165 -0.1165 -0.6873 -0.7169 255 246 223
-82.2618 -61.6457 376.8548 -0.1606 -0.7843 -0.5993 255 237 218
-117.7299 -61.8109 381.1168 -0.0738 -0.6136 -0.7862 254 253 249
193.3151 -50.1757 311.6449 -0.4313 0.2139 -0.8765 38 39 59
182.7042 -51.2782 315.8995 -0.5439 0.1140 -0.8314 12 13 33
162.8780 -52.4994 325.5675 -0.4565 -0.1887 -0.8695 97 98 120
142.9969 -54.4413 338.1305 -0.5666 -0.1046 -0.8173 81 82 100
122.7723 -57.4643 356.5106 -0.5495 -0.0764 -0.8320 90 92 109
99.8674 -60.7327 376.5020 -0.7237 -0.1259 -0.6785 90 96 117
80.8702 -66.2867 411.5728 -0.5067 -0.2321 -0.8303 243 205 186
69.3878 -68.3843 427.8264 -0.5662 -0.6762 -0.4714 255 231 204
-26.3834 -59.8691 365.1057 0.1057 -0.6323 -0.7675 255 230 209
-46.2721 -58.9462 365.1833 0.0356 -0.6633 -0.7475 255 240 219
-98.5010 -60.5895 378.3693 -0.0569 -0.7466 -0.6628 229 219 211
196.0851 -49.2110 310.4232 -0.3622 0.2374 -0.9014 29 31 51
184.7707 -49.9820 314.5274 -0.4172 0.1573 -0.8951 43 44 67
173.5933 -50.9870 319.3380 -0.3642 0.0116 -0.9312 43 44 67
165.2089 -51.1735 324.1909 -0.4791 -0.1568 -0.8636 71 72 97
153.9792 -52.5641 330.3838 -0.4996 -0.1162 -0.8584 85 87 105
145.7644 -53.1765 336.4323 -0.5933 -0.1293 -0.7945 24 24 47
134.1027 -54.8988 344.9115 -0.6960 -0.0130 -0.7179 43 43 71
125.8017 -56.0796 354.5719 -0.6453 -0.0397 -0.7629 107 106 124
112.6095 -57.8588 363.2524 -0.7021 -0.1825 -0.6883 99 101 119
102.7308 -58.8598 372.7153 -0.6465 -0.1316 -0.7515 56 59 81
94.8924 -62.3187 384.7428 -0.7128 0.2637 -0.6499 110 110 126
85.6658 -65.6276 411.8164 -0.1721 -0.2171 -0.9609 255 235 207
-5.5793 -58.9639 369.2563 0.2328 -0.5741 -0.7850 253 229 210
-42.4849 -58.4775 366.5673 0.0713 -0.6809 -0.7289 255 237 217
-76.7954 -59.3117 373.4240 0.1468 -0.8160 -0.5591 255 240 217
-94.6084 -59.6776 376.0326 0.0236 -0.7788 -0.6269 223 207 199
-113.2289 -60.4478 378.2564 -0.0923 -0.7103 -0.6978 239 236 230
-1242.7316 -312.4893 2024.0703 0.0000 0.0000 0.0000 239 238 231
177.0726 -50.3059 319.0042 -0.4040 0.0342 -0.9141 38 38 61
156.6369 -51.3275 328.5534 -0.4882 -0.0916 -0.8679 68 73 97
136.5359 -53.2532 342.0864 -0.6186 0.0206 -0.7855 41 43 70
115.3300 -56.1742 360.4628 -0.5497 -0.2042 -0.8100 50 52 70
99.4306 -67.8840 419.6073 0.5888 0.6923 -0.4170 202 104 128
91.0319 -65.3399 411.9723 0.4393 -0.2466 -0.8638 246 210 191
73.2894 -66.7062 418.9320 -0.5117 -0.6226 -0.5921 255 233 207
-18.4938 -58.9881 374.3887 -0.0563 -0.8481 -0.5269 255 238 217
-22.2011 -58.5663 367.9774 0.1724 -0.7661 -0.6191 255 231 210
-58.8369 -57.5194 364.4341 -0.1236 -0.6455 -0.7537 250 221 204
-73.1610 -58.5670 375.6046 0.2957 -0.7807 -0.5505 255 250 230
-90.7381 -58.7479 375.6442 0.0109 -0.8047 -0.5936 255 234 218
-107.8783 -58.4516 375.7151 0.0133 -0.7765 -0.6299 219 213 206
-125.8344 -58.7247 378.7195 -0.0789 -0.7302 -0.6786 255 255 255
198.4062 -48.1132 309.5397 -0.2650 0.2090 -0.9413 21 25 42
191.7477 -48.5897 313.7309 -0.2100 0.2175 -0.9532 22 24 42
187.2273 -48.8488 313.8278 -0.2437 0.2226 -0.9440 70 71 94
179.3243 -49.0378 317.5208 -0.3792 0.0713 -0.9225 46 50 71
167.6060 -49.9027 321.9645 -0.4731 -0.0787 -0.8775 74 75 97
159.8274 -50.4043 327.1633 -0.4525 -0.0782 -0.8883 76 76 101
148.2762 -51.7521 334.0428 -0.5474 -0.1108 -0.8295 63 64 89
140.0402 -52.4899 340.7170 -0.6003 0.0191 -0.7996 100 104 123
128.2233 -54.3786 351.3639 -0.7087 -0.0154 -0.7054 98 99 121
118.8342 -55.0883 358.9447 -0.4578 -0.1662 -0.8734 92 94 114
106.3353 -57.7415 371.5116 -0.6517 -0.0730 -0.7549 84 86 103
-1.6958 -58.0829 369.2563 -0.0197 -0.5585 -0.8293 247 225 207
-38.3183 -56.8600 363.3497 0.0626 -0.7618 -0.6448 255 237 216
-55.0282 -56.5069 362.8791 -0.1147 -0.6542 -0.7476 255 227 206
-104.2567 -57.9223 373.8332 -0.0719 -0.8134 -0.5773 244 234 226
-1180.1959 -294.8592 2093.5447 0.0000 0.0000 0.0000 244 242 236
170.8487 -49.0499 321.5195 -0.4136 -0.0316 -0.9099 52 52 77
151.0331 -50.5692 332.3417 -0.5580 -0.1166 -0.8216 49 49 77
130.8214 -52.8741 348.5666 -0.7456 0.0212 -0.6661 114 113 131
109.2391 -56.0322 369.0477 -0.7305 -0.1273 -0.6709 99 101 121
94.5017 -57.3893 380.1534 -0.7053 0.3479 -0.6177 255 237 213
75.9922 -63.4499 413.8688 -0.4697 -0.4547 -0.7567 255 237 208
2.1576 -56.3690 367.9220 -0.2389 -0.5464 -0.8028 247 224 209
-34.3736 -55.4844 362.1914 0.1003 -0.7610 -0.6410 255 234 216
-50.3235 -54.7206 360.5757 0.0372 -0.6229 -0.7814 255 237 216
-85.1318 -56.3141 368.6881 -0.1340 -0.8321 -0.5383 255 238 218
-120.5362 -57.0619 377.6227 -0.0593 -0.7491 -0.6598 237 233 232
-136.1707 -57.6889 383.1746 -0.3129 -0.7251 -0.6135 191 191 189
193.2636 -47.1490 312.7874 -0.4184 0.1710 -0.8920 15 14 30
181.9305 -47.9347 316.5286 -0.4454 0.0987 -0.8899 0 0 18
173.5715 -47.9619 320.1211 -0.3748 0.0015 -0.9271 27 28 50
161.7883 -48.9106 325.1424 -0.5056 -0.0739 -0.8596 63 64 89
142.4871 -50.9942 338.4958 -0.6028 0.0310 -0.7973 58 60 80
133.7716 -51.5659 346.7306 -0.7170 0.0821 -0.6923 56 58 85
122.2105 -53.8486 357.3607 -0.4657 -0.0738 -0.8819 73 77 98
99.3687 -57.0585 377.8446 -0.7989 0.2130 -0.5625 74 76 91
79.9744 -61.9192 410.6764 -0.3802 -0.4923 -0.7830 255 243 216
-14.0113 -54.2292 363.3197 0.1046 -0.7360 -0.6688 247 217 193
-30.5593 -54.6249 362.8861 0.0645 -0.7261 -0.6846 255 239 221
-116.0551 -55.7727 373.7437 -0.1053 -0.7764 -0.6214 245 244 235
184.8570 -46.9985 315.3248 -0.4053 0.1085 -0.9077 48 49 71
165.3340 -48.1502 324.5094 -0.4742 -0.0492 -0.8790 76 76 101
153.7200 -49.3645 330.8168 -0.4929 -0.0869 -0.8657 95 95 122
144.7675 -49.5222 336.6982 -0.6247 0.0305 -0.7803 69 70 90
125.1591 -52.4501 354.8309 -0.5858 0.0157 -0.8103 87 90 112
112.1015 -54.1641 363.0757 -0.7570 -0.1617 -0.6331 80 79 98
101.9655 -54.9731 373.3587 -0.7646 0.1057 -0.6358 74 77 101
66.6759 -61.6548 417.0903 -0.3073 -0.6488 -0.6961 255 230 203
5.9533 -54.9922 364.5475 -0.3779 -0.4086 -0.8308 236 210 198
-10.2582 -54.3610 364.4185 0.3111 -0.6185 -0.7215 250 219 196
-26.6909 -53.5892 362.6275 0.0848 -0.7274 -0.6809 255 232 210
-46.5027 -53.8957 360.6834 -0.1486 -0.6233 -0.7678 255 240 220
-80.0145 -54.1460 365.8559 0.0036 -0.8168 -0.5769 255 241 219
-97.4480 -54.5719 367.7935 -0.0720 -0.8212 -0.5660 236 217 205
-810.9203 -271.5955 2495.4521 0.0000 0.0000 0.0000 255 249 227
194.8287 -45.7314 311.0582 -0.3710 0.2020 -0.9064 49 50 71
186.9102 -45.7317 313.9109 -0.2701 0.0945 -0.9582 27 30 50
176.2894 -46.9055 319.1984 -0.3672 -0.0191 -0.9300 25 26 48
156.1633 -48.0347 329.2635 -0.4892 -0.0498 -0.8707 55 58 82
136.4180 -50.1259 343.3277 -0.6582 0.1495 -0.7378 78 81 105
114.2140 -52.1938 359.8302 -0.5834 -0.1879 -0.7902 90 91 111
83.0498 -59.6366 406.8414 -0.2313 -0.5191 -0.8228 255 240 212
53.3508 -62.1265 421.0984 -0.1652 -0.6476 -0.7439 255 243 233
-6.4886 -53.9966 366.3040 0.2820 -0.6215 -0.7309 255 235 215
-42.3268 -52.2712 357.5993 -0.1563 -0.6394 -0.7528 255 239 219
-75.8112 -53.1521 364.2047 0.1446 -0.8079 -0.5714 255 235 214
-93.2584 -53.7769 366.9919 -0.0039 -0.8349 -0.5504 255 232 213
-128.1231 -54.1547 374.7587 -0.1746 -0.7520 -0.6356 207 201 196
198.8530 -45.2855 310.9744 -0.2908 0.2032 -0.9350 50 54 73
178.7664 -45.7630 318.1476 -0.3371 -0.0200 -0.9412 29 32 54
167.0674 -46.6291 322.3321 -0.4158 0.0090 -0.9094 60 60 85
159.6057 -47.2160 328.0823 -0.4677 -0.0055 -0.8838 66 69 93
147.5177 -48.2677 334.0753 -0.6041 0.0386 -0.7960 63 68 94
139.3736 -48.9432 341.7524 -0.6359 0.1564 -0.7558 95 99 120
127.9722 -51.0192 353.0073 -0.6827 0.0620 -0.7281 86 89 113
118.0612 -51.4226 358.3517 -0.4109 -0.1822 -0.8933 44 49 70
105.0049 -53.3970 370.6497 -0.6822 -0.0320 -0.7305 91 93 110
97.0202 -56.2260 387.8131 -0.7163 0.3845 -0.5822 255 249 225
86.7505 -57.9944 403.5106 -0.4514 -0.6145 -0.6470 255 250 221
70.5436 -60.2266 414.7155 -0.3314 -0.6257 -0.7061 255 238 209
9.3850 -50.8325 356.0101 -0.0844 -0.2473 -0.9653 240 215 203
-2.5085 -53.2049 366.8422 0.0768 -0.6680 -0.7401 255 231 209
-22.6053 -52.3240 361.0332 0.0357 -0.7256 -0.6872 255 226 207
-38.3365 -51.0351 356.5430 -0.0179 -0.6653 -0.7464 255 223 202
-88.5825 -52.0335 363.9181 -0.1024 -0.8016 -0.5890 255 232 212
-106.1949 -52.5476 366.0997 -0.0344 -0.7724 -0.6342 237 228 217
-108.6666 -52.2607 363.8375 -0.0209 -0.7576 -0.6524 243 235 226
-125.7601 -54.0191 372.4666 -0.0687 -0.7596 -0.6468 213 207 200
190.7214 -45.1544 313.9127 -0.2240 0.1031 -0.9691 62 63 85
170.1884 -45.7024 321.6766 -0.3949 0.0386 -0.9179 39 40 62
150.0041 -46.9177 332.1475 -0.5990 0.0304 -0.8002 55 58 80
130.5096 -49.4832 349.4369 -0.7441 0.0897 -0.6620 74 75 97
108.5412 -52.2292 368.9026 -0.7670 -0.1140 -0.6314 99 101 119
100.8428 -54.9699 384.5066 -0.7678 0.3676 -0.5248 255 251 233
74.2358 -58.3075 411.6033 -0.3578 -0.6195 -0.6987 255 235 207
57.5279 -60.3870 420.1931 -0.2109 -0.6822 -0.7001 255 232 202
38.9980 -61.1670 422.9362 0.2204 -0.6237 -0.7500 255 255 255
-18.7359 -51.3376 359.8163 0.0240 -0.7362 -0.6763 252 221 200
-51.2472 -51.1263 361.6974 -0.0501 -0.4714 -0.8805 255 246 224
-54.4244 -50.3654 356.6040 0.1117 -0.4022 -0.9087 255 247 228
-120.4106 -52.3430 367.8836 -0.1650 -0.8029 -0.5728 227 217 209
-139.4389 -53.2612 376.3338 -0.1286 -0.8172 -0.5618 190 190 188
192.6720 -43.9009 313.1394 -0.3826 0.0679 -0.9214 13 14 34
182.1645 -44.9788 317.2030 -0.3673 0.0223 -0.9298 102 102 127
161.3640 -45.6405 325.5639 -0.5202 -0.0284 -0.8536 34 35 59
141.8065 -47.4812 339.4550 -0.6444 0.1487 -0.7501 36 38 65
133.3510 -48.1132 347.2440 -0.7043 0.1218 -0.6994 54 59 83
121.4030 -50.1356 357.1731 -0.3813 -0.1594 -0.9106 62 63 85
89.6925 -55.8708 398.8405 -0.7266 -0.4321 -0.5341 255 252 222
61.2395 -58.3030 417.4299 -0.2375 -0.6789 -0.6947 255 228 199
44.1470 -61.0826 422.9362 0.0238 -0.6805 -0.7323 255 255 255
1.5350 -51.7830 365.0316 -0.1541 -0.6141 -0.7741 249 218 194
-15.0633 -50.6257 360.1100 0.0803 -0.7072 -0.7025 255 235 216
-34.6664 -50.4621 356.8318 0.1093 -0.6827 -0.7224 252 222 198
-84.6593 -50.9462 361.9849 -0.1188 -0.8021 -0.5853 255 237 215
-101.2621 -50.9439 363.5209 -0.1266 -0.7834 -0.6085 236 217 207
