ply
format ascii 1.0
element vertex 786
property float x
property float y
property float z
property float nx
property float ny
property float nz
property uchar red
property uchar green
property uchar blue
end_header
168.7733 99.8583 353.1151 -0.3792 -0.3495 -0.8567 45 45 68
128.7607 105.0294 372.8275 -0.7484 -0.0358 -0.6623 48 48 75
105.2268 111.1599 394.5405 -0.5742 -0.3635 -0.7336 102 104 119
90.7058 114.4669 408.4064 -0.7437 -0.4070 -0.5304 96 97 115
80.1091 119.5147 425.4139 -0.9012 -0.1930 -0.3881 139 140 160
194.5735 96.7400 338.3196 -0.4737 -0.0453 -0.8795 47 48 68
183.6504 98.6202 345.3513 -0.5286 -0.0862 -0.8445 56 57 80
155.0654 101.1251 357.2974 -0.3531 -0.4085 -0.8417 48 49 69
141.1906 102.4848 362.1352 -0.4694 -0.2012 -0.8598 49 50 73
119.1456 108.2660 382.4110 -0.6449 -0.0624 -0.7617 66 70 89
94.1606 114.7029 404.9347 -0.6889 -0.4363 -0.5788 101 105 122
206.2791 95.4256 333.7591 -0.4547 -0.0849 -0.8866 28 27 45
171.4930 100.2710 351.1670 -0.3961 -0.2853 -0.8728 45 45 68
158.3214 101.7388 356.2037 -0.3395 -0.4453 -0.8285 28 30 50
144.6715 103.1770 361.2931 -0.3462 -0.2491 -0.9045 31 32 52
131.3652 105.1571 369.1507 -0.7293 -0.0393 -0.6831 88 89 111
122.3357 108.6491 379.8518 -0.6977 -0.0880 -0.7110 57 58 81
108.4425 111.3597 391.0128 -0.5426 -0.3846 -0.7468 93 97 112
83.2586 119.1722 419.1865 -0.8819 -0.2569 -0.3953 101 105 122
197.2347 97.2424 336.9820 -0.3710 -0.0453 -0.9275 34 33 54
185.8459 98.8891 342.8470 -0.4669 -0.1269 -0.8751 39 40 62
174.0663 100.7015 349.3586 -0.3890 -0.2494 -0.8868 45 45 70
161.3191 102.2479 354.6541 -0.3328 -0.4628 -0.8216 21 22 45
147.7729 103.6915 359.6606 -0.4170 -0.3065 -0.8557 53 54 76
134.2989 105.4767 366.4474 -0.6761 -0.0325 -0.7361 71 72 97
112.1056 111.9475 389.3407 -0.5834 -0.3268 -0.7436 67 67 92
97.3361 114.5576 399.8005 -0.6858 -0.4460 -0.5751 91 95 112
86.3216 118.7371 412.6930 -0.8460 -0.3613 -0.3921 83 85 102
200.2808 97.8926 336.3701 -0.3463 -0.0879 -0.9340 43 41 64
188.7392 99.4212 341.6552 -0.3517 -0.1286 -0.9273 34 35 55
177.0798 101.2489 348.1563 -0.3884 -0.2583 -0.8846 54 54 79
164.4154 102.8363 353.5380 -0.2941 -0.4921 -0.8193 58 60 80
150.6351 104.1234 357.6792 -0.4214 -0.3499 -0.8366 82 83 105
137.3862 105.9088 364.3497 -0.6170 -0.0774 -0.7831 63 66 90
125.1387 108.8179 376.3610 -0.7377 -0.0975 -0.6681 93 94 117
100.8172 114.8737 396.8388 -0.6590 -0.4538 -0.5998 100 102 120
202.8677 98.3505 334.8145 -0.4367 -0.1992 -0.8773 23 23 39
191.5572 99.9609 340.5155 -0.4687 -0.2174 -0.8562 18 17 38
180.1551 101.8228 347.1221 -0.4643 -0.3310 -0.8215 58 56 82
167.4856 103.4115 352.4176 -0.2927 -0.4895 -0.8214 56 57 80
128.1189 109.1029 373.4727 -0.7430 -0.0835 -0.6640 92 94 114
115.2018 112.1247 385.8484 -0.5908 -0.2414 -0.7698 255 252 255
89.1813 118.2441 406.0265 -0.7465 -0.4375 -0.5013 90 92 109
79.4066 124.4081 427.1984 -0.9448 0.0765 -0.3187 166 166 189
153.6967 104.6353 356.1524 -0.3804 -0.3458 -0.8577 49 50 73
140.0897 106.1656 361.5067 -0.5494 -0.1242 -0.8263 63 64 89
118.2812 112.3720 382.7112 -0.5978 -0.2186 -0.7712 117 111 122
103.9216 115.0025 393.1100 -0.5652 -0.4642 -0.6820 77 81 96
92.9728 118.7369 403.8834 -0.6979 -0.4580 -0.5507 110 111 129
205.4869 98.8606 333.5076 -0.4873 -0.2389 -0.8400 17 18 36
194.1212 100.4104 338.9898 -0.4620 -0.2822 -0.8408 47 49 66
182.3355 102.0566 344.5614 -0.4398 -0.3378 -0.8321 27 28 48
170.1134 103.7532 350.2494 -0.2733 -0.4524 -0.8489 40 41 61
156.7135 105.0932 354.4221 -0.3570 -0.3737 -0.8561 47 46 69
143.3075 106.7265 360.1379 -0.4542 -0.1650 -0.8755 52 52 77
130.7861 109.2038 369.8296 -0.7256 -0.0765 -0.6838 69 70 92
121.5709 112.7848 380.4052 -0.6901 -0.2004 -0.6954 255 255 255
107.2426 115.3395 390.3451 -0.4900 -0.4975 -0.7158 87 92 106
82.1544 123.3945 418.3221 -0.9360 -0.0861 -0.3414 112 115 137
207.7638 99.2791 331.7964 -0.3858 -0.2345 -0.8923 36 38 54
196.7404 100.8732 337.5093 -0.3761 -0.3132 -0.8720 41 43 60
184.8035 102.3857 342.4486 -0.4184 -0.3257 -0.8478 63 64 89
173.3180 104.4017 349.5490 -0.3011 -0.4672 -0.8313 10 11 31
159.5345 105.5125 352.5866 -0.3739 -0.4326 -0.8204 29 27 50
146.4790 107.2578 358.6665 -0.4818 -0.2604 -0.8367 53 54 76
133.6437 109.4455 366.9182 -0.6630 -0.0250 -0.7482 78 79 104
110.8724 115.9084 388.6910 -0.4937 -0.4550 -0.7411 84 88 103
96.1383 118.5856 398.9664 -0.6746 -0.4897 -0.5523 83 85 102
85.0441 122.7543 411.2126 -0.9018 -0.1873 -0.3895 130 134 153
199.4930 101.4105 336.3940 -0.3495 -0.2966 -0.8888 38 37 56
187.6608 102.8793 341.1411 -0.3996 -0.3385 -0.8519 62 61 86
176.0811 104.8054 347.7690 -0.3813 -0.4859 -0.7864 28 30 50
136.6585 109.8279 364.7114 -0.6401 -0.0361 -0.7675 76 77 99
124.3842 112.8748 376.7376 -0.7175 -0.2256 -0.6591 68 69 91
99.2838 118.5405 394.5884 -0.6484 -0.4801 -0.5909 103 105 120
201.8517 101.7842 334.5348 -0.3982 -0.3035 -0.8656 84 82 92
190.3782 103.4171 340.0809 -0.4897 -0.4056 -0.7718 30 28 52
178.8206 105.2482 346.2124 -0.4613 -0.4994 -0.7334 46 47 67
162.5997 106.0509 351.3376 -0.3548 -0.4648 -0.8112 63 64 85
149.4831 107.7165 356.9440 -0.4707 -0.3162 -0.8237 52 52 75
127.4714 113.1713 374.0508 -0.6785 -0.2335 -0.6965 77 78 100
113.9471 115.9641 384.8290 -0.4569 -0.4060 -0.7915 230 227 232
87.9092 122.2086 404.6450 -0.7986 -0.2882 -0.5284 110 114 133
192.6942 103.7380 338.0440 -0.4324 -0.5000 -0.7503 11 10 31
165.6371 106.5997 350.1732 -0.2851 -0.4851 -0.8267 35 37 55
152.4304 108.1564 355.1692 -0.3988 -0.3189 -0.8598 35 37 57
139.2553 109.9929 361.5989 -0.6300 -0.0669 -0.7737 61 59 85
117.5320 116.5436 383.2965 -0.5345 -0.3728 -0.7585 159 153 162
102.3675 118.6009 390.7247 -0.5516 -0.4903 -0.6747 93 97 114
81.4880 128.2359 420.0727 -0.9562 0.0301 -0.2910 160 165 181
204.1277 102.1479 332.6649 -0.4155 -0.2848 -0.8639 46 48 63
180.9429 105.4417 343.5953 -0.3785 -0.4800 -0.7915 39 40 60
168.5034 107.0676 348.6948 -0.2221 -0.4848 -0.8459 38 39 59
155.5546 108.7053 353.9396 -0.3988 -0.3158 -0.8610 40 39 62
142.3844 110.4838 359.9833 -0.5210 -0.0882 -0.8490 70 71 94
130.2732 113.3524 370.9298 -0.6814 -0.1831 -0.7086 69 70 92
120.7582 116.8571 380.6753 -0.6565 -0.3275 -0.6795 155 153 154
105.9381 119.1190 388.9153 -0.4956 -0.4853 -0.7203 92 96 111
91.4613 122.3868 401.2841 -0.7531 -0.3530 -0.5552 102 103 121
206.7309 102.6290 331.2900 -0.3919 -0.2353 -0.8894 39 41 56
195.3855 104.1824 336.5674 -0.3482 -0.5379 -0.7678 33 34 54
184.0066 106.0215 342.7051 -0.3710 -0.4680 -0.8021 60 61 83
171.9272 107.7760 348.3050 -0.3081 -0.5017 -0.8083 29 31 51
158.3311 109.0913 352.0455 -0.4551 -0.3296 -0.8272 54 53 76
145.5132 110.9948 358.5151 -0.5396 -0.1722 -0.8241 52 52 77
132.8996 113.4385 367.4701 -0.6294 -0.0901 -0.7718 86 87 110
94.6328 122.2336 396.5898 -0.7217 -0.4050 -0.5613 104 106 123
84.2551 127.3377 412.2022 -0.9410 -0.0719 -0.3306 125 130 154
198.2316 104.7275 335.5511 -0.2773 -0.5146 -0.8114 16 16 30
186.8158 106.4962 341.3838 -0.4083 -0.5162 -0.7529 71 69 92
174.2418 107.9993 345.8604 -0.4214 -0.5378 -0.7302 17 18 38
161.0769 109.4324 350.0200 -0.4564 -0.3348 -0.8244 46 45 66
135.9534 113.8076 365.2886 -0.6472 -0.0602 -0.7600 93 94 117
123.3967 116.7308 376.2479 -0.6886 -0.3351 -0.6430 65 66 91
109.2477 119.4071 386.1682 -0.4799 -0.4720 -0.7395 81 82 102
97.9932 122.4130 393.3561 -0.6529 -0.3901 -0.6492 105 109 124
200.8993 105.2118 334.2613 -0.2644 -0.4758 -0.8389 45 47 60
188.8292 106.6698 338.8151 -0.4726 -0.5871 -0.6572 62 61 84
176.8100 108.3856 344.1725 -0.4537 -0.5480 -0.7027 31 32 52
148.2062 111.2563 356.0354 -0.5222 -0.1964 -0.8299 60 60 85
126.3317 116.9283 373.2692 -0.6567 -0.3098 -0.6876 86 90 107
112.5755 119.6635 383.3181 -0.4058 -0.4588 -0.7905 110 111 129
86.9239 126.4295 404.4336 -0.8587 -0.1830 -0.4787 122 121 140
163.8945 109.8554 348.4182 -0.3343 -0.3500 -0.8751 36 38 58
151.1032 111.6525 354.1875 -0.4286 -0.2216 -0.8759 57 58 81
138.6503 113.9786 362.3456 -0.6542 -0.0759 -0.7525 74 75 97
116.3741 120.3976 382.5060 -0.4786 -0.4241 -0.7689 87 91 108
101.2252 122.5214 389.8855 -0.5926 -0.3817 -0.7093 87 92 106
81.3525 133.9304 425.1099 -0.9384 -0.0959 -0.3319 169 171 188
203.1840 105.5633 332.3904 -0.3246 -0.4022 -0.8561 191 188 194
191.2575 106.9996 336.9158 -0.3951 -0.6386 -0.6604 47 48 68
179.2985 108.6745 342.0839 -0.3643 -0.5886 -0.7217 50 52 72
166.8645 110.3371 347.0829 -0.2703 -0.3757 -0.8865 42 44 64
154.2101 112.1947 353.0033 -0.4236 -0.2350 -0.8748 38 39 59
141.5909 114.3163 360.1707 -0.5795 -0.0820 -0.8109 81 80 103
129.1382 117.0818 370.1725 -0.6466 -0.2618 -0.7165 94 93 114
104.3795 122.6399 386.5226 -0.5847 -0.3887 -0.7120 95 100 114
90.2390 126.2463 399.7589 -0.8112 -0.1893 -0.5532 120 124 141
205.7620 106.0230 331.0027 -0.3142 -0.3546 -0.8807 83 79 90
193.7991 107.3878 335.2900 -0.3178 -0.6344 -0.7047 18 19 37
182.2886 109.2136 341.0983 -0.3488 -0.6499 -0.6753 32 33 53
170.2542 111.0191 346.6308 -0.3787 -0.4276 -0.8208 25 26 46
157.1623 112.6226 351.3963 -0.4903 -0.2608 -0.8316 70 71 94
144.4353 114.6341 357.9709 -0.5862 -0.1489 -0.7964 54 54 79
132.0239 117.3181 367.4919 -0.5687 -0.2132 -0.7944 90 91 111
119.1537 120.3768 378.6641 -0.6212 -0.4025 -0.6725 59 64 87
93.2897 126.0012 394.9039 -0.7606 -0.2362 -0.6047 101 105 124
208.3314 106.4751 329.5788 0.0000 0.0000 0.0000 5 9 23
196.1494 107.7198 333.4435 -0.2187 -0.6035 -0.7668 40 40 58
185.2307 109.7448 340.0930 -0.3936 -0.7027 -0.5927 47 48 70
172.5612 111.2060 344.1651 -0.4836 -0.4991 -0.7190 55 56 76
135.3576 117.8384 366.0259 -0.6200 -0.2013 -0.7584 75 76 98
122.0789 120.4236 375.1203 -0.6788 -0.3813 -0.6276 79 77 103
107.8926 123.0443 384.3635 -0.5273 -0.4390 -0.7275 77 79 96
83.4492 131.8299 412.7952 -0.9370 -0.0051 -0.3494 171 175 192
187.0963 109.7840 337.0659 -0.3965 -0.7420 -0.5406 43 41 64
159.8598 112.8975 349.1917 -0.5127 -0.2786 -0.8121 68 68 93
147.0965 114.8481 355.4055 -0.5790 -0.1563 -0.8002 55 55 82
125.1053 120.6489 372.3987 -0.6391 -0.3535 -0.6830 54 54 79
111.3728 123.4633 382.3265 -0.3742 -0.4884 -0.7883 75 81 100
96.5799 126.1159 391.5557 -0.6977 -0.2240 -0.6805 106 108 126
86.0882 130.7792 404.7513 -0.8776 0.0148 -0.4792 124 129 145
199.1251 108.2834 332.5399 -0.1790 -0.5676 -0.8036 14 12 26
175.2734 111.6479 342.7979 -0.4819 -0.5504 -0.6818 21 23 43
162.6368 113.2804 347.4948 -0.4144 -0.2931 -0.8616 35 37 57
150.0119 115.2514 353.6865 -0.4699 -0.1774 -0.8647 50 51 74
137.8607 117.8445 362.5546 -0.6523 -0.1860 -0.7348 44 47 71
115.1113 124.1115 381.2340 -0.4369 -0.4756 -0.7635 75 81 100
99.9845 126.3242 388.6358 -0.6527 -0.2678 -0.7087 111 113 128
202.1480 108.9224 331.9613 -0.2229 -0.5462 -0.8075 10 8 23
189.5675 110.1188 335.2920 -0.3623 -0.7166 -0.5961 17 16 35
177.9900 112.0096 341.1163 -0.4127 -0.6247 -0.6629 57 59 79
165.7364 113.8181 346.4691 -0.3686 -0.3639 -0.8554 34 35 55
153.2096 115.8068 352.6210 -0.4603 -0.2274 -0.8582 47 48 70
140.6542 118.0728 360.0343 -0.5950 -0.2146 -0.7745 46 49 73
128.1424 120.9457 370.0214 -0.5800 -0.3343 -0.7429 56 59 83
103.2778 126.5594 385.8746 -0.6457 -0.3332 -0.6871 97 99 114
89.2568 130.4491 399.6655 -0.8462 -0.0011 -0.5329 114 118 135
204.6447 109.3748 330.6149 -0.2141 -0.4921 -0.8438 159 156 161
191.6550 110.3032 332.9332 -0.2987 -0.6824 -0.6672 41 41 59
180.4361 112.3123 339.2526 -0.4055 -0.6804 -0.6104 43 44 67
168.7540 114.3670 345.5318 -0.4419 -0.4645 -0.7675 70 71 96
156.0638 116.1672 350.8188 -0.5050 -0.2476 -0.8268 39 40 62
143.7626 118.5190 358.4451 -0.5961 -0.2335 -0.7682 4 4 29
131.1583 121.1866 367.4798 -0.5219 -0.3487 -0.7785 53 53 78
117.9843 124.1648 377.8107 -0.5849 -0.4761 -0.6567 53 59 80
92.3288 130.1662 394.8485 -0.8177 -0.0446 -0.5739 120 124 141
82.4562 136.1015 412.4100 -0.9089 0.0717 -0.4108 119 123 140
194.2104 110.7005 331.4336 -0.1800 -0.6426 -0.7447 22 19 36
171.2064 114.5990 343.3602 -0.4865 -0.5579 -0.6724 36 38 58
158.8591 116.4858 348.8997 -0.4981 -0.2869 -0.8183 63 64 87
134.5896 121.7528 366.2614 -0.5965 -0.3749 -0.7097 58 59 84
121.1531 124.4529 375.4017 -0.6208 -0.4756 -0.6233 81 82 104
106.6756 126.8245 383.3027 -0.5830 -0.4198 -0.6956 81 85 104
182.7668 112.5522 337.1695 -0.3881 -0.7036 -0.5953 15 17 37
146.3404 118.6512 355.6888 -0.5726 -0.2588 -0.7779 80 78 102
109.8987 126.9977 380.4092 -0.4337 -0.5068 -0.7450 31 32 52
95.6119 130.1578 391.1793 -0.7179 -0.1043 -0.6882 108 112 131
85.3292 135.3742 405.9138 -0.8842 0.1380 -0.4462 110 111 129
-774.8569 411.6747 1223.6577 0.0000 0.0000 0.0000 245 243 239
197.3422 111.3309 330.8586 -0.1356 -0.6226 -0.7707 25 25 41
184.7945 112.6119 334.3637 -0.3933 -0.7004 -0.5956 42 43 66
173.7572 114.8961 341.4976 -0.4756 -0.6368 -0.6068 32 33 53
161.6533 116.8866 347.3723 -0.4697 -0.3679 -0.8025 58 59 82
149.3340 119.0759 354.1185 -0.4494 -0.3332 -0.8288 61 61 86
136.9571 121.6701 362.5929 -0.6315 -0.4266 -0.6475 83 83 108
124.0439 124.4727 372.0040 -0.5932 -0.5035 -0.6282 75 74 97
113.5838 127.6452 379.3591 -0.4192 -0.5614 -0.7135 74 80 100
99.1315 130.5017 388.8965 -0.6924 -0.1785 -0.6991 99 101 119
199.9792 111.8112 329.6987 -0.1660 -0.6580 -0.7345 147 145 157
187.2877 112.9566 332.7309 -0.3848 -0.6700 -0.6348 45 44 63
176.1254 115.0834 339.2315 -0.4709 -0.6773 -0.5653 54 55 77
164.4044 117.2329 345.6701 -0.4607 -0.4987 -0.7342 41 40 65
152.3337 119.4711 352.4890 -0.4926 -0.4077 -0.7688 39 42 66
139.7302 121.8484 359.9979 -0.5306 -0.5431 -0.6508 65 68 92
126.8947 124.5694 368.9678 -0.5060 -0.5054 -0.6989 96 95 116
88.6532 135.1413 401.4051 -0.8675 0.1059 -0.4860 118 119 139
79.1120 142.2736 422.7848 -0.8671 0.0552 -0.4950 160 165 181
202.8946 112.4185 329.0164 -0.1018 -0.6326 -0.7677 212 207 208
189.8112 113.3108 331.1321 -0.3101 -0.6710 -0.6736 22 21 37
178.0246 115.0798 336.2855 -0.4535 -0.6911 -0.5628 45 45 68
167.2884 117.6768 344.3885 -0.4547 -0.6436 -0.6156 64 62 85
154.9597 119.6753 350.1841 -0.4530 -0.4901 -0.7447 57 58 81
142.9867 122.3482 358.6761 -0.4628 -0.5355 -0.7064 53 53 78
129.8883 124.7941 366.4821 -0.4171 -0.6095 -0.6742 75 76 96
116.7293 127.8748 376.7838 -0.5138 -0.5966 -0.6165 79 81 101
102.2658 130.5342 385.4981 -0.7223 -0.2772 -0.6335 86 89 104
91.6940 134.6627 396.0576 -0.8530 0.0182 -0.5216 135 139 158
82.3847 141.7317 417.0616 -0.8992 0.0591 -0.4335 148 150 167
133.1372 125.2388 364.8848 -0.4239 -0.6528 -0.6279 81 80 101
119.6344 127.9256 373.5923 -0.5594 -0.6472 -0.5179 72 74 94
105.1760 130.3038 381.1729 -0.6935 -0.4088 -0.5932 91 95 110
205.5003 112.8897 327.7995 0.0000 0.0000 0.0000 95 88 102
192.4830 113.7419 329.8434 -0.2054 -0.6656 -0.7175 19 16 33
180.4645 115.3242 334.2905 -0.3909 -0.6832 -0.6168 42 43 66
169.5897 117.7817 341.8403 -0.4170 -0.7188 -0.5563 80 78 102
157.8648 120.0453 348.5479 -0.3557 -0.5216 -0.7755 38 38 61
145.2278 122.2156 355.0365 -0.3509 -0.6560 -0.6682 57 58 83
108.4024 130.4536 378.3254 -0.4999 -0.5111 -0.6993 87 93 109
94.7399 134.3433 391.3693 -0.7938 -0.1053 -0.5990 114 118 137
85.1708 140.7161 409.7404 -0.9063 0.0201 -0.4221 123 127 146
195.3377 114.3091 329.0908 -0.1598 -0.6854 -0.7104 24 22 37
182.8710 115.5490 332.2562 -0.4261 -0.6473 -0.6320 52 53 71
172.0778 118.0061 339.7812 -0.4346 -0.7534 -0.4935 64 62 85
160.5405 120.3751 346.8304 -0.3513 -0.6290 -0.6935 60 61 83
148.0873 122.5723 353.3073 -0.2822 -0.6624 -0.6940 70 71 96
135.6366 125.1813 361.4646 -0.3642 -0.7542 -0.5464 88 87 108
122.5475 127.9618 370.3987 -0.5203 -0.6979 -0.4921 66 62 87
98.0679 134.4737 388.3940 -0.7585 -0.1782 -0.6268 105 107 124
88.1994 140.1010 403.9569 -0.8760 -0.0599 -0.4785 106 109 129
198.0192 114.8083 328.0606 -0.1185 -0.6915 -0.7125 22 22 35
185.0772 115.7279 330.0887 -0.3845 -0.6499 -0.6556 18 20 35
174.2956 118.0977 337.2649 -0.4839 -0.7294 -0.4836 31 32 52
162.9926 120.5065 344.4001 -0.3784 -0.7393 -0.5569 57 55 80
151.0910 123.0053 351.9028 -0.3143 -0.7277 -0.6097 57 58 83
138.6183 125.4612 359.3593 -0.3697 -0.7977 -0.4765 68 67 90
125.5743 128.1519 367.8501 -0.3417 -0.7978 -0.4967 39 40 60
112.0563 131.0696 377.2540 -0.3989 -0.6351 -0.6615 78 80 98
128.7495 128.4857 365.8666 -0.2604 -0.8457 -0.4658 49 50 73
115.1260 131.1765 374.3437 -0.4561 -0.7029 -0.5458 49 50 73
101.0825 134.3086 384.4154 -0.7495 -0.3544 -0.5591 112 114 131
91.1112 139.3867 397.9456 -0.8381 -0.1909 -0.5110 115 119 138
81.8206 146.8557 419.5639 -0.8585 -0.1178 -0.4991 130 136 152
200.4999 115.1676 326.4947 -0.0386 -0.6424 -0.7654 22 20 34
187.6799 116.0818 328.5762 -0.3214 -0.6842 -0.6546 34 36 53
176.2411 118.0886 334.4191 -0.3989 -0.7313 -0.5533 57 59 79
165.4768 120.6917 342.2327 -0.3364 -0.8169 -0.4685 48 47 70
153.6343 123.0715 349.1812 -0.2739 -0.7905 -0.5478 54 54 79
141.1485 125.4457 356.2609 -0.2126 -0.8661 -0.4524 53 52 75
104.1987 134.2654 380.9347 -0.6835 -0.4827 -0.5476 95 96 114
203.6063 115.8316 326.0363 0.0000 0.0000 0.0000 62 59 76
190.3298 116.5496 327.5074 -0.2418 -0.7177 -0.6531 38 38 54
179.0268 118.4924 333.1253 -0.3309 -0.7261 -0.6027 49 50 71
167.6777 120.7321 339.5690 -0.3165 -0.8443 -0.4325 40 39 60
156.6234 123.4542 347.6683 -0.1870 -0.8291 -0.5270 56 57 82
143.8549 125.6300 353.9084 -0.1693 -0.8825 -0.4387 40 40 65
131.4899 128.5303 362.9242 -0.2240 -0.9032 -0.3662 66 64 90
118.0460 131.1828 371.1359 -0.4195 -0.7657 -0.4875 76 74 100
94.0047 138.6844 392.0810 -0.7955 -0.2284 -0.5613 106 110 127
84.5234 145.6044 411.6544 -0.8223 -0.1601 -0.5460 107 111 130
192.9172 117.0088 326.4175 -0.1732 -0.7511 -0.6370 30 28 44
181.4024 118.7220 331.2099 -0.3802 -0.7210 -0.5792 38 39 59
170.2825 120.9788 337.6892 -0.3497 -0.8374 -0.4201 41 40 63
159.3640 123.8192 346.1692 -0.2462 -0.8582 -0.4504 36 38 56
146.7661 125.9969 352.3094 -0.1898 -0.8836 -0.4280 84 85 105
133.7369 128.2551 358.8896 -0.2127 -0.9199 -0.3294 22 24 42
120.9530 131.2321 368.1483 -0.3127 -0.8973 -0.3114 57 58 81
107.1098 134.0778 377.0148 -0.4341 -0.6851 -0.5850 115 119 136
97.3170 138.7178 388.8748 -0.6596 -0.3822 -0.6472 97 99 114
87.4659 144.7057 405.1217 -0.5782 -0.6746 -0.4589 109 113 130
110.6015 134.5247 375.3699 -0.2061 -0.8131 -0.5444 63 70 88
195.6867 117.4967 325.3976 -0.0896 -0.6937 -0.7147 14 12 26
183.8225 118.9657 329.3553 -0.3334 -0.7212 -0.6072 6 8 25
172.0009 120.8053 334.3569 -0.3504 -0.8280 -0.4377 35 37 55
160.9513 123.3667 341.7681 -0.2981 -0.8663 -0.4008 32 33 53
148.9215 125.8423 348.9088 -0.2659 -0.8825 -0.3880 100 102 122
136.0967 128.0440 355.1709 -0.2607 -0.8995 -0.3506 41 42 62
123.2283 130.7955 363.5269 -0.2884 -0.8996 -0.3281 88 89 109
113.6933 134.6136 372.5385 -0.2894 -0.8772 -0.3830 47 48 70
100.2066 138.3990 384.4965 -0.4700 -0.6495 -0.5977 111 113 130
90.3254 143.7755 398.5708 -0.6580 -0.6215 -0.4252 124 126 139
80.8156 151.2875 419.5582 -0.7809 -0.5284 -0.3330 146 153 169
197.8472 117.7360 323.4610 0.0043 -0.6353 -0.7723 70 67 84
186.2771 119.2569 327.6832 -0.2904 -0.7148 -0.6362 38 39 57
174.0153 120.8545 331.8678 -0.3073 -0.8147 -0.4918 32 33 53
162.8935 123.2014 338.4513 -0.3070 -0.8641 -0.3989 46 47 67
150.9480 125.5837 345.1848 -0.2891 -0.8878 -0.3580 38 39 57
138.0350 127.5702 350.5905 -0.2411 -0.8429 -0.4810 49 50 71
125.5662 130.4545 359.3288 -0.2798 -0.8115 -0.5130 45 46 66
102.9974 137.9672 379.8130 -0.4522 -0.7775 -0.4370 97 99 116
188.1508 119.3549 325.3754 -0.2690 -0.7168 -0.6433 52 52 68
176.8960 121.3212 330.8700 -0.2783 -0.8102 -0.5159 68 69 89
164.9359 123.1369 335.5620 -0.3129 -0.8413 -0.4408 42 44 62
93.3562 143.1410 393.1277 -0.6119 -0.6813 -0.4018 111 113 126
179.0403 121.4312 328.6367 -0.3091 -0.8257 -0.4718 32 31 50
153.5962 125.7538 343.0392 -0.2221 -0.8822 -0.4153 50 52 70
140.6392 127.6988 348.2314 -0.1158 -0.8217 -0.5580 49 50 71
127.7872 130.0848 355.0951 -0.3140 -0.6830 -0.6594 53 54 74
115.4713 133.5475 365.8080 -0.2570 -0.7807 -0.5696 93 92 110
105.1629 136.8748 372.9832 -0.3689 -0.7939 -0.4833 75 76 94
82.7242 148.7325 407.5939 -0.4714 -0.7970 -0.3776 133 137 153
190.6471 119.6853 323.8445 -0.2428 -0.7128 -0.6579 46 48 63
167.7122 123.4956 334.1907 -0.3385 -0.8175 -0.4660 57 59 79
155.9012 125.7766 340.4437 -0.2976 -0.8196 -0.4896 47 49 66
143.4791 127.9566 346.3412 -0.1963 -0.8131 -0.5480 40 42 59
130.2894 130.0029 351.9356 -0.3124 -0.6596 -0.6836 36 38 58
117.8875 133.1306 361.3781 -0.2491 -0.7194 -0.6484 65 67 85
95.3343 141.5786 384.6938 -0.5268 -0.6771 -0.5138 86 89 102
85.3203 147.3959 399.8171 -0.5690 -0.7416 -0.3552 115 119 136
193.2438 120.0579 322.4558 -0.0686 -0.6325 -0.7715 32 32 48
181.2429 121.5595 326.4682 -0.2512 -0.7903 -0.5588 42 44 62
169.6753 123.4384 331.4025 -0.3541 -0.8152 -0.4583 20 21 41
157.4739 125.3420 336.2890 -0.3108 -0.7693 -0.5582 42 44 62
145.9880 128.0276 343.8605 -0.3337 -0.7830 -0.5249 35 37 57
132.5236 129.7472 348.2505 -0.3920 -0.6013 -0.6962 26 27 47
120.3935 132.8891 357.6077 -0.5114 -0.6946 -0.5060 72 74 92
107.9067 136.6313 369.1378 -0.2238 -0.5560 -0.8005 73 72 93
196.5482 120.8327 322.4654 0.0619 -0.5298 -0.8459 20 17 32
183.8215 121.8708 324.9413 -0.2543 -0.7540 -0.6057 8 7 23
171.9597 123.5842 329.3493 -0.3275 -0.7971 -0.5074 27 29 46
160.2840 125.6944 334.9072 -0.3495 -0.7551 -0.5547 40 42 59
148.2409 127.9251 340.8426 -0.3993 -0.7816 -0.4792 50 47 66
110.3348 136.1375 364.4993 -0.4137 -0.3406 -0.8443 62 63 85
97.7582 140.7170 378.7057 -0.4560 -0.5866 -0.6693 64 66 82
87.9969 146.1742 392.5865 -0.6271 -0.6544 -0.4226 121 125 140
78.2984 153.3531 411.7845 0.2974 0.1682 -0.9398 162 166 183
185.9859 122.0303 322.9010 -0.3324 -0.7110 -0.6196 45 45 61
134.8553 129.5574 344.8505 -0.4321 -0.6035 -0.6701 58 59 82
122.5834 132.4577 353.2947 -0.5646 -0.6541 -0.5034 72 73 96
100.3511 140.1084 373.6362 -0.4506 -0.4973 -0.7414 89 89 105
174.4915 123.8879 327.8736 -0.2847 -0.8172 -0.5012 32 33 51
162.3654 125.5905 332.0004 -0.3838 -0.7664 -0.5152 29 31 49
150.5993 127.9306 338.2581 -0.4124 -0.7728 -0.4825 20 16 38
138.0079 130.0432 343.8070 -0.2784 -0.6638 -0.6941 52 53 73
125.1687 132.3550 350.1553 -0.4654 -0.5669 -0.6797 52 50 76
112.4790 135.3984 359.0757 -0.4998 -0.4764 -0.7234 83 80 97
90.8041 145.2808 386.5391 -0.3330 0.1336 -0.9334 113 117 134
79.8945 150.2634 398.4709 -0.6444 -0.6429 -0.4141 164 168 187
188.1798 122.2111 320.9473 -0.2800 -0.6803 -0.6774 23 21 35
176.6111 123.9415 325.5380 -0.3132 -0.8406 -0.4419 57 59 79
164.8289 125.7994 330.2096 -0.3642 -0.7530 -0.5481 53 54 74
152.8470 127.9285 335.7188 -0.4087 -0.7034 -0.5816 58 60 80
140.9956 130.4131 342.4117 -0.3402 -0.6964 -0.6319 77 78 100
128.1575 132.6698 348.4758 -0.5019 -0.4564 -0.7348 66 64 92
115.6337 135.7079 357.2594 -0.4371 -0.5170 -0.7360 99 101 119
102.3837 138.8471 366.4695 -0.6228 -0.4695 -0.6259 96 97 115
92.5634 143.4905 377.6084 -0.6912 -0.3639 -0.6243 131 135 152
178.8435 124.0783 323.4968 -0.2493 -0.7652 -0.5936 41 43 60
167.2473 125.9817 328.3540 -0.3605 -0.7667 -0.5313 37 35 59
155.5372 128.2044 334.1294 -0.3833 -0.6852 -0.6193 22 23 46
143.6848 130.5713 340.3545 -0.4277 -0.6717 -0.6049 56 59 83
131.2113 133.0282 346.9829 -0.5759 -0.3266 -0.7495 63 63 91
118.7788 136.0144 355.4889 -0.6387 -0.5050 -0.5805 77 80 102
105.3731 138.8127 363.4659 -0.6135 -0.4562 -0.6445 74 78 97
83.0953 149.6620 393.4475 -0.7429 -0.5878 -0.3203 105 109 126
181.7727 124.6092 322.7718 -0.2193 -0.6958 -0.6840 47 47 63
169.4947 126.0479 326.1342 -0.3688 -0.7499 -0.5493 48 49 69
158.3633 128.5510 332.8134 -0.4354 -0.5983 -0.6727 38 39 59
108.3377 138.8618 360.7914 -0.6592 -0.4313 -0.6160 102 101 120
95.1472 142.7452 372.2344 -0.7471 -0.3253 -0.5797 113 115 133
85.6963 148.3746 386.2854 -0.7520 -0.6070 -0.2571 117 118 136
77.6052 157.8816 412.2943 -0.9085 0.1969 -0.3686 156 155 171
146.3227 130.7138 338.2842 -0.5137 -0.6428 -0.5682 45 45 68
133.8603 133.0668 344.4794 -0.5762 -0.2495 -0.7783 79 80 105
121.3717 135.8444 352.2029 -0.6586 -0.4189 -0.6252 118 119 139
98.4862 142.9438 370.0050 -0.7164 -0.1626 -0.6785 118 118 136
152.6010 -135.6835 323.6311 -0.4884 0.7088 -0.5090 77 80 104
187.8880 -129.5204 310.0233 -0.2543 0.2145 -0.9430 47 48 70
175.6942 -130.8542 312.9365 -0.3162 0.3913 -0.8642 67 77 85
163.8703 -132.7931 317.4193 -0.4414 0.6641 -0.6034 51 56 77
143.6178 -136.9292 327.9840 -0.3601 0.7990 -0.4816 79 82 106
122.8242 -142.7516 341.4828 -0.6413 0.6356 -0.4298 116 117 135
114.3349 -146.5253 350.8788 -0.7192 0.4289 -0.5467 86 88 106
167.2604 -131.9972 317.3734 -0.5079 0.5740 -0.6423 16 19 43
155.4897 -134.2980 322.4803 -0.5060 0.7224 -0.4714 83 85 109
134.7759 -138.8064 333.5663 -0.2819 0.8408 -0.4622 63 66 88
125.7580 -140.9563 339.6891 -0.6299 0.6284 -0.4565 100 104 123
117.2607 -144.5146 348.7110 -0.6631 0.5327 -0.5259 88 89 109
108.8416 -149.2058 360.1703 -0.8769 0.3232 -0.3559 110 111 131
101.4091 -157.0743 378.2891 -0.9320 0.0333 -0.3610 110 114 133
190.6807 -128.3639 309.4300 -0.1658 0.2406 -0.9563 43 45 65
178.2973 -129.4733 311.7567 -0.2681 0.3204 -0.9086 210 212 216
158.6417 -133.2513 322.0309 -0.4697 0.7618 -0.4461 60 63 89
147.0490 -136.0865 328.0204 -0.3644 0.7476 -0.5553 33 39 62
138.0654 -137.7000 333.1208 -0.3787 0.8332 -0.4030 55 56 80
181.9032 -128.9889 312.3570 -0.3595 0.2869 -0.8880 255 255 255
169.9154 -130.5675 316.0585 -0.5260 0.4922 -0.6936 53 56 80
150.5479 -135.3307 328.2110 -0.3629 0.7414 -0.5645 103 107 128
128.4680 -138.9976 337.5552 -0.4456 0.7294 -0.5190 100 102 122
120.1794 -142.5724 346.6423 -0.6481 0.5790 -0.4947 94 97 119
111.4129 -146.3253 356.1912 -0.7860 0.4151 -0.4581 124 125 143
103.2823 -152.3473 370.6041 -0.8550 0.3944 -0.3369 135 137 155
184.0747 -127.2611 310.4842 -0.3297 0.2484 -0.9108 73 77 107
172.8873 -129.4971 315.4980 -0.5176 0.4014 -0.7557 51 54 80
161.4611 -131.9048 320.9533 -0.5133 0.6787 -0.5253 43 45 72
153.8989 -134.4217 328.0864 -0.4607 0.7234 -0.5143 58 59 84
141.1611 -136.3700 332.1874 -0.3620 0.8442 -0.3953 85 88 110
131.9628 -138.0630 337.4794 -0.2541 0.8439 -0.4725 69 72 91
123.2489 -140.8680 345.0281 -0.5618 0.6921 -0.4533 135 137 155
106.2879 -149.8569 367.4742 -0.8403 0.4021 -0.3637 103 104 124
98.7715 -158.1742 386.9001 -0.9433 0.1109 -0.3130 124 125 145
186.9537 -126.0883 309.6701 -0.2572 0.3037 -0.9174 54 54 79
164.6504 -130.8714 320.4416 -0.5081 0.5982 -0.6197 46 51 75
144.5007 -135.3804 331.9589 -0.3838 0.8269 -0.4111 67 71 92
135.4496 -137.1296 337.3970 -0.2521 0.8828 -0.3964 91 94 116
114.2129 -143.9027 353.1302 -0.6676 0.5475 -0.5045 100 103 125
178.0548 -126.6810 312.9717 -0.3209 0.3616 -0.8754 79 75 101
174.7697 -127.4762 313.0025 -0.3773 0.3812 -0.8440 57 58 81
167.7711 -129.8077 319.8636 -0.5496 0.5066 -0.6643 39 42 68
156.2177 -132.4226 325.7145 -0.5020 0.6874 -0.5248 60 60 85
147.7466 -134.2340 331.3601 -0.4341 0.7422 -0.5105 50 52 79
126.3081 -139.2321 343.5457 -0.5156 0.7334 -0.4430 62 63 85
117.6224 -142.5547 352.2806 -0.6482 0.6054 -0.4620 95 96 116
108.8616 -146.8349 363.1771 -0.8670 0.4111 -0.2816 113 115 135
100.6895 -153.3688 378.9901 -0.9342 0.1944 -0.2991 127 128 149
189.5881 -124.7729 308.6396 -0.1510 0.3448 -0.9265 41 43 60
159.5827 -131.5582 325.6363 -0.5221 0.6582 -0.5423 45 48 74
138.7328 -135.8596 336.5703 -0.3765 0.8531 -0.3612 76 77 97
97.2528 -161.7719 401.1052 -0.9363 0.0138 -0.3509 154 154 168
192.9597 -124.1116 309.0382 0.0158 0.3931 -0.9194 31 32 50
180.9769 -125.5631 312.2326 -0.3237 0.3500 -0.8790 228 229 237
170.0676 -128.0921 318.0139 -0.5555 0.4562 -0.6952 59 62 88
162.3063 -130.0656 324.2529 -0.5797 0.5387 -0.6113 56 58 85
150.8228 -132.9717 330.5303 -0.4332 0.6678 -0.6053 41 44 68
141.8774 -134.5934 335.8055 -0.3974 0.8274 -0.3968 52 55 81
128.6673 -136.7529 340.2913 -0.4180 0.8043 -0.4223 83 84 104
120.3045 -140.2426 349.4157 -0.6234 0.6366 -0.4540 85 87 107
111.1549 -143.5213 358.2415 -0.7845 0.4650 -0.4103 116 117 135
103.1810 -149.8179 373.5957 -0.8517 0.4125 -0.3230 112 114 131
196.7786 -123.7678 310.1480 0.0593 0.4483 -0.8919 36 35 53
183.7844 -124.3512 311.3170 -0.3216 0.4063 -0.8553 133 128 144
173.0038 -126.9632 317.3203 -0.5170 0.4523 -0.7268 38 44 64
154.2045 -132.0634 330.4294 -0.4487 0.6045 -0.6582 69 75 98
145.2433 -133.6039 335.6105 -0.4333 0.7957 -0.4232 69 71 96
132.4510 -136.1011 340.8127 -0.2892 0.8715 -0.3960 85 89 108
123.2049 -138.2674 347.2097 -0.5134 0.7397 -0.4351 81 85 104
114.1750 -141.4763 355.9354 -0.6806 0.5886 -0.4363 79 78 98
106.2283 -147.3186 370.3591 -0.8328 0.4518 -0.3198 112 113 133
98.6295 -155.4941 389.9979 -0.9199 0.2842 -0.2703 147 148 168
187.0289 -123.5255 311.2140 -0.2584 0.5010 -0.8260 72 73 96
175.6140 -125.5166 315.9309 -0.4075 0.3694 -0.8352 75 81 102
165.1489 -128.7102 323.1170 -0.5726 0.4700 -0.6717 83 83 108
157.1211 -130.6601 329.2676 -0.5064 0.5181 -0.6893 67 71 90
136.0606 -135.2807 340.9947 -0.2822 0.8663 -0.4122 108 112 131
126.5906 -136.9956 346.4623 -0.4424 0.7923 -0.4202 96 100 119
100.9952 -151.6116 383.9147 -0.9252 0.2512 -0.2846 132 133 155
190.0627 -122.4992 310.6986 -0.1680 0.5778 -0.7987 41 37 59
167.7151 -127.1422 321.5278 -0.5630 0.4395 -0.6999 85 88 110
148.4369 -132.3500 334.7914 -0.5100 0.7052 -0.4926 60 65 89
139.5667 -134.2623 340.7280 -0.3543 0.8325 -0.4259 67 67 92
117.2844 -139.6280 353.9991 -0.6176 0.6459 -0.4488 111 113 130
108.6632 -144.0168 365.3932 -0.8430 0.4534 -0.2894 135 137 155
96.3637 -157.4225 400.9761 -0.9141 0.2655 -0.3064 150 152 170
179.3065 -125.0499 316.5525 -0.4005 0.3633 -0.8412 65 73 96
159.8639 -129.1444 327.8601 -0.6142 0.4587 -0.6422 46 45 75
151.3548 -130.8518 333.4507 -0.5614 0.5967 -0.5734 93 96 120
129.4735 -135.1669 344.5565 -0.3774 0.8342 -0.4020 63 69 92
120.4290 -137.8336 352.1415 -0.5666 0.6932 -0.4455 83 85 109
111.5805 -141.6636 362.4128 -0.7919 0.5030 -0.3462 72 76 95
103.4032 -147.8115 377.8788 -0.8732 0.2353 -0.4268 135 137 155
193.0063 -121.4854 310.3148 -0.0296 0.5933 -0.8044 39 39 55
181.4558 -123.2667 314.4425 -0.3333 0.3705 -0.8670 139 136 153
170.1303 -125.5088 319.8080 -0.5711 0.3981 -0.7179 95 98 122
162.7105 -127.7430 326.6538 -0.6507 0.4003 -0.6452 54 54 83
142.9254 -133.1343 340.2304 -0.4465 0.7394 -0.5039 62 64 91
133.3234 -134.5016 345.0521 -0.3318 0.8452 -0.4190 87 92 113
98.6783 -153.1872 394.0893 -0.9208 0.3552 -0.1614 125 126 146
196.7645 -121.1121 311.3468 -0.0092 0.5728 -0.8197 40 42 57
183.8538 -121.7181 312.8032 -0.2273 0.4814 -0.8465 52 57 80
172.9221 -124.1846 318.6527 -0.5102 0.3807 -0.7712 66 71 96
154.2260 -129.3453 332.0734 -0.5072 0.5145 -0.6914 76 79 100
146.1033 -131.8422 339.3797 -0.5493 0.6317 -0.5470 67 71 92
123.6688 -136.3031 350.8613 -0.4290 0.7911 -0.4360 105 107 124
114.9476 -140.0104 360.8795 -0.6966 0.5936 -0.4030 88 87 108
106.5772 -145.3011 374.5081 -0.7430 0.4284 -0.5143 114 117 139
199.7049 -120.0153 310.8107 -0.0171 0.5539 -0.8324 5 5 19
186.7246 -120.6243 312.1590 -0.1414 0.5954 -0.7909 53 54 72
175.3844 -122.6123 316.9658 -0.4310 0.3525 -0.8307 27 32 58
165.1463 -125.9536 324.5663 -0.6381 0.3787 -0.6704 60 60 87
157.6989 -128.5177 332.1614 -0.5312 0.4135 -0.7395 66 70 91
136.7764 -133.4253 344.7036 -0.3345 0.8062 -0.4881 78 79 102
127.2827 -135.2949 350.6864 -0.3715 0.8390 -0.3975 72 75 97
117.9976 -138.0027 358.5796 -0.6195 0.6564 -0.4306 84 87 107
109.4168 -142.6179 370.7978 -0.7029 0.4351 -0.5628 112 114 131
101.4972 -149.9571 389.2753 -0.9395 0.2428 -0.2417 159 160 182
189.9438 -119.7856 312.0345 -0.1316 0.6340 -0.7621 26 26 42
167.5847 -124.2746 322.7397 -0.5906 0.3960 -0.7031 65 67 96
149.0045 -130.2577 337.8889 -0.6304 0.5005 -0.5934 96 100 121
140.4347 -132.5764 344.8362 -0.4113 0.7240 -0.5537 80 83 107
130.8144 -134.2171 350.3712 -0.4165 0.8041 -0.4242 52 58 78
96.6044 -155.8031 407.0190 -0.8830 0.4233 -0.2029 154 161 177
193.2851 -119.0261 312.0977 -0.0894 0.6457 -0.7584 21 21 34
177.7851 -121.0725 315.3685 -0.4316 0.3591 -0.8275 83 83 108
170.2792 -122.8925 321.5353 -0.5915 0.3950 -0.7029 86 87 112
160.1614 -126.7102 330.1151 -0.6520 0.3480 -0.6736 86 89 111
151.5729 -128.3790 335.7315 -0.6533 0.4352 -0.6195 77 80 104
143.6671 -131.2393 343.8978 -0.5597 0.5502 -0.6197 83 89 112
120.9209 -135.9161 356.0895 -0.5210 0.7207 -0.4573 70 73 95
111.9472 -139.6785 366.4969 -0.7805 0.3834 -0.4937 104 106 123
103.6790 -145.6684 381.9924 -0.8179 -0.1224 -0.5622 132 133 153
180.9431 -120.1552 315.0499 -0.3319 0.4218 -0.8437 53 54 76
162.4610 -124.7534 327.6887 -0.6585 0.3670 -0.6571 90 91 111
134.1924 -132.9053 349.5080 -0.4802 0.7338 -0.4805 78 81 103
124.2671 -134.4792 355.0027 -0.3826 0.7951 -0.4706 78 79 102
99.2633 -151.7639 400.3387 -0.9375 0.1501 -0.3139 139 140 162
197.3658 -118.8436 313.4720 -0.0382 0.6283 -0.7771 22 19 36
184.2289 -119.2972 314.8137 -0.1962 0.5180 -0.8326 30 34 51
172.8260 -121.3752 319.9803 -0.5161 0.4446 -0.7321 84 85 109
154.0522 -126.4505 333.4248 -0.5435 0.3674 -0.7547 93 96 118
146.1432 -129.1513 341.3233 -0.6514 0.4254 -0.6283 69 71 98
137.2966 -131.3466 348.1198 -0.4763 0.6470 -0.5954 76 78 103
114.5426 -136.9337 362.5664 -0.6834 0.4742 -0.5551 92 96 115
106.4783 -142.4586 377.0227 -0.6563 -0.0025 -0.7545 116 115 134
200.4173 -117.8707 313.1908 -0.0453 0.4403 -0.8967 17 15 30
187.6690 -118.6230 315.0412 -0.1398 0.5896 -0.7955 36 39 52
175.9802 -120.3862 319.5287 -0.4460 0.5383 -0.7151 72 77 102
164.8090 -122.9017 325.4562 -0.6433 0.3761 -0.6669 94 97 123
157.3666 -125.4422 333.1180 -0.5491 0.3054 -0.7780 72 75 97
149.3622 -127.9303 340.6326 -0.7069 0.3146 -0.6335 78 79 102
127.6646 -133.1596 354.1687 -0.3841 0.7706 -0.5086 76 77 99
117.8020 -135.1966 360.8129 -0.5791 0.6463 -0.4969 48 51 75
101.8437 -147.9156 394.0132 -0.9355 0.0747 -0.3453 117 121 140
190.9679 -117.8634 315.1289 -0.1611 0.5470 -0.8215 23 23 39
178.2497 -118.6950 317.5461 -0.4386 0.5829 -0.6840 83 85 109
167.7181 -121.6875 324.6474 -0.6011 0.3886 -0.6983 56 56 86
140.4907 -129.9179 346.9895 -0.5070 0.5232 -0.6849 94 98 115
131.0799 -131.8502 353.3282 -0.4780 0.7118 -0.5146 59 62 86
109.6269 -140.1855 374.1417 -0.4892 0.2246 -0.8428 85 87 105
102.8216 -141.7338 382.3272 -0.7467 -0.1474 -0.6486 124 125 143
97.1214 -154.3167 413.6055 -0.9246 0.1833 -0.3341 160 161 179
193.9637 -116.8221 314.5645 -0.0881 0.5053 -0.8585 43 40 57
170.5115 -120.3542 323.5049 -0.5913 0.3958 -0.7027 29 30 57
159.7497 -123.5310 330.8008 -0.6576 0.2494 -0.7109 112 115 137
151.9457 -126.0344 338.3907 -0.6726 0.2774 -0.6860 91 92 112
143.9070 -128.7347 346.3627 -0.6344 0.3501 -0.6892 63 66 90
134.4776 -130.5457 352.4889 -0.5951 0.5582 -0.5782 74 77 101
121.0684 -133.5144 359.1599 -0.5106 0.6850 -0.5197 52 52 75
112.9129 -138.2637 372.0316 -0.7341 0.2918 -0.6132 113 117 134
99.7495 -150.1065 406.3906 -0.9336 0.0477 -0.3551 126 127 149
197.5786 -116.2415 315.0234 -0.0151 0.4121 -0.9110 19 16 31
180.8978 -117.3879 316.4195 -0.3730 0.6013 -0.7066 54 60 81
162.5470 -122.0985 329.5363 -0.6036 0.3008 -0.7383 46 49 73
154.3757 -124.0166 335.8469 -0.5870 0.2700 -0.7633 20 21 43
124.5659 -132.2002 358.3190 -0.4167 0.7548 -0.5066 75 76 98
115.0033 -134.9004 366.6618 -0.6915 0.4969 -0.5243 94 98 115
105.8565 -139.2139 378.8732 -0.4369 0.1336 -0.8895 104 106 123
200.8290 -115.4269 315.0779 -0.0484 0.2324 -0.9714 35 33 47
184.0054 -116.4118 315.9534 -0.2071 0.5398 -0.8159 39 40 58
172.8247 -118.6399 321.5118 -0.4643 0.4318 -0.7733 28 29 54
165.0978 -120.4941 327.8747 -0.6110 0.3381 -0.7158 52 54 83
157.7582 -123.0700 335.7227 -0.5970 0.2694 -0.7557 94 98 117
146.4650 -126.7506 343.9938 -0.7166 0.1905 -0.6709 106 108 128
137.6966 -129.1033 351.3421 -0.6234 0.4301 -0.6530 84 91 109
128.5074 -131.4749 358.8106 -0.4461 0.6975 -0.5608 76 77 99
187.5012 -115.7831 316.2945 -0.1040 0.4640 -0.8797 48 48 66
175.5725 -117.3093 320.3210 -0.3731 0.5411 -0.7537 62 63 85
149.0739 -124.8134 341.6556 -0.7359 0.1296 -0.6646 93 92 112
140.7511 -127.5206 349.8768 -0.6199 0.3054 -0.7228 59 63 82
118.1144 -132.9392 364.3820 -0.5367 0.7508 -0.3850 70 73 97
110.0900 -138.3596 379.0977 -0.4528 0.1636 -0.8765 103 104 122
101.4171 -144.7162 396.3841 -0.9258 -0.1508 -0.3466 123 127 148
97.4042 -152.2731 419.2044 -0.9574 -0.0229 -0.2878 149 146 165
204.0751 -114.5478 314.9272 -0.0012 0.1238 -0.9923 0 0 0
191.3983 -115.4666 317.3541 -0.1710 0.2059 -0.9635 13 16 28
178.6211 -116.2409 319.6879 -0.4244 0.5122 -0.7467 55 56 78
167.7939 -119.0143 326.4147 -0.6008 0.3725 -0.7073 73 76 100
159.6371 -120.7355 332.4510 -0.6566 0.2160 -0.7227 86 89 111
131.6778 -129.8254 357.1947 -0.5708 0.5872 -0.5739 95 96 114
121.5294 -131.4087 363.0526 -0.5129 0.7549 -0.4087 110 111 129
101.5804 -137.3055 381.5883 -0.7738 0.1936 -0.6031 113 115 133
194.3249 -114.3743 316.6523 -0.0823 -0.1442 -0.9861 31 29 46
181.7711 -115.2919 319.3229 -0.4709 0.3027 -0.8286 49 51 69
170.1237 -117.2321 324.2385 -0.5893 0.3665 -0.7200 77 80 102
151.2101 -122.4903 338.4241 -0.6166 0.1437 -0.7741 58 59 82
143.6418 -125.7225 347.8497 -0.6525 0.1334 -0.7459 109 110 130
134.7132 -128.0065 355.1537 -0.6820 0.3813 -0.6241 92 96 113
113.6800 -136.5865 377.1939 -0.6199 0.2076 -0.7567 83 89 108
162.3533 -119.2187 330.9713 -0.5519 0.2738 -0.7877 93 96 120
154.0226 -120.9626 337.0049 -0.5402 0.1373 -0.8303 22 23 48
146.3028 -123.8272 345.6272 -0.7195 0.0720 -0.6907 78 80 100
124.7832 -129.7540 361.4305 -0.4930 0.6857 -0.5355 62 62 89
114.9010 -132.1042 369.2304 -0.6850 0.3935 -0.6131 61 62 82
104.6916 -134.5405 377.3466 -0.4575 0.4678 -0.7562 119 122 142
99.0595 -146.2812 407.6182 -0.9101 -0.3218 -0.2611 145 146 166
201.7416 -113.3037 317.8203 0.0047 -0.4657 -0.8849 38 36 53
197.7347 -113.6022 316.6555 0.0096 -0.0386 -0.9992 9 7 21
184.7762 -114.2549 318.7623 -0.2000 0.1003 -0.9746 24 24 40
172.9170 -115.9588 323.2332 -0.4459 0.3793 -0.8107 36 37 60
165.1878 -117.8325 329.7664 -0.5864 0.2560 -0.7685 58 61 85
137.5999 -126.2183 353.2313 -0.7015 0.2050 -0.6825 92 95 117
128.5823 -128.7841 361.3600 -0.5542 0.5139 -0.6548 67 68 90
118.3063 -130.5569 367.8940 -0.5183 0.7351 -0.4370 62 63 85
188.2276 -113.5483 318.9270 -0.1104 -0.1391 -0.9841 51 50 67
176.1412 -115.0280 322.9631 -0.3249 0.4145 -0.8501 25 26 48
157.1693 -119.7755 336.3057 -0.5962 0.1611 -0.7865 119 121 138
148.7242 -121.6688 342.7086 -0.7440 0.0296 -0.6675 80 84 105
140.3566 -124.3243 351.0194 -0.6778 0.0892 -0.7298 95 96 116
131.7281 -127.1256 359.7308 -0.6571 0.3336 -0.6760 73 77 98
108.8877 -133.6670 377.5169 -0.4878 0.4475 -0.7496 106 109 129
100.1411 -139.9361 395.1330 -0.8425 -0.0619 -0.5351 109 113 130
96.7941 -148.4238 420.7539 -0.8160 -0.4217 -0.3954 164 163 183
191.1785 -112.4512 318.1722 -0.1421 -0.3145 -0.9385 33 33 49
179.5415 -114.2159 322.9114 -0.2834 0.0246 -0.9587 42 44 64
167.6944 -116.1475 327.8004 -0.6047 0.2824 -0.7447 82 83 103
159.1901 -117.5470 333.2143 -0.6769 0.1293 -0.7247 77 80 100
121.9517 -129.2770 367.1092 -0.5419 0.7169 -0.4387 66 70 89
112.5549 -132.3667 376.7828 -0.6202 0.4151 -0.6656 106 108 126
202.1752 -110.4487 313.0549 0.1046 -0.5308 -0.8410 0 0 0
182.2640 -112.8772 321.6252 -0.3778 -0.2453 -0.8928 40 42 57
170.2076 -114.5198 325.9446 -0.5930 0.2164 -0.7755 75 76 96
151.1090 -119.6476 340.1385 -0.6009 0.0996 -0.7931 93 95 115
143.2027 -122.4935 348.8876 -0.6621 0.0141 -0.7493 103 104 124
134.6646 -125.2798 357.6309 -0.7448 0.1907 -0.6394 92 96 115
125.2750 -127.6354 365.4947 -0.6378 0.5824 -0.5040 88 92 113
102.0149 -135.2939 386.5691 -0.7729 0.1363 -0.6197 114 113 131
193.1380 -110.6699 315.8627 -0.1419 -0.6052 -0.7833 66 65 84
173.2122 -113.3687 325.1833 -0.4104 0.1498 -0.8995 56 57 80
161.9540 -116.0370 331.7035 -0.5279 0.1697 -0.8322 65 68 92
153.9375 -118.0972 338.6234 -0.5530 0.0951 -0.8277 67 68 88
137.4747 -123.3917 355.4200 -0.7463 0.1136 -0.6559 107 109 129
115.5359 -130.3230 374.3752 -0.6402 0.4374 -0.6315 103 104 122
105.5135 -133.4430 384.5219 -0.6702 0.4205 -0.6116 109 113 132
97.3497 -140.7355 404.8282 -0.8979 -0.0819 -0.4325 132 133 153
184.3006 -111.1148 319.4185 -0.2389 -0.3522 -0.9049 38 39 57
165.0363 -114.8817 331.0178 -0.5136 0.2101 -0.8319 46 46 71
157.0320 -116.7824 337.6024 -0.5793 0.0883 -0.8103 76 82 105
145.6552 -120.4197 346.1951 -0.7058 0.0117 -0.7083 98 99 119
128.6532 -126.0772 364.0232 -0.7064 0.3780 -0.5985 86 87 110
119.2832 -129.0362 373.5880 -0.5622 0.6196 -0.5477 98 99 121
194.2772 -108.3903 312.3964 -0.3452 -0.3561 -0.8683 57 59 79
176.0362 -112.1106 324.1597 -0.3237 -0.1651 -0.9316 58 61 76
148.0626 -118.2523 343.2018 -0.7249 0.0145 -0.6887 98 99 119
139.6995 -120.7228 351.2222 -0.7422 0.0099 -0.6701 127 128 149
131.7938 -124.4088 362.3307 -0.7373 0.1607 -0.6562 84 87 107
122.4259 -127.1138 371.3170 -0.6310 0.4891 -0.6022 88 89 111
108.7729 -131.3170 381.7706 -0.5701 0.6889 -0.4477 69 72 94
99.1672 -135.6501 395.0482 -0.8590 0.1568 -0.4874 74 75 95
195.5799 -106.2742 309.3299 -0.2597 -0.1752 -0.9497 50 52 72
186.9182 -109.8037 318.1890 -0.2519 -0.5823 -0.7730 17 15 32
179.3119 -111.2256 323.9951 -0.3053 -0.3295 -0.8934 17 17 33
167.4811 -113.1813 329.0157 -0.5364 0.1614 -0.8284 49 50 73
159.2924 -114.8404 335.1295 -0.6481 0.0233 -0.7612 52 55 81
112.2799 -129.4355 379.5313 -0.5943 0.6518 -0.4711 56 61 87
197.0882 -104.2778 306.4878 -0.0109 -0.1585 -0.9873 32 33 51
188.7618 -107.9609 315.6846 -0.2923 -0.4536 -0.8419 38 35 55
170.0290 -111.5957 327.2427 -0.5702 -0.0534 -0.8197 65 66 91
150.3974 -116.0980 340.1830 -0.6008 0.0780 -0.7956 122 121 142
142.7362 -119.1743 349.7414 -0.6998 0.0004 -0.7143 96 100 119
134.2640 -122.0148 358.8715 -0.7719 0.0202 -0.6354 75 76 96
125.6952 -125.3820 369.4506 -0.7458 0.3030 -0.5933 37 33 57
115.6575 -127.6816 377.6685 -0.6261 0.5448 -0.5579 69 71 96
102.1616 -132.7347 390.3717 -0.7568 0.4095 -0.5095 113 115 135
180.9772 -109.1341 320.9473 -0.3685 -0.5822 -0.7247 32 32 48
173.1186 -110.5214 326.6732 -0.4132 -0.1510 -0.8980 41 42 64
161.7031 -113.0138 332.8459 -0.5072 0.0069 -0.8618 55 56 80
153.4382 -114.7895 339.2325 -0.5585 -0.0384 -0.8286 97 98 118
144.8898 -116.7954 346.2615 -0.6697 -0.0880 -0.7374 93 92 112
136.9201 -119.9420 356.1482 -0.7488 -0.0041 -0.6627 85 87 107
105.6241 -130.7407 387.9419 -0.7141 0.4963 -0.4938 96 97 115
96.0383 -135.7398 403.2488 -0.9173 0.1717 -0.3593 123 123 146
189.1965 -105.1086 310.7613 -0.1904 -0.2011 -0.9609 33 33 51
183.0839 -107.4138 318.7538 -0.3612 -0.5576 -0.7474 22 24 44
164.5607 -111.6351 331.6139 -0.4351 -0.0628 -0.8982 47 48 70
128.3344 -122.8922 365.6897 -0.7874 0.1941 -0.5851 107 106 124
119.0394 -125.9497 375.8061 -0.6649 0.3691 -0.6494 91 94 114
108.9024 -128.6582 385.2857 -0.6507 0.5799 -0.4903 52 55 79
190.8324 -103.2504 308.2257 -0.2971 -0.0839 -0.9512 42 44 62
175.2739 -108.7243 324.3481 -0.2677 -0.5710 -0.7761 63 64 87
167.6131 -110.4641 330.8729 -0.3926 -0.1322 -0.9102 66 64 90
156.2764 -113.3246 337.8631 -0.5496 -0.1167 -0.8272 71 73 100
147.6796 -115.1203 344.4327 -0.6516 -0.0638 -0.7559 91 92 112
139.0340 -117.2656 351.8929 -0.7500 -0.0650 -0.6582 118 117 138
131.0190 -120.6940 362.6533 -0.7714 -0.0243 -0.6359 67 68 88
122.6723 -124.6569 375.0397 -0.7321 0.2003 -0.6511 121 120 140
98.6799 -132.1960 397.0287 -0.8436 0.3552 -0.4026 84 86 103
193.3657 -102.0671 307.2806 -0.2927 0.1620 -0.9424 49 50 71
183.4656 -104.4586 313.5405 -0.3701 -0.2527 -0.8940 31 32 52
158.5581 -111.3947 335.3781 -0.5820 -0.2388 -0.7774 92 95 117
150.0989 -113.0935 341.6784 -0.5378 -0.1053 -0.8365 83 84 106
112.1966 -126.5629 382.5034 -0.6290 0.6102 -0.4816 94 97 121
102.0409 -129.8646 393.7268 -0.7650 0.4309 -0.4787 76 79 98
93.3728 -136.7640 414.1449 -0.8971 0.0735 -0.4357 127 128 151
195.7127 -100.6721 305.7030 -0.0834 0.1648 -0.9828 42 44 62
184.8646 -102.3921 310.4783 -0.3576 -0.1085 -0.9276 50 48 71
177.4805 -107.0431 322.2650 -0.3022 -0.5656 -0.7673 64 66 84
169.6650 -108.5032 328.1731 -0.3257 -0.5661 -0.7573 97 98 120
161.3895 -109.9563 334.0070 -0.4160 -0.2646 -0.8701 75 75 100
141.8048 -115.3946 349.5296 -0.6928 -0.1809 -0.6981 92 90 111
133.5314 -118.3498 359.2161 -0.7369 -0.1700 -0.6543 70 73 93
125.7397 -122.6029 372.3147 -0.7639 -0.0331 -0.6445 220 219 224
116.0064 -125.2068 381.5244 -0.6910 0.4973 -0.5246 75 81 102
177.4945 -103.7359 316.2218 -0.3278 -0.3343 -0.8836 63 64 87
152.9049 -111.4875 339.9258 -0.4654 -0.3152 -0.8271 72 73 98
144.5852 -113.6653 347.5547 -0.5957 -0.2826 -0.7519 99 101 121
136.4623 -116.5659 357.1172 -0.6459 -0.2476 -0.7222 93 95 115
128.1401 -119.9667 368.1657 -0.7632 -0.1711 -0.6232 97 97 115
105.8092 -128.2498 392.1645 -0.7022 0.4645 -0.5395 89 90 108
95.7674 -132.6080 406.3522 -0.8990 0.1317 -0.4176 79 83 102
199.8281 -100.5007 307.1666 0.1504 0.2523 -0.9559 0 0 0
187.7935 -101.4023 309.9278 -0.2384 0.1824 -0.9539 61 62 82
171.9499 -106.7949 326.0399 -0.3020 -0.5998 -0.7410 45 46 66
163.7185 -108.1098 331.5647 -0.2771 -0.5813 -0.7650 57 59 79
155.6714 -109.9231 338.2800 -0.4401 -0.3407 -0.8308 85 89 108
119.0674 -123.0485 378.5715 -0.7669 0.2641 -0.5849 108 107 128
109.4419 -126.5394 390.3477 -0.6755 0.4427 -0.5897 65 69 88
190.6492 -100.3882 309.3221 -0.2772 0.2737 -0.9210 46 47 65
179.5816 -102.0725 314.0784 -0.4333 -0.1219 -0.8930 43 41 64
147.1897 -111.8384 345.3156 -0.4390 -0.3978 -0.8056 63 65 82
139.0305 -114.4414 354.1488 -0.6615 -0.3095 -0.6831 100 99 119
130.9072 -117.6874 364.7800 -0.7402 -0.2400 -0.6281 109 110 128
122.0809 -120.9543 375.7403 -0.7418 -0.1255 -0.6588 92 94 112
112.7031 -124.3849 387.4089 -0.6655 0.3775 -0.6439 102 106 125
98.8471 -129.7028 401.5772 -0.8515 0.2726 -0.4480 97 99 116
193.2829 -99.2434 308.3972 -0.3040 0.4825 -0.8214 35 37 57
181.8064 -100.5312 312.1980 -0.3075 0.1300 -0.9426 54 53 76
172.0605 -103.4659 319.9083 -0.2712 -0.3383 -0.9011 67 65 91
167.1484 -107.2398 331.5234 -0.2809 -0.6224 -0.7306 48 49 73
157.6867 -107.7606 335.0900 -0.4114 -0.5884 -0.6960 46 46 71
149.6308 -109.8242 342.5204 -0.3340 -0.5179 -0.7876 71 75 94
102.2319 -127.4376 398.3787 -0.7783 0.3569 -0.5166 98 99 119
92.5430 -132.7867 415.4742 -0.8673 0.1174 -0.4837 120 123 143
195.5384 -97.8277 306.7655 -0.1197 0.4921 -0.8623 39 39 55
174.1218 -101.7208 317.6354 -0.3185 -0.2248 -0.9209 57 59 79
141.1386 -111.8713 349.9709 -0.6174 -0.3882 -0.6842 86 90 109
132.9187 -114.8229 359.9215 -0.6373 -0.4592 -0.6188 81 82 100
124.7548 -118.4233 371.7147 -0.7369 -0.2881 -0.6115 73 77 98
116.0518 -122.3958 384.8108 -0.7300 0.2799 -0.6236 92 94 114
199.2016 -97.2745 307.1836 0.0891 0.5757 -0.8128 0 0 0
184.1850 -99.1479 310.6827 -0.2522 0.4887 -0.8352 48 47 70
176.7529 -100.4050 316.3201 -0.3189 0.1121 -0.9411 53 54 74
167.2803 -103.7932 325.0686 -0.3046 -0.4085 -0.8604 50 51 76
160.4900 -106.3477 333.7623 -0.4009 -0.6233 -0.6714 62 63 87
152.0430 -107.8705 339.8337 -0.3840 -0.6033 -0.6990 53 56 82
119.1692 -120.3087 381.9744 -0.8323 0.1386 -0.5367 80 84 103
105.3476 -124.8657 394.3371 -0.7210 0.3507 -0.5977 97 99 116
95.4125 -129.3783 409.3658 -0.8701 0.1947 -0.4528 105 109 126
187.1538 -98.1714 310.1140 -0.2396 0.5376 -0.8085 35 37 55
168.1581 -101.0369 320.2958 -0.2338 0.0160 -0.9722 91 92 114
142.8966 -109.2081 345.5632 -0.4814 -0.5873 -0.6506 97 103 122
135.2441 -112.4132 356.1733 -0.5027 -0.4871 -0.7141 92 96 113
127.1745 -115.8375 367.5504 -0.6887 -0.3935 -0.6090 231 228 231
108.9053 -122.9572 391.9555 -0.7024 0.2602 -0.6625 53 57 78
190.4747 -97.4793 310.3116 -0.2991 0.5540 -0.7769 19 20 40
179.0179 -98.8669 314.4475 -0.3760 0.2751 -0.8848 34 33 56
160.9626 -103.0127 327.5147 -0.2521 -0.4777 -0.8416 71 72 95
154.8038 -106.3196 338.1548 -0.3666 -0.5786 -0.7286 69 69 96
145.7715 -107.6365 343.8883 -0.3928 -0.6038 -0.6937 74 80 96
137.9436 -110.4850 353.6230 -0.5259 -0.5595 -0.6406 77 80 102
129.7025 -113.4342 363.7870 -0.6320 -0.5400 -0.5558 108 106 122
121.2703 -117.0463 376.0030 -0.8182 -0.2404 -0.5223 88 92 109
98.4408 -126.2940 403.9724 -0.8434 0.2459 -0.4778 105 108 128
193.4898 -96.5662 309.9197 -0.3274 0.5453 -0.7716 7 11 28
181.9660 -97.8627 313.8872 -0.3127 0.5552 -0.7707 58 56 80
170.3245 -99.3493 318.1302 -0.2857 0.0772 -0.9552 33 32 55
163.1466 -101.1892 325.0638 -0.2829 -0.3327 -0.8996 66 69 93
112.4795 -121.2125 389.9590 -0.6894 0.1246 -0.7136 80 84 103
101.8951 -124.0864 400.8481 -0.8185 0.2669 -0.5088 88 89 109
91.8735 -128.8026 416.7844 -0.8430 0.2138 -0.4937 121 130 147
196.5392 -95.6923 309.6602 -0.1342 0.5250 -0.8404 45 44 63
184.6277 -96.6420 312.7310 -0.2856 0.6528 -0.7017 52 50 74
173.3738 -98.3615 317.6733 -0.3819 0.4286 -0.8188 25 24 47
154.9914 -102.6102 330.9372 -0.4161 -0.4322 -0.8001 71 72 97
147.7194 -105.2209 339.9359 -0.3590 -0.5369 -0.7634 70 73 95
140.1134 -108.0683 349.7369 -0.5715 -0.5942 -0.5659 91 94 114
131.1646 -110.0907 357.5654 -0.5633 -0.5677 -0.6003 101 100 121
123.4512 -114.0135 370.5466 -0.7539 -0.3842 -0.5330 99 101 119
