ply
format ascii 1.0
element vertex 772
property float x
property float y
property float z
property float nx
property float ny
property float nz
property uchar red
property uchar green
property uchar blue
end_header
165.4344 62.4749 299.7624 -0.6506 -0.0597 -0.7570 230 230 232
132.9842 65.4078 324.5827 0.1016 -0.3427 -0.9339 255 255 255
134.5172 69.8024 337.2608 -0.5800 -0.0506 -0.8131 135 135 137
126.2285 72.2831 348.3709 -0.6383 0.3212 -0.6996 123 124 131
114.6422 74.0908 358.7976 -0.5493 0.5697 -0.6113 115 116 122
92.1574 72.4553 350.6621 0.5333 0.3822 -0.7547 93 98 108
-36.0613 79.8307 378.4742 -0.1008 0.8203 -0.5630 204 208 209
-39.6026 77.7235 378.9378 0.0650 0.8121 -0.5799 198 196 195
-58.8741 76.1655 368.2909 0.0192 0.8177 -0.5753 212 212 212
-75.7002 76.6475 368.2202 -0.0661 0.8154 -0.5751 165 167 166
-95.9812 75.9101 365.8505 0.1253 0.7742 -0.6204 197 199 203
-1072.3982 414.7222 1993.3535 0.1444 -0.0886 -0.9855 235 236 240
182.3954 60.2436 285.6102 -0.3119 0.0066 -0.9501 220 194 201
173.1403 61.1262 290.2702 -0.5303 -0.1494 -0.8345 171 70 100
159.1933 64.4277 306.8616 -0.6457 -0.0064 -0.7636 207 207 209
150.1994 65.7730 315.0760 -0.7267 -0.0958 -0.6802 215 212 215
142.9698 67.8934 323.0966 -0.7475 -0.1379 -0.6498 132 45 63
118.3842 74.9711 359.7673 -0.5175 0.5463 -0.6586 103 105 109
109.1973 77.4772 370.4245 -0.7980 0.3436 -0.4951 106 110 115
75.8688 72.2049 345.9402 -0.7375 -0.2606 -0.6231 111 115 120
-47.1497 84.9489 394.6068 0.2666 0.7472 -0.6088 204 208 209
-52.2980 79.0946 377.7085 0.1715 0.7719 -0.6121 206 208 209
-55.6193 77.4891 371.2752 0.2007 0.8143 -0.5447 247 247 247
-72.8181 78.1111 371.5460 0.0950 0.8016 -0.5902 187 191 190
-92.0470 76.8245 368.5548 0.2002 0.7780 -0.5955 174 176 180
-1091.9233 392.7510 1863.7711 0.7217 0.3228 -0.6124 232 236 239
174.9760 61.6182 289.1371 -0.5458 -0.1236 -0.8287 184 95 109
167.1205 62.9353 297.3309 -0.7263 -0.0920 -0.6812 173 170 173
151.7222 66.0915 312.4218 -0.6039 -0.1556 -0.7817 200 199 204
135.7373 69.9999 334.6387 -0.6495 -0.1118 -0.7521 255 255 255
129.8033 73.1260 346.2000 -0.8069 0.1032 -0.5816 109 110 117
122.1085 75.7985 356.9483 -0.6289 0.4285 -0.6487 96 98 102
78.8526 72.7199 343.5855 -0.2348 -0.0517 -0.9707 116 119 125
-48.5837 80.2779 379.6414 0.0940 0.7818 -0.6164 165 165 165
-68.6651 79.0882 374.5716 0.2026 0.7884 -0.5809 187 189 191
-89.8623 78.7091 373.0472 0.2206 0.7648 -0.6053 185 186 190
-989.5419 396.7789 1981.1210 -0.6129 0.3526 -0.7071 230 234 237
-1122.7189 414.9445 1976.9722 0.0181 -0.2605 -0.9653 231 235 238
169.3162 63.4561 295.3361 -0.7526 0.0134 -0.6583 220 220 222
161.4015 64.8304 304.2018 -0.6456 -0.2760 -0.7121 233 232 235
154.5700 66.8255 311.7830 -0.5143 -0.2384 -0.8238 184 182 185
144.8159 68.2251 320.3457 -0.6829 -0.1668 -0.7112 202 110 130
137.1598 70.1923 326.2748 -0.2101 0.2497 -0.9453 192 189 195
132.2776 73.5176 342.6306 -0.8071 -0.0367 -0.5893 123 125 129
111.9408 77.9007 365.6135 -0.7685 0.3664 -0.5245 109 111 115
91.5772 71.3062 340.6262 0.7567 0.0518 -0.6517 66 73 82
88.5170 75.5196 351.1814 0.5173 0.3802 -0.7667 121 125 131
82.6552 73.6222 344.8127 0.4156 0.1854 -0.8905 41 46 55
-41.8847 84.4038 393.2694 0.0321 0.9051 -0.4240 162 167 167
-85.8579 79.6664 375.6133 0.0813 0.7695 -0.6335 171 172 178
-102.7110 80.0055 367.3810 0.2085 0.7547 -0.6221 233 238 238
-106.3499 78.4979 367.3810 0.2828 0.7407 -0.6094 238 242 243
177.1178 62.1202 287.6703 -0.5576 -0.1135 -0.8223 171 77 95
163.2435 65.2852 301.5448 -0.5891 -0.3116 -0.7456 219 218 221
156.9642 67.3554 310.3003 -0.5520 -0.4009 -0.7311 190 189 194
147.9794 68.9419 318.6892 -0.5702 -0.1652 -0.8047 227 222 223
124.0221 75.9775 353.2265 -0.7138 0.1908 -0.6739 119 123 128
115.4425 78.6256 363.5213 -0.5583 0.3805 -0.7372 85 89 92
108.8014 82.6948 383.6139 -0.9536 0.1565 -0.2573 48 53 62
92.3700 76.6602 353.4857 0.5067 0.4402 -0.7413 131 134 140
72.1735 75.4160 348.3594 -0.7637 -0.1583 -0.6259 119 127 134
-38.1954 85.9893 397.3246 0.1727 0.7043 -0.6886 174 178 181
-61.0246 81.2198 375.2796 -0.0093 0.7920 -0.6104 201 203 205
-82.0644 80.6698 375.9495 -0.1046 0.7628 -0.6382 231 235 236
-98.6427 80.8488 371.9303 0.1815 0.7203 -0.6695 236 238 239
-1087.7706 427.1759 1984.4965 -0.6103 -0.2575 -0.7491 230 234 237
179.4527 62.6678 286.8387 -0.4090 -0.0406 -0.9117 179 78 98
170.5666 63.7233 292.5748 -0.6980 0.0393 -0.7150 202 192 198
165.5750 65.8248 300.1682 -0.5241 -0.2321 -0.8194 197 196 199
150.3855 69.4774 317.5480 -0.5767 -0.2714 -0.7705 238 235 238
139.6679 70.7080 325.1951 -0.3297 0.0706 -0.9414 126 116 122
132.9394 73.3587 337.4978 -0.8293 -0.1947 -0.5237 135 136 140
126.4496 76.3429 350.1358 -0.7373 -0.0454 -0.6740 93 99 104
119.6270 79.6457 363.4719 -0.6562 0.2109 -0.7246 93 94 100
-55.3331 85.4639 389.4785 0.5152 0.6312 -0.5798 176 180 181
-57.4626 82.4090 378.1915 0.1766 0.8138 -0.5537 209 211 211
-77.8210 81.3411 376.1632 -0.0932 0.7594 -0.6440 216 218 220
-94.9997 82.0003 372.9663 0.2270 0.7143 -0.6620 251 255 255
181.7477 63.2138 285.9798 -0.3513 0.0585 -0.9344 188 118 128
173.3055 64.3544 291.4761 -0.6577 0.0649 -0.7505 206 201 205
167.7352 66.3389 298.6499 -0.5902 -0.0831 -0.8030 217 216 219
158.5422 67.6371 306.2744 -0.6866 -0.3883 -0.6147 206 208 209
142.3390 71.2833 323.8647 -0.6677 -0.3062 -0.6785 162 122 131
109.6218 81.9418 375.0320 -0.8681 0.3104 -0.3874 145 147 151
74.9227 75.6968 345.9325 -0.6686 -0.1528 -0.7277 167 168 175
-91.5599 83.2781 375.0003 0.2376 0.7160 -0.6564 255 255 255
-1011.8426 411.4441 2007.7627 -0.6129 0.3526 -0.7071 234 238 241
-1100.4520 414.2909 1876.2516 0.5455 0.3510 -0.7610 228 232 236
174.4066 64.6526 289.3065 -0.6495 0.0446 -0.7591 190 169 174
151.9373 69.7276 313.9265 -0.5905 -0.3370 -0.7333 240 237 241
134.5274 73.5188 333.9325 -0.7589 -0.0600 -0.6485 226 226 226
128.6503 76.6540 346.3149 -0.8161 -0.1438 -0.5598 116 117 124
120.3718 79.1914 356.3421 -0.7683 -0.0412 -0.6388 75 78 84
105.8255 87.0065 392.4183 -0.9311 -0.0386 -0.3628 139 143 144
-68.0194 86.0991 382.7223 -0.0673 0.8005 -0.5955 231 235 238
-88.7967 84.9250 379.8306 0.2729 0.6494 -0.7098 225 228 227
-1111.8629 430.2669 1931.1078 -0.0800 -0.1331 -0.9879 230 234 237
-1182.0760 426.1228 2006.7637 0.0000 0.0000 0.0000 233 237 240
182.9892 63.6113 283.7560 -0.1921 0.0655 -0.9792 0 0 0
168.3454 66.4675 295.7556 -0.7109 0.0335 -0.7025 189 184 188
159.2189 67.7414 302.8696 -0.7116 -0.3438 -0.6128 211 213 215
144.2034 71.6190 320.7086 -0.5950 -0.4517 -0.6648 189 105 119
137.6656 74.2427 331.6946 -0.6969 -0.0813 -0.7126 255 255 255
112.0878 82.1993 368.2809 -0.7856 0.1889 -0.5893 125 128 134
109.2839 87.6258 387.3154 -0.9557 -0.0312 -0.2926 124 128 131
81.8114 77.2756 345.7518 0.4241 0.1486 -0.8933 114 118 124
76.8837 75.6334 342.3055 -0.1774 0.0148 -0.9840 113 117 122
-63.8441 87.2545 383.5268 0.0262 0.8009 -0.5982 197 201 202
-82.4302 88.1331 388.1151 0.5168 0.6954 -0.4993 236 238 239
-85.1564 86.0694 382.1181 0.2015 0.7916 -0.5768 207 212 215
-1059.7761 423.0642 1934.6783 -0.0747 0.3744 -0.9242 232 236 239
176.8579 65.2644 288.0750 -0.5582 -0.0394 -0.8287 213 119 135
170.9466 67.0187 293.5385 -0.6976 0.0298 -0.7158 210 200 206
161.3159 68.1597 300.3334 -0.5745 -0.3076 -0.7585 204 201 205
152.2642 69.6340 309.4732 -0.5702 -0.3885 -0.7238 204 201 207
145.3343 71.7277 315.5944 -0.5060 -0.3515 -0.7877 187 105 121
141.0343 75.0041 328.5379 -0.4963 -0.0726 -0.8651 166 161 167
129.8365 76.5337 340.9629 -0.8097 -0.2418 -0.5347 132 131 136
123.3505 79.7263 353.6060 -0.8158 -0.2453 -0.5237 97 99 103
114.8915 82.6153 365.4175 -0.6595 0.0256 -0.7513 89 92 98
-79.8857 90.3592 395.9343 0.5534 0.6988 -0.4533 221 223 224
-1102.8080 452.2787 1969.5182 -0.1003 -0.3854 -0.9173 232 236 239
179.0412 65.7594 287.0902 -0.4213 -0.1179 -0.8992 183 103 123
164.0654 68.8086 299.2998 -0.4643 -0.2449 -0.8511 222 219 220
154.7964 70.1827 307.0884 -0.5551 -0.4294 -0.7124 192 192 194
132.7431 77.1369 338.4652 -0.8385 -0.3344 -0.4301 140 142 144
124.9856 79.7533 348.9610 -0.7566 -0.3393 -0.5590 95 97 101
117.9803 83.2083 362.1047 -0.7710 -0.1327 -0.6228 96 98 102
102.5405 91.4781 399.1183 -0.9040 -0.0132 -0.4273 142 143 149
75.1451 80.0514 347.7031 -0.6439 0.2396 -0.7266 113 117 122
-56.2217 89.1509 388.3767 0.5152 0.6312 -0.5798 164 172 176
-58.7979 87.2340 384.9655 0.1477 0.7865 -0.5996 127 136 140
181.0491 66.2605 285.9540 -0.3973 -0.1310 -0.9083 182 160 168
173.1804 67.5333 292.6459 -0.6939 0.0333 -0.7193 185 136 141
157.1287 70.6279 305.0965 -0.5976 -0.3016 -0.7429 212 211 214
147.3605 72.1198 314.3259 -0.4715 -0.3070 -0.8267 174 163 164
140.3824 74.3839 322.5311 -0.6009 -0.3150 -0.7347 163 158 159
109.1241 86.3321 378.3822 -0.9723 0.0015 -0.2335 79 80 84
174.2924 67.8018 290.0701 -0.6683 -0.0596 -0.7415 200 151 156
166.6566 69.3805 298.3034 -0.4910 -0.1446 -0.8591 225 222 226
149.2830 72.4644 312.3246 -0.6666 -0.2753 -0.6927 224 220 221
133.0030 76.7065 332.5710 -0.7189 -0.4347 -0.5424 68 67 70
127.2415 80.0198 344.7426 -0.8106 -0.3919 -0.4352 123 123 127
120.3269 83.3539 356.9220 -0.8297 -0.2749 -0.4858 126 130 131
105.4712 91.6618 395.2207 -0.9167 -0.0486 -0.3966 114 115 121
-1077.3345 436.0885 1917.0609 -0.2251 0.1803 -0.9575 230 234 237
-1238.4093 464.6295 1997.3463 0.0000 0.0000 0.0000 226 230 233
168.4223 69.7418 296.6708 -0.6749 -0.1390 -0.7247 198 190 195
158.9834 70.9888 303.2608 -0.6876 -0.1177 -0.7165 218 215 219
151.6389 72.9991 308.2844 -0.7309 -0.1880 -0.6560 204 204 204
142.2426 74.6110 318.5927 -0.6179 -0.4058 -0.6735 142 96 103
135.5189 77.2763 329.9486 -0.6811 -0.4803 -0.5526 255 255 255
130.1834 80.5424 341.8862 -0.7330 -0.4822 -0.4798 121 123 124
111.4298 86.2158 369.7300 -0.8693 -0.0106 -0.4942 47 51 56
176.2521 68.2837 288.0795 -0.5757 -0.0940 -0.8122 198 158 165
171.0933 70.3022 294.8168 -0.6770 -0.1368 -0.7232 189 110 132
160.5848 71.3271 300.3495 -0.5975 0.0064 -0.8019 191 189 190
144.4865 75.0220 315.6122 -0.5419 -0.3244 -0.7753 182 93 107
121.8312 83.1530 351.9397 -0.8175 -0.3392 -0.4654 147 149 151
114.2843 86.5913 365.9032 -0.8304 -0.0646 -0.5535 68 69 76
106.9023 90.8363 386.9223 -0.9589 -0.0970 -0.2667 95 99 102
-1007.5675 467.5673 2051.1230 0.0000 0.0000 0.0000 234 238 241
-1077.0068 461.2150 1945.6211 -0.4158 -0.2130 -0.8842 232 236 239
-1158.0066 448.2007 1932.5414 0.8568 -0.3890 -0.3383 230 234 237
178.3799 68.7653 286.7777 -0.5124 -0.1525 -0.8451 155 122 129
154.0911 73.3473 306.5435 -0.6366 -0.1314 -0.7599 218 217 220
136.4487 77.0290 322.4048 -0.6131 -0.3972 -0.6829 255 255 255
132.2610 80.7312 337.4386 -0.7190 -0.4706 -0.5115 162 161 166
109.4773 91.0530 379.8961 -0.9620 -0.1145 -0.2477 104 105 114
101.8886 95.8967 402.1948 -0.9264 0.0677 -0.3704 132 134 138
-1100.1361 438.8402 1856.8021 0.0268 0.4885 -0.8722 231 235 238
187.9988 71.0116 293.0757 0.0000 0.0000 0.0000 0 0 0
179.9942 69.1527 284.8095 -0.4691 -0.2315 -0.8523 203 151 162
171.8914 70.4561 292.1998 -0.6820 -0.1714 -0.7110 170 101 117
162.1546 71.6388 298.5703 -0.5221 0.0290 -0.8524 231 228 231
156.0863 73.7445 304.8669 -0.5157 -0.0192 -0.8566 218 215 219
147.4011 75.6529 314.9339 -0.4897 -0.1393 -0.8607 176 94 106
124.1085 83.3581 347.9856 -0.8043 -0.3522 -0.4787 130 132 134
116.6881 86.7161 361.3623 -0.8510 -0.1477 -0.5040 67 71 74
-1078.7640 442.5858 1834.8745 0.1374 0.4973 -0.8566 224 228 231
173.9505 70.9697 290.2392 -0.6734 -0.2336 -0.7014 221 214 214
165.0902 72.3123 297.8691 -0.4809 -0.1252 -0.8678 224 222 222
158.9255 74.4211 304.1509 -0.5860 0.1150 -0.8021 229 226 229
150.5056 76.3698 313.7014 -0.6810 -0.1222 -0.7220 197 187 193
132.6689 80.3640 330.7335 -0.6276 -0.3965 -0.6699 129 129 131
126.5538 83.6249 344.6924 -0.8029 -0.3335 -0.4942 116 118 122
111.2124 90.5987 371.9927 -0.9228 -0.1001 -0.3720 102 104 106
104.8553 96.0032 395.9136 -0.9388 -0.0313 -0.3431 102 104 108
-1028.0463 481.6103 2031.9038 0.5780 -0.6198 -0.5308 237 241 244
-1120.8563 471.6031 1932.3584 -0.3767 -0.3813 -0.8442 235 236 240
168.0065 72.9956 297.0362 -0.6618 -0.3154 -0.6800 180 176 182
135.4226 80.8719 327.9873 -0.7515 -0.0894 -0.6536 138 135 138
117.3933 86.1249 355.0907 -0.8669 -0.1775 -0.4659 121 127 130
100.1356 101.5988 412.3744 -0.8518 0.4322 -0.2961 179 181 182
98.1906 110.2291 460.6752 -0.7146 -0.3817 -0.5862 97 112 116
-1017.4113 490.9417 1992.7115 0.9722 -0.1979 0.1251 233 237 240
-1097.8209 475.2205 1935.1910 0.1071 -0.1901 -0.9759 232 236 239
175.4379 71.1700 288.5459 -0.6254 -0.2120 -0.7510 181 171 175
169.0222 73.1237 293.7637 -0.6523 -0.3751 -0.6586 224 221 224
160.7498 74.7455 301.8596 -0.6168 0.1020 -0.7805 204 201 205
151.0454 76.2099 309.8313 -0.7450 -0.1040 -0.6589 206 204 207
144.0586 78.4573 316.1643 -0.5874 -0.1914 -0.7864 182 123 134
126.5039 82.9504 336.3838 -0.7051 -0.2620 -0.6589 123 126 132
120.8756 86.9849 352.7432 -0.8686 -0.1821 -0.4609 105 109 110
113.0201 90.4188 365.4185 -0.8710 -0.0442 -0.4894 145 148 154
106.7369 95.3971 388.0094 -0.9589 -0.0627 -0.2768 125 123 131
-1090.5623 485.8739 1952.3600 0.5813 0.3973 -0.7101 233 237 240
-1160.4979 467.6161 1903.9056 -0.0543 -0.8904 -0.4519 227 231 235
177.4658 71.6152 286.0810 -0.5552 -0.1958 -0.8084 187 110 120
163.2307 75.2844 300.3644 -0.5910 0.0342 -0.8059 234 234 236
153.6814 76.7865 307.4033 -0.6409 -0.0259 -0.7672 207 206 211
135.7348 80.4695 322.9283 -0.5966 0.0601 -0.8003 255 255 255
101.2185 100.3774 404.2712 -0.8618 0.3523 -0.3650 164 165 169
99.5883 109.2619 438.1987 0.7041 -0.6950 -0.1453 211 217 219
-1136.5463 470.9325 1877.2939 -0.3420 0.2841 -0.8957 232 236 239
170.6259 73.4189 291.6480 -0.5745 -0.3837 -0.7230 217 214 217
155.6963 77.1258 305.5174 -0.4114 -0.0342 -0.9108 204 203 208
146.4061 78.8613 314.6646 -0.4650 -0.1360 -0.8748 177 90 103
128.2088 83.0433 332.0255 -0.5845 0.0652 -0.8087 176 175 180
123.1242 86.9177 347.7755 -0.8454 -0.2038 -0.4937 122 123 127
115.6280 90.3808 361.5572 -0.8709 -0.0377 -0.4900 81 83 85
107.6073 94.4282 379.2990 -0.9396 0.0322 -0.3408 128 132 136
-1173.4626 498.4303 1882.6451 -0.0942 0.5676 -0.8179 225 229 232
172.5197 73.7994 289.7669 -0.6077 -0.2937 -0.7378 212 209 213
164.9484 75.5536 298.8985 -0.4943 -0.2025 -0.8454 229 229 231
158.4454 77.6904 304.8133 -0.4981 -0.0069 -0.8671 215 212 215
149.0536 79.4644 313.0657 -0.6817 -0.2091 -0.7011 183 127 132
131.7937 83.7850 331.0525 -0.6168 0.0732 -0.7837 157 157 159
124.8322 86.8511 341.3740 -0.8111 -0.0321 -0.5841 74 76 80
118.3275 90.8696 357.0540 -0.8811 -0.0230 -0.4724 125 127 131
110.4404 94.6481 372.4771 -0.9353 0.0872 -0.3429 125 127 131
103.7197 99.7675 395.7971 -0.8903 0.2686 -0.3678 157 158 162
101.9947 108.1590 423.2924 -0.9374 0.3133 -0.1517 135 136 140
-1091.5002 478.3264 1885.3101 -0.1669 -0.1223 -0.9784 224 228 231
166.9822 76.0048 296.0907 -0.6018 -0.4096 -0.6857 222 219 222
162.0201 78.5570 304.0119 -0.5992 -0.1382 -0.7886 170 167 173
151.3176 79.8069 310.2148 -0.7225 -0.2026 -0.6610 234 228 232
134.4127 84.2366 329.1023 -0.7667 0.2026 -0.6092 155 154 157
129.0582 87.9270 338.7331 -0.7662 0.1345 -0.6284 157 156 161
-1016.7788 495.3613 1932.9155 -0.0996 -0.5193 -0.8488 233 237 240
174.2259 74.1186 287.8628 -0.6286 -0.2379 -0.7404 190 187 191
120.8740 90.9747 353.7856 -0.8341 0.0276 -0.5509 104 103 108
112.8241 94.5447 366.3468 -0.8804 0.0263 -0.4735 98 102 105
105.6800 99.3236 387.9738 -0.9180 0.2193 -0.3304 139 141 145
102.0475 116.5576 451.8525 -0.7146 -0.3817 -0.5862 228 232 236
-991.6326 497.8611 1928.4346 -0.0996 -0.5193 -0.8488 234 238 241
-1041.2296 470.1700 1877.4800 -0.0568 0.3695 -0.9275 235 239 243
176.7597 74.6561 286.4028 -0.6074 -0.2105 -0.7660 224 216 219
167.6293 76.0007 292.1794 -0.6301 -0.3788 -0.6779 220 220 222
162.4305 78.4445 300.7921 -0.6541 -0.2080 -0.7272 228 228 230
152.6935 79.9143 307.1305 -0.5841 -0.1027 -0.8052 201 197 203
136.6085 84.4877 325.2405 -0.7188 0.2902 -0.6317 199 199 199
129.7057 87.4325 335.2246 -0.7151 0.2828 -0.6393 129 128 133
116.5874 95.2524 362.9388 -0.8433 0.1277 -0.5220 159 159 164
107.9068 99.2282 381.8498 -0.8703 0.2946 -0.3947 156 157 161
102.4214 105.8480 410.8291 -0.8492 0.4211 -0.3185 150 151 155
170.0542 76.5346 291.2964 -0.5090 -0.2734 -0.8162 222 222 224
155.0885 80.3672 305.7820 -0.3607 -0.0523 -0.9312 240 237 241
145.5171 82.1886 314.2237 -0.4706 -0.0861 -0.8782 159 109 122
139.5146 85.0837 324.8957 -0.6610 0.3330 -0.6725 255 255 255
121.7111 90.2125 347.0052 -0.8666 0.1075 -0.4873 152 154 156
105.3803 105.9457 404.0647 -0.8686 0.4198 -0.2633 152 154 158
-1087.9688 481.9314 1859.2384 -0.0509 -0.2260 -0.9728 231 235 238
-1037.3296 449.0279 1809.3807 0.0000 0.0000 0.0000 231 235 238
172.1632 76.9170 289.5581 -0.5549 -0.1642 -0.8156 221 221 223
162.9110 78.3280 296.6711 -0.6087 -0.2125 -0.7644 219 216 220
157.5992 80.8594 304.5534 -0.4714 -0.0405 -0.8810 205 204 207
148.1553 82.6798 312.6021 -0.6640 -0.0366 -0.7468 187 102 119
132.3230 87.8433 333.2290 -0.6453 0.3778 -0.6640 135 136 142
123.8974 90.4013 342.7786 -0.7805 0.1945 -0.5941 137 139 141
110.3748 99.1564 376.5658 -0.8250 0.3935 -0.4056 121 125 129
101.8298 113.3539 429.4869 -0.9816 0.1011 -0.1623 193 192 197
-1137.7029 516.2458 1915.7269 0.2135 0.0503 -0.9757 225 229 232
165.2291 78.8044 294.6527 -0.5788 -0.1430 -0.8028 212 209 213
134.9463 88.2921 331.5918 -0.7487 0.3050 -0.5886 115 114 119
116.0921 93.8893 357.3822 -0.8365 0.1671 -0.5218 158 159 166
106.9910 105.1147 394.9433 -0.8828 0.4013 -0.2440 159 161 163
-1083.6088 506.3857 1911.3463 -0.3014 0.1084 -0.9473 228 232 236
173.2987 77.0516 287.6353 -0.6355 -0.1147 -0.7635 197 194 198
159.3633 81.1815 302.2514 -0.5955 -0.0588 -0.8012 227 227 229
148.2453 82.2649 308.4767 -0.6992 -0.0141 -0.7148 191 102 118
137.5946 88.7495 328.1468 -0.7523 0.2005 -0.6276 159 154 158
127.2754 91.2592 340.5927 -0.6600 0.3509 -0.6643 126 128 134
119.6565 94.4371 353.3070 -0.7914 0.2906 -0.5378 153 155 159
112.1696 98.2370 367.3244 -0.8345 0.3120 -0.4542 142 143 149
102.4569 111.3522 416.6731 -0.9261 0.2567 -0.2766 158 159 164
-1199.2275 520.3129 1857.0913 -0.3295 0.2387 -0.9135 226 230 233
175.9095 77.5656 286.0718 -0.6791 -0.1021 -0.7269 149 143 148
166.0456 78.7941 291.1285 -0.6160 -0.0314 -0.7871 209 206 209
151.4891 83.0042 306.9789 -0.5658 0.0885 -0.8198 159 95 114
129.7064 91.4020 338.1576 -0.6545 0.4342 -0.6189 129 129 131
122.2949 94.5998 350.1470 -0.7704 0.3904 -0.5040 107 108 112
108.2913 104.0856 385.3636 -0.8464 0.4227 -0.3239 110 112 116
177.5224 77.8935 284.3651 -0.6834 -0.1097 -0.7217 204 201 205
168.0793 79.1772 290.5614 -0.5099 0.0749 -0.8570 173 173 175
159.4976 80.8680 298.7290 -0.7021 -0.0601 -0.7095 198 195 201
154.4149 83.5946 306.2684 -0.4101 0.1522 -0.8992 234 234 236
132.7697 92.0493 335.8134 -0.6141 0.4657 -0.6373 136 135 140
114.4395 98.5027 363.7847 -0.7565 0.3924 -0.5231 138 140 144
105.7540 111.6952 410.4185 -0.9073 0.2845 -0.3096 151 150 159
-1065.4447 477.4643 1723.0983 0.7718 0.4487 -0.4504 234 238 241
171.4134 79.9550 289.5758 -0.5711 0.0773 -0.8172 193 193 195
162.3932 81.4843 296.4653 -0.6622 0.1040 -0.7421 182 179 182
147.8596 86.0977 313.5576 -0.7640 0.2180 -0.6072 155 134 141
124.6882 94.9126 345.7051 -0.7024 0.4527 -0.5492 158 158 160
117.5081 98.9572 361.0462 -0.7344 0.4469 -0.5108 109 110 117
111.0144 104.1253 381.3416 -0.7365 0.4696 -0.4868 161 163 167
-1081.1715 548.4141 1993.2021 0.0000 0.0000 0.0000 232 236 239
-1052.1432 484.1481 1755.7062 0.3011 0.4492 -0.8412 233 237 240
-1175.4495 503.1684 1822.9291 -0.2577 0.4155 -0.8724 221 225 229
164.7823 81.9442 295.3869 -0.5890 0.2248 -0.7762 212 209 213
156.3723 83.8528 304.5049 -0.5542 0.1202 -0.8237 196 193 198
149.6791 86.3062 310.8283 -0.6734 0.2845 -0.6824 184 93 110
133.3815 91.4926 332.5770 -0.6957 0.4215 -0.5816 162 160 161
114.3510 104.4969 377.3122 -0.7122 0.5628 -0.4195 151 152 159
107.2324 110.2394 400.7372 -0.8988 0.3497 -0.2642 152 154 158
-1094.0796 529.3376 1905.1577 -0.3807 0.2028 -0.9022 230 234 237
-1069.0428 504.4493 1867.9525 -0.0775 0.4134 -0.9073 237 241 244
-1126.7303 495.6273 1811.8975 -0.0223 0.7455 -0.6661 223 227 230
173.1766 80.2049 288.0514 -0.6636 0.0294 -0.7476 197 194 198
167.0431 82.3645 293.8597 -0.6584 0.2415 -0.7128 209 206 209
159.1982 84.4760 303.0141 -0.7077 0.1814 -0.6828 197 196 201
141.8990 88.5185 317.3215 -0.5872 0.4936 -0.6416 255 255 255
126.5125 94.8126 343.4758 -0.5984 0.5139 -0.6147 190 189 192
120.0281 99.0617 357.2871 -0.6765 0.5226 -0.5188 132 134 138
109.8265 110.2179 393.6109 -0.8758 0.3951 -0.2773 172 174 175
102.8707 117.0232 423.1338 -0.9737 0.1072 -0.2008 164 166 167
-1036.3982 557.3331 2062.3975 0.0000 0.0000 0.0000 234 238 241
-1127.0745 508.3370 1842.7920 -0.0503 0.7348 -0.6764 232 236 239
169.7341 82.9127 291.8530 -0.5642 0.2566 -0.7848 187 184 187
161.3522 84.8663 300.9600 -0.7656 0.1849 -0.6161 202 199 204
151.8700 86.6095 308.3919 -0.5180 0.3509 -0.7801 178 91 107
135.9230 91.8572 329.7318 -0.7536 0.3177 -0.5754 127 126 133
129.6080 95.4150 340.9658 -0.5855 0.5214 -0.6207 126 125 128
122.8280 99.3811 354.0692 -0.6633 0.5615 -0.4948 118 120 124
115.5476 103.6122 369.2126 -0.7381 0.5644 -0.3698 170 171 175
-1107.3496 549.8703 1958.1084 0.3995 0.8762 -0.2697 232 236 239
177.3100 80.9602 284.3195 -0.7076 -0.0277 -0.7061 199 199 201
163.0955 85.0876 298.4939 -0.6585 0.2795 -0.6988 197 194 198
154.3735 87.0481 307.3183 -0.4774 0.3590 -0.8020 187 170 167
137.4520 91.8053 324.0993 -0.6590 0.2221 -0.7186 159 156 159
132.3608 95.8693 338.6101 -0.6279 0.5398 -0.5607 150 149 154
111.7216 109.1796 385.8379 -0.7805 0.4671 -0.4155 140 142 148
105.0903 116.0117 412.1814 -0.9316 0.1421 -0.3345 166 168 172
101.6921 124.4757 436.2158 -0.9956 0.0227 -0.0906 224 228 231
-1067.4048 495.2227 1753.5625 0.5202 0.4440 -0.7296 227 231 235
171.4195 83.1318 290.9010 -0.5622 0.2037 -0.8015 216 213 216
157.4714 87.8110 306.3495 -0.6208 0.2736 -0.7346 213 206 208
147.1596 89.5052 314.8015 -0.7274 0.3590 -0.5848 138 133 137
141.6191 92.9357 323.7289 -0.5027 0.4623 -0.7305 255 255 255
125.1234 99.4390 351.0758 -0.6386 0.5877 -0.4968 130 132 136
117.5261 103.3720 365.3558 -0.6503 0.5980 -0.4685 153 155 159
107.9158 115.8173 405.8730 -0.9208 0.1877 -0.3419 106 110 113
-1022.8889 487.7014 1772.3500 0.0459 0.2000 -0.9787 232 236 239
179.0497 81.2888 283.2148 -0.6319 -0.0305 -0.7744 199 199 201
173.8535 83.6319 288.8462 -0.6305 0.1123 -0.7680 186 183 186
165.4318 85.5027 297.0768 -0.5618 0.3249 -0.7608 197 194 200
158.9716 87.9368 304.6621 -0.7022 0.2275 -0.6746 189 184 188
149.6037 89.8814 311.9147 -0.6640 0.3593 -0.6558 151 128 131
134.3752 95.8821 335.8253 -0.6870 0.5172 -0.5105 127 126 129
127.4436 99.4265 346.7174 -0.5621 0.6342 -0.5309 128 127 132
120.5674 103.7650 362.0096 -0.6222 0.6261 -0.4700 119 118 123
114.3634 109.1711 381.6615 -0.6723 0.5295 -0.5173 131 132 139
-1034.1660 505.7439 1865.0465 0.0000 0.0000 0.0000 235 239 243
-1159.0266 526.6934 1840.3843 0.0951 0.6469 -0.7566 232 236 239
167.0598 85.6895 295.2826 -0.6367 0.2700 -0.7223 211 210 213
152.6625 90.5506 310.3939 -0.4477 0.3920 -0.8037 204 121 138
143.5766 92.9647 322.3169 -0.4905 0.5375 -0.6860 255 255 255
137.6611 96.5465 333.4219 -0.6725 0.5451 -0.5006 152 149 152
130.9371 100.1127 346.4423 -0.5489 0.6422 -0.5351 180 180 182
117.7210 109.6461 379.1410 -0.6915 0.5347 -0.4858 157 158 162
110.0418 114.8947 397.4317 -0.9221 0.2332 -0.3089 145 147 151
102.5300 121.8229 424.0951 -0.9756 0.0553 -0.2123 151 157 162
-1020.6568 567.6237 1958.8320 0.0000 0.0000 0.0000 234 238 241
-1227.8813 570.1877 1884.4921 0.0000 0.0000 0.0000 0 0 0
174.9001 83.7165 286.6599 -0.7014 0.1301 -0.7007 228 228 230
169.7079 86.2410 293.3102 -0.6538 0.2344 -0.7195 189 188 191
160.8604 88.1407 302.0982 -0.7091 0.2211 -0.6695 233 230 234
146.2194 93.4247 319.7072 -0.5355 0.5733 -0.6202 181 178 183
123.2423 103.7554 358.4746 -0.5894 0.6518 -0.4772 149 148 155
106.6310 134.5733 458.3090 -0.1687 0.3877 -0.9062 225 231 233
176.4997 83.9035 284.6709 -0.5594 0.2308 -0.7961 191 191 191
162.2661 88.1400 299.1360 -0.6358 0.2804 -0.7191 204 201 205
154.5301 90.6352 309.3266 -0.4143 0.4399 -0.7968 202 115 133
148.4274 93.7811 318.2967 -0.5895 0.5580 -0.5841 166 156 159
137.5974 95.6714 327.0634 -0.6412 0.5237 -0.5608 177 177 177
133.2097 100.2549 342.8235 -0.5884 0.6118 -0.5287 142 141 148
125.8355 103.9673 355.6118 -0.6313 0.6212 -0.4643 132 134 138
119.4806 109.0118 371.3897 -0.6970 0.6091 -0.3785 151 152 159
112.4198 114.6319 390.7398 -0.8524 0.3433 -0.3943 124 128 131
104.6410 120.9108 415.2864 -0.9550 0.0216 -0.2959 164 165 169
169.9776 85.9679 290.9807 -0.5901 0.2371 -0.7718 211 210 213
156.2645 90.8199 306.6742 -0.6130 0.3784 -0.6936 188 135 141
140.3558 96.0966 325.2607 -0.4326 0.5439 -0.7190 255 255 255
136.5933 100.9269 341.7613 -0.5916 0.6157 -0.5204 140 139 146
129.1637 104.5776 353.0681 -0.5935 0.5939 -0.5432 146 143 146
122.0802 108.9385 368.0243 -0.5960 0.6080 -0.5246 132 131 136
107.6756 120.5681 408.3063 -0.9303 0.0573 -0.3622 121 122 128
-1168.5990 586.6272 1919.4238 0.0000 0.0000 0.0000 234 238 241
178.4658 84.2954 283.2760 -0.3286 0.2735 -0.9040 200 201 205
172.9823 86.6840 290.1207 -0.5819 0.2520 -0.7733 179 176 179
164.4403 88.5192 297.9784 -0.5627 0.3348 -0.7558 205 204 211
158.7016 91.2324 305.0731 -0.6974 0.3099 -0.6462 167 164 169
149.2160 93.2941 313.3009 -0.6298 0.4848 -0.6069 166 104 121
143.6236 96.7812 324.7088 -0.4645 0.5746 -0.6739 246 243 248
114.4410 113.8414 384.9303 -0.6922 0.4386 -0.5731 140 139 144
166.7995 88.9949 296.1458 -0.6471 0.3181 -0.6929 175 174 179
151.4354 93.6092 311.6537 -0.4527 0.5143 -0.7284 159 74 89
136.4060 99.8468 337.6798 -0.6503 0.5891 -0.4796 144 144 148
132.0426 104.9763 350.4247 -0.5563 0.6168 -0.5568 152 152 157
125.0722 109.4268 365.9549 -0.5704 0.6036 -0.5570 139 140 147
118.1802 114.6035 383.2451 -0.6958 0.4143 -0.5867 142 143 149
109.8934 119.9946 401.4893 -0.9365 0.0966 -0.3371 149 150 156
102.1342 126.6533 423.6969 -0.9527 0.0633 -0.2973 180 184 187
174.9512 86.9414 287.4239 -0.6945 0.2573 -0.6719 198 197 200
160.3004 91.3251 302.8744 -0.6322 0.3436 -0.6945 214 213 218
154.8912 94.4732 312.0647 -0.3743 0.5497 -0.7468 151 103 117
145.7484 96.9996 322.6600 -0.5378 0.5771 -0.6146 168 166 166
140.0571 100.7579 334.7935 -0.6737 0.6163 -0.4077 255 255 255
134.5369 105.1082 348.5807 -0.6027 0.5737 -0.5546 144 144 148
127.9448 109.8844 363.4521 -0.5945 0.6198 -0.5122 114 115 119
121.2629 114.9159 379.8572 -0.8232 0.3545 -0.4435 131 132 139
-1206.0573 593.6327 1958.6412 0.0000 0.0000 0.0000 231 235 238
176.7930 87.1734 286.0020 -0.5764 0.3400 -0.7431 172 168 174
162.6896 91.7207 301.1684 -0.5731 0.4148 -0.7067 208 208 210
148.9431 97.5594 320.9597 -0.6254 0.5828 -0.5189 104 60 80
142.0734 100.8009 330.2513 -0.4846 0.6716 -0.5605 241 238 244
112.4830 119.3938 394.0265 -0.8945 0.1877 -0.4057 154 156 160
104.2051 125.7246 417.2442 -0.9438 0.0547 -0.3259 141 140 147
-976.9923 578.1752 1888.0142 0.8386 0.5442 0.0240 238 241 247
179.4092 87.7523 285.5297 -0.4070 0.3628 -0.8383 156 154 157
170.5579 89.4974 291.6439 -0.5891 0.3410 -0.7326 213 213 215
165.5695 92.3240 299.5652 -0.5502 0.4577 -0.6984 188 185 190
157.3578 94.9128 310.3408 -0.5525 0.5564 -0.6206 221 214 219
151.6150 98.0369 319.4242 -0.6489 0.5837 -0.4881 182 104 112
136.2606 104.8515 343.7302 -0.6374 0.5553 -0.5341 123 123 127
129.9022 109.3506 357.2841 -0.6857 0.5803 -0.4394 158 158 162
122.4075 114.1868 372.4433 -0.7489 0.3562 -0.5588 110 113 119
114.8641 118.9064 389.3186 -0.7927 0.2360 -0.5621 93 94 100
106.8584 125.2296 409.6688 -0.9374 0.0044 -0.3482 136 137 143
-956.0956 582.5985 1949.6271 0.7065 0.5584 -0.4347 239 243 248
172.9403 89.9241 291.2290 -0.5309 0.3925 -0.7510 186 183 186
167.6399 92.6527 298.3929 -0.6821 0.4121 -0.6041 184 184 186
158.8173 94.7897 306.6353 -0.6544 0.5242 -0.5449 187 183 189
144.9974 101.3758 329.2792 -0.4503 0.6695 -0.5908 185 180 184
140.6247 106.1000 343.2826 -0.6468 0.5144 -0.5631 255 255 255
132.1656 109.3028 353.9749 -0.5917 0.4910 -0.6394 163 163 165
175.3510 90.3899 289.7909 -0.6550 0.3620 -0.6633 186 186 188
160.8144 95.0238 304.7486 -0.5764 0.5352 -0.6176 182 179 182
151.7492 97.3998 314.0865 -0.4411 0.6485 -0.6204 183 105 122
148.2673 101.9191 327.9387 -0.5357 0.6249 -0.5678 145 93 99
126.1180 114.3835 369.2226 -0.6420 0.3412 -0.6866 123 124 131
117.8129 119.2630 386.1804 -0.7270 0.2175 -0.6513 121 122 128
109.0459 124.4674 403.0457 -0.9420 -0.0263 -0.3346 138 139 146
100.6258 131.7179 426.0244 -0.9025 0.2234 -0.3682 194 198 201
168.9992 92.6535 295.9073 -0.6968 0.3924 -0.6004 215 212 215
155.0687 98.1971 314.5682 -0.3578 0.6411 -0.6790 191 185 189
149.9731 101.8928 324.6185 -0.6199 0.5830 -0.5252 155 77 94
140.9810 105.1351 337.7687 -0.6882 0.5076 -0.5184 255 255 255
135.3134 109.7718 352.4561 -0.6515 0.4925 -0.5770 151 147 153
128.8633 114.4768 366.5607 -0.5843 0.3736 -0.7204 107 108 112
120.2248 119.2241 382.6834 -0.8613 0.0498 -0.5057 115 114 121
111.9069 124.3187 396.7137 -0.9161 -0.0381 -0.3990 119 121 127
104.3683 131.2688 421.6223 -0.9428 0.1152 -0.3128 130 131 138
177.0253 90.4849 286.8522 -0.5685 0.3894 -0.7247 212 210 211
163.3084 95.3495 303.5854 -0.5033 0.5450 -0.6706 179 178 183
158.2194 98.8393 313.6947 -0.5152 0.6128 -0.5992 189 186 189
143.8395 105.6748 335.7722 -0.6273 0.5149 -0.5842 135 130 134
131.5194 114.7678 365.1269 -0.7080 0.2895 -0.6441 133 132 137
-1065.5365 598.8049 2072.8242 0.0000 0.0000 0.0000 231 235 238
179.3466 91.0127 286.5392 -0.3871 0.4090 -0.8263 206 204 207
170.0169 92.6125 293.6141 -0.5198 0.4160 -0.7462 195 192 195
165.9357 95.9782 302.1046 -0.5053 0.5661 -0.6513 191 191 193
160.6851 99.1050 311.4337 -0.6375 0.5992 -0.4842 194 190 196
152.0590 102.0203 321.7245 -0.6710 0.5434 -0.5045 187 162 166
146.3425 105.7408 332.9536 -0.5220 0.5398 -0.6604 153 93 109
135.4205 108.5614 347.1751 -0.6603 0.4494 -0.6017 129 128 135
122.6462 118.7556 375.6869 -0.9033 -0.0646 -0.4242 99 100 106
113.9343 123.2461 390.0595 -0.8221 -0.1316 -0.5540 121 122 126
106.0094 129.6672 412.1918 -0.9520 0.0369 -0.3038 159 161 165
-980.9572 632.5324 1996.9982 0.6328 -0.7323 0.2516 238 241 247
173.3433 93.4418 293.2113 -0.4207 0.4968 -0.7591 179 175 181
167.7785 96.1134 300.4996 -0.6351 0.5174 -0.5736 184 184 186
154.5527 102.3581 320.1858 -0.5896 0.5282 -0.6110 158 151 156
149.1294 106.2713 331.8132 -0.6252 0.4598 -0.6306 169 93 109
139.1194 109.4792 344.5919 -0.7044 0.4110 -0.5787 255 255 255
132.2355 113.6238 356.5122 -0.7698 0.3193 -0.5527 83 82 87
118.6417 124.5634 388.0279 -0.7828 -0.1556 -0.6026 123 122 129
101.8820 138.1885 434.6967 -0.8831 0.2997 -0.3610 214 219 222
-1064.8523 630.8290 1996.2085 0.0652 -0.8506 -0.5217 235 239 243
175.5705 93.6171 291.2030 -0.5712 0.4874 -0.6605 178 178 180
161.8893 99.0201 307.8962 -0.5787 0.6103 -0.5409 153 150 155
156.6130 102.6695 318.5625 -0.4190 0.5643 -0.7113 194 191 194
141.8663 109.6856 341.8508 -0.7561 0.3468 -0.5550 168 166 176
123.7590 117.3871 368.5882 -0.7470 -0.0519 -0.6628 105 102 108
108.5831 129.2247 403.8544 -0.9494 -0.0845 -0.3025 150 152 153
169.4877 96.2921 297.1298 -0.6519 0.4645 -0.5994 184 182 185
164.1978 99.3928 306.7205 -0.5392 0.5930 -0.5980 187 184 187
150.9994 106.3051 328.9007 -0.6434 0.5055 -0.5749 204 187 195
135.7471 113.9986 354.0245 -0.6037 0.1453 -0.7839 201 198 201
126.9250 117.8862 365.9912 -0.5828 -0.1297 -0.8022 116 118 122
104.9179 137.2579 424.9793 -0.9165 0.2306 -0.3269 143 144 148
-963.8042 589.2573 2006.1255 0.0000 0.0000 0.0000 238 241 247
177.0725 93.9069 289.3001 -0.5763 0.4747 -0.6652 168 165 168
171.6001 96.6151 295.8492 -0.4480 0.5188 -0.7281 195 192 195
166.8967 99.9079 305.2850 -0.5366 0.5554 -0.6353 188 185 188
159.0448 102.9740 316.9720 -0.4812 0.5339 -0.6952 155 154 161
142.8503 109.0786 337.5465 -0.6817 0.3547 -0.6399 129 112 118
138.3524 114.4405 352.2747 -0.6717 0.1151 -0.7318 255 255 255
130.1976 118.2603 365.6847 -0.7681 -0.0836 -0.6348 115 116 120
117.8051 121.7515 380.4053 -0.8750 -0.2604 -0.4081 92 93 97
110.9848 128.4132 397.3434 -0.9165 -0.1304 -0.3781 97 95 103
178.4490 94.0381 287.4178 -0.4384 0.4898 -0.7536 161 89 98
174.2143 97.0777 295.4265 -0.3340 0.5915 -0.7339 177 171 177
161.3546 103.1598 314.7525 -0.5968 0.5247 -0.6070 187 187 189
151.7120 105.6704 325.8021 -0.6787 0.4694 -0.5648 164 144 153
145.9134 109.3899 334.7499 -0.6234 0.3124 -0.7168 139 59 77
140.8875 114.5952 347.9183 -0.6951 0.1092 -0.7105 143 135 145
121.0321 122.0229 373.8123 -0.8824 -0.2917 -0.3691 109 109 113
112.7636 127.1817 389.2448 -0.8178 -0.2200 -0.5318 151 150 157
106.0386 135.1538 415.3048 -0.9733 0.0725 -0.2178 145 147 151
181.9167 94.7227 287.4131 -0.2183 0.4842 -0.8472 131 38 53
169.0972 100.1792 303.6143 -0.6555 0.5180 -0.5495 166 161 165
163.4232 103.2421 312.6481 -0.6393 0.5342 -0.5531 203 200 203
153.8775 105.8166 321.3461 -0.6570 0.4289 -0.6200 215 212 215
148.6840 109.9378 333.0363 -0.6883 0.2649 -0.6753 165 95 109
176.4991 97.4417 293.8880 -0.5466 0.5724 -0.6112 195 192 195
170.1171 100.0291 300.8599 -0.6286 0.5251 -0.5737 154 100 112
156.7312 106.2794 320.0003 -0.5665 0.3697 -0.7365 198 197 202
142.1874 113.8812 342.5092 -0.8101 0.0849 -0.5801 130 74 86
123.5216 121.5899 369.2074 -0.7954 -0.2912 -0.5316 123 125 129
115.5459 126.6485 384.9447 -0.8446 -0.1958 -0.4984 86 87 95
107.6721 133.2764 405.1512 -0.9538 -0.0135 -0.3000 156 155 160
177.9939 97.5909 292.0052 -0.6214 0.5396 -0.5680 178 173 177
165.2158 103.3671 309.8053 -0.6345 0.5067 -0.5837 204 201 205
159.5840 106.8098 319.1310 -0.5197 0.3172 -0.7933 190 189 194
150.0959 109.3420 329.2397 -0.7137 0.2498 -0.6544 181 178 181
144.9540 114.2808 338.4753 -0.7827 -0.0822 -0.6170 151 63 84
126.8007 122.2452 366.6031 -0.6265 -0.3847 -0.6779 88 87 95
104.6337 142.2931 427.5633 -0.9522 0.0254 -0.3044 183 185 189
176.8252 92.5826 285.5334 0.0457 0.3441 -0.9378 151 134 138
180.3000 98.0185 289.8782 -0.4677 0.5291 -0.7080 179 176 177
170.1661 99.4623 297.3335 -0.3928 0.5880 -0.7071 166 81 98
167.4896 103.7370 308.0674 -0.6332 0.4257 -0.6464 172 162 167
153.9523 110.5658 328.5342 -0.7655 0.1900 -0.6147 182 181 184
135.8918 117.3085 350.1556 -0.6520 -0.3833 -0.6542 255 255 255
130.5995 122.9403 365.6264 -0.6501 -0.4144 -0.6369 106 106 108
117.3744 125.9748 379.6257 -0.9018 -0.2710 -0.3368 125 123 131
109.3761 131.8275 396.6947 -0.9394 -0.0650 -0.3366 141 140 145
174.8849 100.7626 298.2465 -0.3174 0.5949 -0.7385 138 133 137
169.4814 103.8129 305.4405 -0.6879 0.3069 -0.6577 132 36 52
161.8529 107.0759 317.5190 -0.6039 0.2116 -0.7684 186 186 188
155.7025 110.5015 325.4933 -0.6819 0.1497 -0.7160 179 178 183
146.6832 114.0671 337.5473 -0.6251 -0.0064 -0.7805 187 163 173
139.2251 117.8669 347.8445 -0.6973 -0.3902 -0.6013 140 129 140
119.8649 125.6694 373.0168 -0.8524 -0.3733 -0.3662 123 123 127
112.5735 131.9149 390.0266 -0.9115 -0.1455 -0.3846 135 136 140
105.3555 139.8068 417.3323 -0.9783 0.0207 -0.2062 192 194 195
-1090.3552 665.1011 1943.8929 0.0000 0.0000 0.0000 234 238 244
182.5325 98.4864 289.2795 -0.3512 0.5496 -0.7580 188 165 166
177.2004 101.0430 297.0848 -0.4732 0.5872 -0.6567 177 175 178
164.4229 107.4558 315.2585 -0.6890 0.1762 -0.7031 196 193 196
149.2296 114.2934 334.6200 -0.6730 -0.1869 -0.7157 189 188 193
130.3131 120.8801 356.4264 -0.7996 -0.2771 -0.5327 105 104 107
116.3225 132.5134 386.1721 -0.8676 -0.2044 -0.4533 128 127 132
171.9583 104.1970 303.9598 -0.6343 0.2973 -0.7136 146 56 75
166.2265 107.4067 312.3301 -0.7204 0.1468 -0.6779 185 178 178
157.0746 110.0700 321.7787 -0.5895 0.0383 -0.8068 204 203 208
151.1040 114.2869 331.9151 -0.6121 -0.3085 -0.7281 212 209 213
139.5511 116.5251 341.4140 -0.7394 -0.3865 -0.5513 139 111 118
122.4730 125.6644 369.3066 -0.7268 -0.4792 -0.4921 92 91 96
107.3873 138.3208 406.2056 -0.9716 -0.0528 -0.2306 195 197 201
179.0856 101.3335 294.3322 -0.6385 0.5513 -0.5370 203 200 203
173.4435 104.1192 301.0213 -0.3643 0.3918 -0.8449 170 80 99
159.2789 110.3711 319.4333 -0.5626 -0.1947 -0.8035 187 187 189
142.6476 117.0327 338.6997 -0.6984 -0.4625 -0.5463 154 64 83
131.7543 119.7785 351.2184 -0.4733 0.0781 -0.8774 137 136 143
124.6777 125.2372 365.1357 -0.6056 -0.6314 -0.4843 119 118 125
109.8048 137.9897 399.6796 -0.9545 -0.1492 -0.2583 163 162 167
102.8644 146.6058 427.1564 -0.9596 -0.0084 -0.2813 195 199 202
180.8019 101.5707 292.8736 -0.5362 0.5500 -0.6402 193 193 195
176.2803 104.6979 301.0027 -0.2633 0.3671 -0.8921 163 116 125
167.2468 107.0741 308.9286 -0.7062 0.0755 -0.7040 176 136 143
161.5421 110.6775 317.8285 -0.6154 -0.3737 -0.6940 183 180 186
153.0434 114.0126 328.8592 -0.6811 -0.3405 -0.6482 192 189 195
134.8378 120.7286 348.3764 -0.5235 -0.4972 -0.6919 255 255 255
116.0727 129.6891 380.8841 -0.9106 -0.2375 -0.3382 138 140 142
180.1151 105.7236 300.4703 -0.3619 0.2429 -0.9000 185 180 184
168.5605 106.8409 305.8399 -0.7751 0.0338 -0.6309 174 103 116
144.7009 116.7965 335.1837 -0.5730 -0.5977 -0.5607 172 128 136
139.4086 122.0594 344.8092 -0.5332 -0.5627 -0.6317 118 113 117
127.0661 124.9191 359.7713 -0.5764 -0.6014 -0.5532 109 105 111
118.4375 129.2180 371.0153 -0.8547 -0.4088 -0.3198 113 113 115
111.3427 135.5876 390.0483 -0.8819 -0.2509 -0.3992 137 137 139
105.1274 144.9551 420.6924 -0.9729 -0.0851 -0.2151 157 158 162
182.9339 101.9496 290.7490 -0.4215 0.5299 -0.7359 212 209 213
163.6480 110.7579 315.1063 -0.6347 -0.4513 -0.6272 142 101 119
152.5480 112.7092 323.1714 -0.7059 -0.3693 -0.6044 198 197 202
146.5652 116.8439 333.1127 -0.5235 -0.7118 -0.4683 199 199 201
129.7122 124.9791 357.0146 -0.5401 -0.5262 -0.6568 47 43 53
180.5145 105.3690 297.9821 -0.4053 0.4030 -0.8206 180 176 182
170.5085 107.0279 303.5123 -0.7446 -0.0186 -0.6673 180 150 153
155.6246 113.2891 321.4103 -0.6974 -0.3877 -0.6028 185 184 189
139.3236 120.3659 341.2093 -0.5939 -0.5461 -0.5908 100 88 92
134.2714 126.2718 357.0950 -0.5202 -0.1894 -0.8328 102 102 106
120.7668 128.8064 366.7413 -0.7738 -0.5061 -0.3810 127 126 129
113.6806 135.0396 383.8331 -0.8806 -0.2881 -0.3762 142 142 144
106.3005 142.3933 407.7565 -0.9673 -0.1127 -0.2273 159 159 164
-931.4918 671.7968 1858.4873 0.0000 0.0000 0.0000 242 246 252
172.7375 107.3646 301.8914 -0.5582 -0.1235 -0.8205 182 141 153
164.3636 110.0666 310.7792 -0.5989 -0.4026 -0.6922 153 63 84
157.5374 113.2750 318.1471 -0.6081 -0.4239 -0.6712 203 200 205
148.3492 116.3883 328.8054 -0.4359 -0.7651 -0.4739 192 190 193
181.2675 105.0008 294.5136 -0.3898 0.5303 -0.7529 198 198 198
174.7237 107.5943 300.4655 -0.3657 -0.1360 -0.9207 173 88 105
167.3119 110.6758 309.7343 -0.6674 -0.3417 -0.6617 181 171 167
150.7357 116.6235 326.0382 -0.4923 -0.6507 -0.5781 148 145 151
140.4991 119.7622 337.7186 -0.6833 -0.5591 -0.4695 153 108 116
122.9180 128.3003 362.0140 -0.7442 -0.5765 -0.3373 102 102 104
115.8108 134.2976 380.2721 -0.8914 -0.3526 -0.2847 144 144 146
108.4759 141.1625 397.9504 -0.9598 -0.2052 -0.1916 146 148 152
105.7197 151.1285 420.9315 -0.9479 -0.1946 -0.2521 163 162 167
-1019.4454 711.1510 1985.3970 0.0000 0.0000 0.0000 235 239 245
183.5777 105.4532 293.3370 -0.2826 0.5769 -0.7664 194 191 194
168.7646 110.5179 306.6849 -0.7446 -0.2319 -0.6260 195 188 188
158.5175 112.8442 315.3257 -0.6633 -0.4914 -0.5644 180 176 182
141.9106 119.1938 332.0970 -0.6420 -0.6316 -0.4347 172 77 100
131.1201 122.3000 344.3739 -0.4970 -0.5168 -0.6971 180 180 182
125.0879 127.8613 356.7508 -0.6241 -0.5949 -0.5065 109 105 111
117.7233 133.2962 369.6924 -0.8524 -0.4696 -0.2302 112 111 116
177.2110 107.8408 298.7128 -0.3405 -0.1335 -0.9307 172 110 117
160.4753 112.8221 311.5351 -0.6458 -0.5378 -0.5419 186 100 113
152.4075 116.3665 323.1033 -0.5083 -0.6178 -0.6000 194 194 198
134.5656 122.9379 341.1827 -0.5066 -0.5498 -0.6641 255 255 255
128.7865 128.6098 355.1403 -0.4578 -0.2721 -0.8464 90 87 92
109.9526 139.1600 387.9127 -0.9122 -0.2735 -0.3052 145 145 150
-397.6542 287.2756 796.3257 0.0000 0.0000 0.0000 241 245 250
180.3640 108.6079 297.9258 -0.2697 0.0555 -0.9613 209 205 204
170.1578 110.3696 304.2879 -0.7074 -0.2189 -0.6720 201 198 201
154.1760 116.1812 319.7560 -0.5783 -0.6100 -0.5418 197 196 201
143.3055 118.6452 328.0072 -0.5543 -0.7509 -0.3590 184 134 146
137.6416 123.5614 340.3197 -0.5963 -0.5284 -0.6043 109 108 115
119.4141 132.4524 365.0268 -0.8124 -0.4109 -0.4137 88 88 92
112.7023 139.0461 383.7725 -0.8885 -0.3395 -0.3089 119 118 123
105.5262 146.5502 407.9296 -0.9725 -0.0860 -0.2166 173 173 177
182.9232 109.0690 297.5721 -0.0981 0.2807 -0.9548 166 162 161
171.7000 110.2506 301.2542 -0.5778 -0.2681 -0.7708 163 161 162
162.2249 112.7690 309.5463 -0.5649 -0.5097 -0.6489 150 71 77
156.9404 116.6988 318.2628 -0.5354 -0.5982 -0.5963 206 208 209
146.0385 119.1051 325.7385 -0.4485 -0.8073 -0.3836 194 191 194
129.4997 127.0412 350.4441 -0.0023 -0.3631 -0.9317 115 111 117
165.7411 113.5485 308.7496 -0.6036 -0.4868 -0.6314 208 202 202
139.0395 122.6359 335.4935 -0.6159 -0.6506 -0.4442 87 75 79
132.4429 127.4028 345.6670 -0.4715 -0.5076 -0.7212 161 158 161
120.7793 131.0927 359.1531 -0.7493 -0.3177 -0.5810 93 95 96
113.9103 137.3856 376.5305 -0.8991 -0.3550 -0.2562 134 134 134
107.7346 145.2396 397.2193 -0.9738 -0.1257 -0.1896 144 146 150
186.1336 109.8735 298.1981 0.1531 0.4081 -0.9000 181 178 181
173.9357 110.5399 299.3641 -0.5045 -0.2542 -0.8251 205 191 192
158.1336 116.3372 314.6905 -0.6159 -0.5333 -0.5799 198 196 199
152.4770 120.2650 322.0530 -0.4079 -0.7922 -0.4540 174 171 174
148.0275 118.9159 323.1754 -0.3887 -0.8079 -0.4429 219 216 220
141.6699 123.0234 330.9924 -0.4960 -0.6974 -0.5174 167 77 94
123.6789 131.2866 356.3738 -0.6108 -0.3943 -0.6867 94 96 97
175.9588 110.8567 297.9828 -0.3145 -0.2621 -0.9124 171 94 109
166.2635 112.8214 305.9193 -0.6684 -0.4244 -0.6109 181 176 178
159.9711 116.2143 311.4724 -0.6266 -0.4754 -0.6176 176 155 160
133.8468 126.6167 340.2961 -0.4087 -0.5763 -0.7077 255 255 255
116.4203 136.6932 368.6537 -0.8243 -0.5115 -0.2427 86 86 88
109.1819 143.4756 388.1550 -0.9159 -0.2554 -0.3097 151 153 157
-753.2480 594.1902 2061.2524 0.0000 0.0000 0.0000 255 255 255
177.7989 111.0831 297.4329 -0.2055 -0.1529 -0.9666 180 88 105
168.6487 113.1665 303.0637 -0.6563 -0.3536 -0.6665 205 204 207
152.3438 118.9789 318.0235 -0.3810 -0.7909 -0.4789 202 199 204
142.3920 121.9510 326.7425 -0.5620 -0.7198 -0.4075 157 77 90
123.7628 129.0884 344.9550 0.0294 -0.3508 -0.9360 126 125 128
118.1298 135.3612 363.5465 -0.7489 -0.4591 -0.4779 87 88 92
111.5028 142.7690 382.6149 -0.8700 -0.3623 -0.3343 138 142 145
104.8963 151.7437 408.9138 -0.9489 -0.0789 -0.3055 182 184 186
171.7845 113.8702 301.9893 -0.6162 -0.2942 -0.7305 223 223 226
161.3152 115.7139 308.6415 -0.5097 -0.4695 -0.7210 191 103 121
134.9196 125.4712 336.1059 -0.4254 -0.3913 -0.8160 255 255 255
107.6893 150.9769 400.1396 -0.9784 -0.0664 -0.1958 182 181 186
180.1777 111.4680 296.9507 -0.0283 -0.0174 -0.9994 191 151 158
164.2030 116.3837 307.6404 -0.5011 -0.5527 -0.6659 163 102 109
153.7999 118.5788 314.5671 -0.3745 -0.7539 -0.5398 229 226 229
143.4872 121.2431 321.4408 -0.4926 -0.6948 -0.5240 221 214 217
126.0195 128.8656 342.3565 -0.1162 -0.2443 -0.9627 94 91 94
120.4909 135.2901 359.9561 -0.6281 -0.3637 -0.6879 108 109 113
113.1859 141.5439 375.2117 -0.8331 -0.2365 -0.4999 141 140 143
172.5698 113.3878 298.9507 -0.5804 -0.2187 -0.7844 178 172 179
166.0104 116.3834 304.4254 -0.5397 -0.5604 -0.6282 215 208 211
157.3784 119.4866 313.3972 -0.4068 -0.6576 -0.6341 195 192 195
145.7006 121.2462 320.3808 -0.3899 -0.7624 -0.5164 212 204 209
135.3551 124.3724 327.8370 0.4204 0.2982 -0.8569 140 137 143
128.5398 128.4267 340.4472 -0.3069 -0.6282 -0.7150 123 120 123
124.5654 136.2563 357.9564 -0.2957 -0.2652 -0.9177 93 94 98
175.3372 114.0010 298.5119 -0.3178 -0.1124 -0.9415 186 178 186
159.8355 119.7595 310.7881 -0.5500 -0.5205 -0.6531 223 220 223
138.5339 124.8973 326.9229 0.0944 -0.4220 -0.9017 104 76 83
113.9408 139.0020 365.7686 -0.7707 -0.6035 -0.2044 166 166 170
107.7172 147.4235 388.1306 -0.9424 -0.1091 -0.3162 168 170 172
105.8010 158.0820 409.4108 -0.9474 -0.0089 -0.3199 179 178 183
177.9711 114.5239 297.7526 -0.1163 -0.0231 -0.9929 201 179 184
167.9722 116.4037 302.4272 -0.4969 -0.4940 -0.7135 230 227 230
147.0316 120.7148 315.7255 -0.3686 -0.7162 -0.5926 201 201 205
140.9593 124.9425 323.5799 -0.5771 -0.5873 -0.5675 167 87 103
131.0114 128.7577 336.1053 0.1827 0.0014 -0.9832 241 239 240
124.4776 133.8973 346.8150 -0.7582 -0.4904 -0.4298 95 95 95
169.8531 116.4461 300.8305 -0.5666 -0.3516 -0.7452 224 221 224
160.3955 118.9228 307.5706 -0.5340 -0.4139 -0.7373 198 189 190
149.5191 120.9591 313.8550 -0.3326 -0.7529 -0.5680 184 182 185
115.4154 137.9836 359.7287 -0.6423 -0.4594 -0.6135 128 128 130
108.9398 145.1540 380.6789 -0.8153 0.0359 -0.5780 157 156 161
106.4605 155.4902 403.2736 0.0000 0.0000 0.0000 190 189 192
162.1577 118.8224 305.5634 -0.5150 -0.5310 -0.6729 190 120 130
151.9984 121.3065 311.9651 -0.3010 -0.8671 -0.3970 216 213 216
142.9488 124.6630 320.9610 -0.6177 -0.5937 -0.5157 190 99 114
130.0180 126.0479 325.5799 0.0964 -0.0272 -0.9950 255 255 255
125.0108 132.2186 341.4355 -0.2840 0.2337 -0.9299 110 107 110
117.8266 137.2214 356.5624 -0.4804 -0.0561 -0.8753 143 143 145
105.7758 153.4508 397.0243 -0.9767 -0.1357 -0.1661 157 157 159
171.6753 116.5048 299.0945 -0.6042 -0.3284 -0.7260 220 208 210
154.0143 121.2811 309.6157 -0.2993 -0.7821 -0.5465 183 182 185
145.0634 124.6851 319.2534 -0.5988 -0.5654 -0.5672 189 179 183
132.4560 126.1716 322.6440 0.0564 -0.1527 -0.9867 196 194 194
109.6041 142.5573 370.7816 -0.4853 0.5351 -0.6915 151 151 155
162.1333 117.7935 302.3445 -0.4804 -0.5557 -0.6785 174 80 98
146.8524 124.4778 315.8746 -0.6697 -0.5037 -0.5457 180 176 182
125.2481 130.1736 334.2865 -0.4735 0.1755 -0.8631 120 118 121
119.3212 136.1812 347.9381 -0.5350 0.5228 -0.6636 112 114 116
112.4083 142.5478 363.7281 -0.7753 -0.5905 -0.2240 125 127 129
107.2760 151.7900 388.8016 -0.8529 0.3420 -0.3944 161 163 165
139.9305 -141.1893 336.5441 -0.7753 -0.2910 -0.5605 161 163 167
573.5618 -829.0852 2086.1719 0.0000 0.0000 0.0000 124 128 129
157.5102 -119.1712 286.4817 -0.1056 -0.0527 -0.9930 177 82 96
148.1801 -127.9726 306.6011 0.2262 -0.8196 -0.5265 161 160 163
143.3119 -133.2435 319.5851 -0.7721 -0.0433 -0.6340 173 173 173
138.0530 -147.1029 351.3392 -0.8248 -0.3501 -0.4441 166 166 168
150.6167 -97.1714 233.1240 0.0000 0.0000 0.0000 0 0 0
161.3023 -119.2260 286.7267 -0.3125 -0.2272 -0.9223 191 100 115
150.7695 -121.2202 291.3781 0.4562 -0.5568 -0.6942 245 242 243
140.7106 -137.1036 330.6107 0.4005 -0.7368 -0.5447 175 172 175
135.1170 -152.0272 365.8861 -0.7241 -0.1303 -0.6773 193 192 197
168.2316 -114.2395 276.8823 -0.6029 -0.1650 -0.7805 219 216 220
144.9698 -130.5953 315.2435 -0.5260 -0.3279 -0.7848 130 130 132
139.3194 -143.0416 344.0710 -0.0224 -0.5418 -0.8402 126 128 134
139.3566 -151.4124 362.8453 -0.8203 -0.1555 -0.5504 166 166 168
454.6349 -802.7724 1979.7526 0.3966 0.5452 -0.7385 206 204 184
170.8092 -113.1429 276.2287 -0.2493 -0.0658 -0.9662 226 225 230
161.8577 -116.3169 283.1356 -0.4380 -0.2391 -0.8666 200 175 177
152.3274 -124.1481 301.7924 0.1331 -0.4556 -0.8801 255 255 255
145.0623 -120.9594 300.5369 0.4031 -0.0800 -0.9117 196 199 198
146.3905 -127.7676 312.0465 -0.6242 -0.0235 -0.7809 124 126 128
142.1869 -134.0718 324.3436 -0.2976 -0.4078 -0.8632 112 109 115
555.0052 -705.9330 1953.5277 0.0000 0.0000 0.0000 255 255 255
-1074.9731 -816.8243 2016.1041 0.9322 0.3415 -0.1201 224 227 226
164.7303 -115.4574 282.3302 -0.3941 -0.1763 -0.9020 225 222 226
153.5856 -116.5785 286.3942 -0.3545 0.0148 -0.9349 116 53 74
144.4618 -131.9787 321.7265 -0.1884 -0.2832 -0.9404 134 131 135
139.1722 -137.4936 337.4964 0.5748 -0.6021 -0.5541 129 130 134
139.3516 -145.9668 355.3409 0.0271 -0.5855 -0.8102 147 149 153
-1146.5962 -812.9325 1982.3070 0.6698 -0.3791 -0.6385 223 225 225
-1073.0253 -746.9553 1864.8988 0.0000 0.0000 0.0000 221 223 222
167.1331 -114.2822 281.6854 -0.6141 -0.0408 -0.7882 213 213 215
157.1377 -116.4229 286.7143 -0.1853 0.1628 -0.9691 161 70 83
149.3217 -126.6871 311.5803 -0.7576 0.0809 -0.6477 140 144 145
160.9708 -116.4561 287.0658 -0.4410 0.0247 -0.8972 198 153 166
150.2388 -118.1777 292.5656 -0.0544 0.6823 -0.7291 170 168 171
146.2808 -129.5387 318.6963 -0.7546 0.1840 -0.6298 184 182 185
140.6046 -134.4979 333.0758 -0.7278 0.5657 0.3878 128 129 133
168.0228 -111.6121 277.5658 -0.5816 0.0335 -0.8128 205 202 206
