ply
format ascii 1.0
element vertex 776
property float x
property float y
property float z
property float nx
property float ny
property float nz
property uchar red
property uchar green
property uchar blue
end_header
150.8177 71.6832 330.7432 -0.6641 -0.1234 -0.7374 147 121 125
133.7243 76.1873 353.1344 -0.3058 0.4551 -0.8363 130 132 136
112.9084 80.9725 376.0631 -0.2432 0.6400 -0.7289 112 116 119
80.0242 82.3880 381.0518 -0.8886 0.1413 -0.4363 111 115 120
76.5526 88.8261 400.1667 0.0000 0.0000 0.0000 182 186 189
20.5681 80.0558 368.8398 0.0761 0.8201 -0.5672 223 203 196
-0.2697 78.7688 362.2113 -0.0960 0.7165 -0.6910 242 220 214
-16.7631 80.1199 368.3315 -0.1632 0.6630 -0.7306 240 221 214
-39.3401 76.4243 353.2062 0.1437 0.8260 -0.5450 197 183 176
-55.7806 77.2006 357.0940 0.0477 0.8113 -0.5827 226 203 192
-72.4373 77.8739 358.2975 -0.0156 0.7670 -0.6414 222 206 195
-93.0684 77.5728 362.2649 0.0906 0.7667 -0.6356 172 168 174
-595.4813 324.3870 1499.7426 0.0000 0.0000 0.0000 234 238 241
175.0898 66.3582 303.7420 -0.5784 0.1038 -0.8091 180 175 181
160.0918 69.9268 320.0962 -0.5931 -0.1332 -0.7940 229 229 231
136.9090 76.8769 352.3271 -0.3835 0.2703 -0.8831 123 126 132
123.9214 78.2914 359.6913 -0.6197 0.5344 -0.5748 124 128 131
115.2969 81.1234 372.6259 -0.6854 0.4770 -0.5502 91 94 102
3.7756 79.7276 363.5996 0.0427 0.7411 -0.6701 235 213 207
-12.6492 80.8527 366.5405 -0.2752 0.6574 -0.7015 244 229 223
-32.8946 79.4875 362.5892 0.2201 0.8521 -0.4748 205 186 177
-36.0494 77.8154 358.5386 0.2147 0.8505 -0.4801 201 182 172
-52.2839 78.2822 359.0824 0.0075 0.8192 -0.5735 236 213 205
-68.6174 78.6649 358.9104 -0.0022 0.7877 -0.6160 231 212 204
-89.5891 78.7062 362.4398 -0.1279 0.7178 -0.6845 205 196 197
183.2982 64.9642 295.1967 -0.4298 -0.1373 -0.8924 188 101 117
177.8369 66.9868 302.5915 -0.6700 -0.0446 -0.7410 213 211 212
168.3267 68.2027 309.4590 -0.7362 -0.0914 -0.6706 226 225 228
162.3345 70.4778 316.5544 -0.6050 -0.1428 -0.7833 179 180 184
153.1025 72.1378 328.0095 -0.7286 -0.1417 -0.6701 190 182 187
140.2366 77.7357 350.5091 -0.4996 0.0060 -0.8662 119 118 125
126.7760 78.8972 357.6351 -0.5278 0.5249 -0.6678 30 31 37
85.5973 76.7368 350.5529 -0.6091 -0.1205 -0.7839 67 73 78
11.5097 82.9854 370.1360 0.2102 0.6709 -0.7111 252 227 224
7.5723 80.8920 366.8423 0.1648 0.7442 -0.6473 229 207 201
-48.6991 79.3749 360.3231 -0.0824 0.8284 -0.5541 235 213 205
-85.3907 79.3649 361.3874 -0.1995 0.7072 -0.6783 201 186 180
-104.2260 78.3154 359.1519 -0.1306 0.6255 -0.7692 189 192 191
-1026.7966 407.7415 1910.1254 0.4019 -0.0115 -0.9156 224 226 230
184.5612 65.2890 292.9771 -0.1042 -0.0172 -0.9944 170 60 81
170.2257 68.5974 307.1117 -0.5759 -0.0052 -0.8175 196 195 198
156.1168 72.7982 326.1774 -0.6287 -0.1479 -0.7634 175 172 177
144.7359 74.1499 334.2517 -0.5514 0.0435 -0.8331 146 141 145
145.1994 79.0125 347.7351 -0.5393 -0.2490 -0.8044 255 255 255
117.1318 81.0941 366.8303 -0.6596 0.4522 -0.6004 79 80 86
88.2756 77.1083 347.8161 -0.0474 0.0820 -0.9955 131 132 139
80.4173 80.8484 364.0862 -0.7896 -0.4980 -0.3585 15 21 28
70.6199 84.4089 390.8580 -0.6881 -0.5385 -0.4863 226 230 233
-44.8860 80.3519 360.0946 -0.0828 0.8516 -0.5175 235 211 204
-61.2178 80.7639 362.0104 0.0390 0.8262 -0.5621 227 208 199
-65.0708 79.7812 360.6859 0.0194 0.8100 -0.5862 224 203 196
-81.3295 80.1045 361.2650 -0.1094 0.7454 -0.6576 225 213 203
-98.0611 80.7924 363.8436 0.2802 0.6810 -0.6765 150 154 160
-101.9859 79.7156 359.7035 0.0539 0.6832 -0.7282 160 167 171
178.7652 67.2138 299.4342 -0.7329 -0.1523 -0.6630 182 99 116
172.8240 69.1957 306.9225 -0.5559 -0.0659 -0.8286 206 206 208
163.1755 70.5751 313.9842 -0.6409 -0.1246 -0.7574 226 225 228
146.8189 74.4333 331.9895 -0.5011 -0.0351 -0.8647 159 122 128
130.1605 79.5054 355.5875 -0.4042 0.4496 -0.7965 149 151 152
122.1799 82.5827 366.8357 -0.5945 0.4759 -0.6482 127 131 134
113.0812 85.4249 379.1719 -0.5133 0.5684 -0.6430 1 5 13
99.0487 80.5377 357.9374 0.6108 0.4645 -0.6412 56 61 71
93.9433 78.8077 353.0825 0.4742 0.3064 -0.8254 40 41 50
80.3431 87.5962 385.2892 -0.8250 0.2539 -0.5049 159 162 168
-41.3246 81.7331 364.1544 0.0657 0.8717 -0.4856 217 198 188
-57.9239 82.2169 365.1842 0.0603 0.8346 -0.5475 218 199 190
-77.6363 81.1520 361.8023 -0.0321 0.7769 -0.6288 228 211 205
-95.8138 82.6099 367.8127 0.1994 0.6231 -0.7563 137 143 150
-1055.9839 401.9467 1850.6230 0.5079 0.0175 -0.8612 224 228 231
179.9646 67.4815 296.6709 -0.6019 -0.1054 -0.7916 170 65 96
165.4610 71.0415 311.8311 -0.7441 -0.0199 -0.6678 199 200 204
156.6606 72.7196 321.5999 -0.5712 -0.1498 -0.8071 220 220 222
151.0941 75.5173 331.5470 -0.6406 -0.2410 -0.7291 154 68 83
133.0401 79.9043 354.0729 -0.4278 0.2328 -0.8734 105 107 113
81.6794 79.9489 353.8772 -0.5113 -0.3485 -0.7855 93 98 108
-34.4509 84.7807 371.1651 0.1867 0.8286 -0.5278 239 220 213
-37.8230 83.0319 367.2335 0.1502 0.8522 -0.5012 225 204 195
-54.4499 83.4825 367.2414 0.0393 0.8366 -0.5465 225 204 195
-73.8676 82.0495 362.9725 0.0080 0.7919 -0.6105 224 210 201
-92.2939 83.6538 368.0484 -0.0550 0.6111 -0.7896 146 147 156
-1050.1715 411.1226 1908.3887 0.4473 -0.0597 -0.8924 224 228 231
174.5292 69.5727 304.7414 -0.6261 -0.1997 -0.7538 239 238 241
159.2357 73.2838 319.1254 -0.6624 -0.1203 -0.7394 213 213 215
141.0892 77.1867 339.1500 -0.2581 0.2449 -0.9346 255 255 255
137.5880 81.2172 354.0426 -0.5666 -0.0520 -0.8224 128 127 132
124.2164 82.5254 363.4198 -0.6596 0.4225 -0.6216 62 63 72
115.5094 85.5464 375.6525 -0.7075 0.4940 -0.5054 39 42 48
7.4794 102.4513 450.2228 -0.3153 0.3964 -0.8622 223 173 169
-30.4995 85.9784 374.6885 0.1992 0.7861 -0.5851 238 217 208
-50.8618 84.7394 369.5073 0.0693 0.8259 -0.5595 216 197 185
-70.5808 83.3744 365.1867 0.0216 0.8251 -0.5646 213 201 194
-87.7940 84.1560 366.3293 -0.0699 0.6909 -0.7196 149 150 156
-1094.9689 439.7447 1956.4961 0.7045 0.1791 -0.6867 221 225 229
182.5871 68.0640 295.7238 -0.4517 0.0709 -0.8893 181 90 103
176.6947 70.1156 302.7479 -0.6870 -0.2280 -0.6900 222 219 220
167.5506 71.4559 309.7333 -0.7425 0.0174 -0.6696 208 208 208
152.2762 75.6117 327.9189 -0.6889 -0.3208 -0.6499 196 114 124
146.4735 78.5962 336.4138 -0.5125 -0.0670 -0.8561 138 135 136
126.7915 82.9907 360.9900 -0.6631 0.3607 -0.6559 138 141 147
84.6444 80.4964 351.6003 -0.2994 -0.0491 -0.9529 145 149 152
12.0113 101.5701 439.4899 -0.4130 0.7178 -0.5605 236 209 204
-47.1312 85.9412 372.9745 0.1394 0.8227 -0.5511 225 204 197
-67.1608 84.6572 367.6518 0.0204 0.8308 -0.5562 202 189 182
-83.8885 85.1042 367.7255 0.0101 0.7839 -0.6208 175 168 168
-103.7615 84.1833 363.8830 0.2418 0.6183 -0.7478 216 218 218
-1088.3782 449.6785 1976.4293 0.7045 0.1791 -0.6867 225 227 231
185.4255 68.6804 294.9391 -0.4754 0.1009 -0.8740 190 88 102
169.6815 71.8848 307.5887 -0.6455 -0.0712 -0.7604 234 234 236
159.8915 73.3269 315.6262 -0.7054 -0.0463 -0.7073 191 190 195
136.5672 80.3123 346.7796 -0.6521 -0.2993 -0.6965 146 148 152
129.9399 83.4920 357.8857 -0.6353 0.2422 -0.7333 103 104 111
118.1671 85.9526 372.3073 -0.6965 0.4232 -0.5795 117 119 121
109.2073 89.1980 384.2916 -0.3159 0.6620 -0.6797 175 177 181
93.5069 82.5826 352.5867 0.5011 0.3452 -0.7936 38 44 53
87.9971 81.3013 350.6710 0.2291 0.2368 -0.9441 113 117 122
-43.4661 87.1464 376.3792 0.0451 0.8353 -0.5479 232 213 206
-63.5505 85.8050 369.5448 0.0633 0.8318 -0.5515 194 183 180
-79.9447 86.1596 369.0299 0.0087 0.8208 -0.5711 198 193 192
-99.9882 85.2111 366.0005 0.3742 0.6052 -0.7026 152 155 163
177.2040 70.1606 298.5940 -0.6932 -0.1944 -0.6940 202 199 202
172.4566 72.5405 306.7530 -0.6181 -0.1716 -0.7672 241 241 243
163.2539 74.1570 315.5554 -0.6534 0.0067 -0.7570 182 181 184
152.8331 75.4338 322.4096 -0.5687 -0.2290 -0.7900 218 215 219
146.9686 78.2951 333.6316 -0.3870 -0.2348 -0.8917 156 151 152
121.2043 86.5238 368.7876 -0.6544 0.4033 -0.6396 134 133 138
113.8646 90.2549 384.0897 -0.5845 0.5281 -0.6160 69 74 83
99.0789 84.9055 363.9719 0.7002 0.4353 -0.5660 90 93 101
77.4101 82.9808 355.1491 -0.4528 -0.2476 -0.8565 83 88 95
1.7189 106.6853 451.8470 -0.0504 0.0766 -0.9958 236 196 191
-39.5855 88.1288 374.1097 0.0390 0.8368 -0.5461 229 212 204
-60.0514 87.1582 371.5137 0.0407 0.8156 -0.5772 184 173 170
-77.2927 87.9121 372.0578 0.0289 0.8253 -0.5640 188 184 183
-96.5991 86.4523 369.2881 0.2187 0.6172 -0.7558 124 131 133
179.9294 70.7710 297.4424 -0.5715 -0.1062 -0.8137 222 215 218
165.5788 74.5008 313.1651 -0.6921 0.0064 -0.7218 193 195 196
155.8746 76.0798 321.7506 -0.5178 -0.1291 -0.8457 236 236 238
138.0484 80.3750 341.4795 -0.5533 -0.1818 -0.8129 125 127 131
132.7802 83.9473 355.4252 -0.5844 0.1057 -0.8045 100 101 109
123.9491 86.7729 365.4856 -0.7138 0.3040 -0.6309 82 78 88
-35.8969 89.5111 377.4822 0.1342 0.8172 -0.5605 220 207 203
-56.2481 88.3241 373.7433 0.0082 0.8008 -0.5989 202 193 189
-73.1880 88.7178 373.9000 0.0044 0.8184 -0.5746 166 161 163
-92.6594 87.2807 369.8191 0.0361 0.6657 -0.7454 137 142 152
-1002.9693 441.4377 2055.8579 0.0000 0.0000 0.0000 231 233 237
-1080.8259 440.4636 1851.1920 -0.5145 0.1349 -0.8468 224 228 231
183.0486 71.4606 296.3355 -0.3638 -0.0062 -0.9315 192 104 115
173.2771 72.6298 303.1255 -0.6065 -0.2298 -0.7611 186 183 186
158.4544 76.6517 320.2914 -0.7096 -0.0443 -0.7032 209 206 209
148.8313 78.4665 330.0170 -0.4214 -0.4864 -0.7654 171 134 139
142.6747 81.4253 340.7138 -0.2861 0.2259 -0.9312 255 255 255
135.4447 84.3328 351.7749 -0.6878 -0.0442 -0.7245 115 114 121
115.6632 90.3076 380.1018 -0.7620 0.4350 -0.4798 131 133 137
84.1070 84.4626 351.9042 -0.1242 0.0878 -0.9884 120 124 129
79.8246 83.0605 350.2279 -0.3580 -0.0019 -0.9337 26 27 38
6.2635 107.1168 452.3481 -0.2900 -0.0630 -0.9550 237 202 198
-49.5804 91.6539 379.1553 0.2826 0.7466 -0.6023 167 164 165
-52.8220 89.6792 375.3687 0.1468 0.7556 -0.6384 181 177 174
-69.7528 90.1188 375.3340 0.0250 0.8101 -0.5858 180 175 177
-89.4489 88.5390 370.8194 0.0427 0.7179 -0.6948 146 147 154
-1102.8478 461.4594 1877.6544 -0.0252 0.7930 -0.6087 227 231 235
167.5141 74.8954 310.9091 -0.6975 -0.0666 -0.7135 253 252 255
150.3658 78.7369 326.0774 -0.6733 -0.3928 -0.6264 155 61 79
127.1662 87.3608 362.5858 -0.7973 0.1717 -0.5786 75 78 84
119.0879 90.9414 376.1684 -0.7982 0.3147 -0.5136 110 111 118
110.2154 94.5207 390.3712 -0.4140 0.6762 -0.6094 103 106 112
-46.1126 93.7259 387.2845 0.3785 0.7047 -0.6001 184 182 183
-65.8916 91.0314 377.0594 0.0724 0.8077 -0.5851 149 147 148
-86.5201 90.3325 375.0481 0.1305 0.7813 -0.6104 164 168 174
-1100.9486 473.9091 1965.8812 0.7045 0.1791 -0.6867 227 231 235
184.7730 71.7878 295.4787 -0.3547 -0.0447 -0.9339 177 80 102
174.6063 72.8796 300.8382 -0.6338 -0.1542 -0.7580 201 196 200
169.4457 75.2636 308.3000 -0.7298 -0.1609 -0.6644 217 216 219
160.3349 76.9017 317.1267 -0.6873 -0.1110 -0.7178 165 164 171
137.3499 84.5525 348.4868 -0.8823 -0.0914 -0.4617 71 75 81
129.9102 87.6504 359.9414 -0.7853 0.0643 -0.6157 133 135 141
93.1967 86.9688 356.3691 0.5509 0.4398 -0.7093 29 36 45
87.6894 85.0059 351.9617 0.2257 0.2416 -0.9437 95 96 105
-62.5661 92.9725 381.2271 0.0047 0.7859 -0.6184 219 219 219
-82.8149 91.4990 376.7585 0.1068 0.7957 -0.5961 135 139 147
-101.5142 89.3462 368.4010 0.3367 0.6045 -0.7219 222 224 223
185.8410 72.1076 294.1570 -0.3397 -0.0469 -0.9394 136 38 71
176.9981 73.3927 298.9754 -0.6692 -0.0835 -0.7384 213 200 207
163.7121 77.7819 316.2639 -0.5387 -0.1927 -0.8202 233 232 235
156.6269 79.9841 322.9326 -0.3823 -0.3415 -0.8586 197 196 201
152.2470 78.8732 322.9084 -0.5120 -0.3598 -0.7800 192 131 142
139.3176 79.7475 332.0026 -0.3685 -0.2144 -0.9046 255 255 255
140.2289 85.0483 343.8110 -0.7609 -0.1769 -0.6243 104 106 108
120.7652 90.5221 371.3213 -0.7845 0.2540 -0.5657 114 115 121
113.5609 95.0782 389.4192 -0.6697 0.5450 -0.5044 130 131 138
76.9353 87.1492 356.6956 -0.5147 0.1714 -0.8400 50 62 71
-58.4527 93.7580 381.6422 -0.0242 0.7783 -0.6274 173 173 173
-78.9160 92.4321 377.9926 0.0599 0.8026 -0.5936 171 172 176
-98.4618 91.0491 372.8086 0.2387 0.6620 -0.7105 247 250 249
-965.7649 479.8646 1994.3986 0.8732 0.3630 0.3251 231 235 238
179.1648 73.8556 297.2750 -0.5966 -0.0356 -0.8017 150 69 78
170.4180 75.3950 305.5722 -0.6694 -0.2130 -0.7117 159 156 161
164.6677 77.7255 312.7057 -0.5723 -0.3079 -0.7601 255 255 255
143.5033 80.9111 330.8764 -0.4146 -0.2791 -0.8661 255 255 255
130.7844 87.3028 354.2561 -0.7037 -0.0636 -0.7076 116 120 123
124.3188 91.3974 368.8041 -0.7696 0.1409 -0.6228 86 85 92
0.0262 110.2531 451.4044 -0.0487 0.1127 -0.9924 232 196 192
-75.4619 93.8054 380.4050 -0.0117 0.8067 -0.5908 153 155 159
-92.4326 94.1573 378.3272 0.2258 0.7496 -0.6221 255 255 255
-95.4345 92.4990 375.2213 0.2183 0.7068 -0.6728 176 175 180
-1135.9904 480.5284 1907.5337 -0.6207 0.1101 -0.7763 223 227 230
172.2144 75.7618 302.9791 -0.5270 -0.0611 -0.8477 220 218 221
167.7743 78.4517 311.8963 -0.6497 -0.3113 -0.6935 198 196 199
159.1986 80.5310 322.0005 -0.5425 -0.3066 -0.7821 232 231 234
146.6673 81.4364 328.8469 -0.4357 -0.3963 -0.8081 115 108 111
143.3091 85.5947 340.7797 -0.6793 -0.2588 -0.6867 247 247 247
135.3950 88.4526 353.8520 -0.7227 -0.1792 -0.6675 120 120 122
115.2043 94.4838 382.1013 -0.8385 0.2507 -0.4839 83 86 94
79.0534 86.8272 352.9338 -0.3197 0.1958 -0.9271 175 177 181
-50.7731 96.2421 380.5685 0.2735 0.7774 -0.5664 231 228 231
-53.7738 93.7395 378.8408 0.0911 0.7463 -0.6594 211 209 210
-71.3659 94.6256 381.3093 -0.0006 0.7990 -0.6013 212 211 214
-1049.8916 458.5527 1833.5912 0.0420 -0.7327 -0.6792 227 228 232
-1107.7026 439.1031 1865.8219 0.0000 0.0000 0.0000 230 232 236
180.5758 70.8840 280.1821 0.0000 0.0000 0.0000 0 0 0
181.1005 74.1816 295.6732 -0.4123 -0.0651 -0.9087 186 124 129
174.9850 76.3503 302.0541 -0.5211 0.1271 -0.8440 210 182 187
160.1195 80.4774 317.0287 -0.4367 -0.4600 -0.7731 149 148 153
149.0645 81.8701 325.0051 -0.6756 -0.2574 -0.6909 159 77 96
126.8344 91.4456 364.7910 -0.8235 -0.0045 -0.5674 54 52 62
119.0901 95.2388 379.7041 -0.8832 0.1525 -0.4435 64 64 73
111.8511 100.2456 399.7391 -0.8194 0.3385 -0.4626 110 111 118
83.1363 88.0352 352.3700 0.0163 0.2688 -0.9631 109 112 118
-68.2354 96.6340 383.4027 0.0680 0.7948 -0.6030 218 218 218
-85.2783 96.8318 382.5118 0.1282 0.7711 -0.6237 200 202 201
-88.5567 95.2677 380.6069 0.1706 0.7648 -0.6213 200 202 203
-899.6226 477.4327 2010.0638 0.1649 0.8884 -0.4285 231 235 238
-1071.3999 436.7555 1826.6288 -0.2743 -0.8683 -0.4133 224 228 231
184.1238 74.9306 295.4667 -0.4048 -0.1225 -0.9062 186 158 160
168.5368 78.4851 308.0919 -0.7112 -0.2325 -0.6634 177 175 178
137.2221 88.4275 349.2401 -0.8639 -0.1983 -0.4631 130 131 138
128.5148 91.2149 359.3466 -0.8574 -0.1174 -0.5011 102 105 111
114.4391 100.2043 393.7120 -0.8891 0.1945 -0.4143 80 81 88
92.5627 91.2869 359.7470 0.4539 0.6158 -0.6441 67 75 81
87.0373 89.1933 354.0786 0.3991 0.4053 -0.8225 116 122 127
-64.0920 97.5215 384.5307 -0.0006 0.7550 -0.6557 146 148 150
-82.5378 99.0179 388.5133 0.2475 0.6500 -0.7185 163 168 168
-1121.7637 468.0142 1855.1392 0.0000 0.0000 0.0000 227 231 235
186.5839 75.5301 294.5432 -0.4122 -0.1310 -0.9016 186 110 129
176.8870 76.6769 300.3439 -0.6541 0.1734 -0.7362 190 108 120
160.6815 80.3089 313.0359 -0.4935 -0.3686 -0.7878 209 210 217
152.0364 82.4434 323.1780 -0.4780 -0.2605 -0.8389 196 117 130
120.1898 94.6700 371.7724 -0.8547 0.0035 -0.5192 116 118 122
111.0214 106.4885 410.0220 -0.8934 0.2057 -0.3993 56 60 63
-59.9862 98.6455 385.5931 -0.0412 0.7406 -0.6707 179 181 182
-78.5447 99.8062 388.6514 -0.0011 0.7470 -0.6648 208 210 212
-989.4354 509.4683 2024.9194 -0.7828 -0.4726 -0.4049 229 231 235
-1160.6493 496.1175 1951.5020 -0.1993 -0.2730 -0.9411 225 229 232
-1287.7461 512.6597 1989.4613 0.0000 0.0000 0.0000 219 223 226
178.5461 76.9560 297.6013 -0.7071 0.1387 -0.6934 162 99 107
169.6108 78.5506 304.7722 -0.6580 -0.1197 -0.7435 206 205 210
163.5139 80.9150 312.1270 -0.5460 -0.3405 -0.7654 230 232 234
137.5741 87.8912 342.4742 -0.7595 -0.1752 -0.6265 118 122 123
130.9316 91.3774 354.9745 -0.7675 -0.2297 -0.5984 111 110 115
123.3017 95.1535 368.9225 -0.8294 -0.0651 -0.5548 108 109 117
116.4947 99.8158 386.5449 -0.9010 0.1239 -0.4157 54 52 62
-52.9760 102.3569 396.6458 0.3300 0.8551 -0.3999 235 235 237
-55.8667 99.4028 389.6891 -0.0084 0.8520 -0.5234 216 218 220
-73.8800 100.4557 389.6289 -0.0100 0.7518 -0.6594 209 211 213
-1151.9647 505.9941 1943.6586 -0.1993 -0.2730 -0.9411 224 228 231
247.3964 99.2352 377.8359 0.0000 0.0000 0.0000 0 0 0
180.6073 77.3900 296.1747 -0.5277 -0.0021 -0.8494 226 221 222
171.8479 79.0153 303.5078 -0.4838 0.0262 -0.8748 236 233 236
133.7215 91.7703 353.7577 -0.7022 -0.2971 -0.6470 67 69 73
-70.9933 102.2151 392.3748 -0.0065 0.7627 -0.6467 218 220 222
-1163.9393 478.0149 1849.6899 0.0000 0.0000 0.0000 224 228 231
174.8755 79.6694 303.1198 -0.4603 0.0963 -0.8825 170 164 170
164.6181 80.9242 308.7255 -0.6217 -0.2581 -0.7395 219 218 221
153.4202 82.2396 315.8977 -0.4373 -0.3680 -0.8206 200 151 172
148.6395 85.3935 325.6198 -0.4926 -0.2089 -0.8448 130 119 120
138.8094 87.6304 339.6792 -0.7084 -0.3030 -0.6375 92 98 101
125.5011 94.8791 363.6936 -0.8644 -0.1625 -0.4759 107 108 114
117.6956 98.7615 378.9191 -0.8893 0.1154 -0.4425 79 80 88
110.5086 104.3103 402.1126 -0.9377 0.0208 -0.3469 142 146 150
-86.6553 101.2193 388.4873 0.3310 0.6412 -0.6923 221 223 224
-1111.5560 469.5723 1784.6149 0.8805 0.1010 0.4632 223 227 230
183.1429 77.9366 295.2698 -0.4500 -0.0884 -0.8886 192 187 189
178.1591 80.4048 302.6418 -0.6174 0.0701 -0.7835 157 151 160
166.9975 81.4266 307.1795 -0.6816 -0.1648 -0.7129 225 222 226
158.1174 83.3338 315.1942 -0.4026 -0.2327 -0.8853 219 216 220
141.9052 88.2916 334.9653 -0.7648 -0.0142 -0.6441 155 154 159
136.3016 92.1939 348.2821 -0.7802 -0.3579 -0.5130 95 99 102
128.6181 95.6727 360.6564 -0.8760 -0.2182 -0.4301 57 57 66
113.3871 104.2939 393.3190 -0.9451 -0.0742 -0.3183 117 120 126
107.2457 111.4388 424.2181 -0.9039 0.3446 -0.2533 178 182 186
-82.9486 102.3376 389.9437 0.2107 0.6673 -0.7144 252 254 255
-991.2738 514.4001 1983.2910 0.8582 0.5128 0.0228 234 235 239
-1211.2992 522.4476 1865.5216 0.2598 -0.3808 -0.8874 0 0 0
184.8462 78.2921 293.7139 -0.3883 -0.1550 -0.9084 191 119 130
160.0272 83.6050 312.9541 -0.5435 -0.1085 -0.8324 234 234 236
150.9709 85.7860 322.7723 -0.3226 -0.2023 -0.9246 206 143 151
119.9835 99.0125 373.6141 -0.8803 0.0704 -0.4691 32 35 43
110.4853 111.1570 414.0006 -0.9575 0.1537 -0.2441 161 163 167
-58.9626 106.5392 401.2950 0.3419 0.8720 -0.3503 165 174 175
-80.4070 104.3484 392.2922 0.2006 0.5942 -0.7789 213 217 221
178.3767 80.2702 299.0013 -0.6632 0.1030 -0.7414 235 230 234
169.4793 81.9138 305.2869 -0.6311 -0.1017 -0.7690 173 173 175
162.9631 84.2230 312.0192 -0.6803 -0.0205 -0.7326 226 225 228
152.8699 86.0445 320.4603 -0.5139 0.0332 -0.8572 169 86 94
136.8244 91.5310 342.3672 -0.7758 -0.2667 -0.5718 92 93 99
129.9078 95.0658 355.3984 -0.7869 -0.3235 -0.5254 104 105 114
122.0160 98.6843 368.5751 -0.8510 0.0478 -0.5229 114 115 119
115.4427 103.8615 386.5165 -0.9317 -0.0152 -0.3628 119 118 125
-1139.4891 519.4861 1911.9995 -0.0008 -0.4119 -0.9112 223 227 230
-1097.4111 488.4286 1904.0006 -0.4709 -0.4943 -0.7307 227 231 235
180.8106 80.7826 296.9535 -0.5709 0.0420 -0.8200 217 214 217
172.0103 82.4380 304.0082 -0.4367 -0.0270 -0.8992 171 171 173
140.5894 92.3929 342.1947 -0.7626 -0.2052 -0.6134 73 79 86
-1112.2196 475.0248 1711.6289 0.2168 0.9471 -0.2364 0 0 0
174.1581 82.8043 303.1721 -0.3937 -0.0754 -0.9161 215 212 215
164.8351 84.5010 309.6136 -0.7030 -0.0041 -0.7112 140 139 144
154.0840 86.0038 316.2949 -0.5419 0.1770 -0.8216 197 120 132
131.0651 94.6637 349.7231 -0.7388 -0.3376 -0.5833 104 106 110
125.4329 99.1238 364.0000 -0.8668 -0.0439 -0.4967 65 66 74
117.3188 103.2960 380.6273 -0.8919 0.0765 -0.4457 124 127 133
110.1467 108.9265 403.5249 -0.9446 0.1480 -0.2929 144 144 148
-1068.6681 502.0771 1886.6412 -0.3853 -0.4675 -0.7956 224 228 231
182.0393 80.9148 294.6820 -0.5582 0.0203 -0.8295 154 153 158
176.8185 83.3932 302.0008 -0.5926 -0.1145 -0.7974 197 196 201
166.4761 84.7545 307.6553 -0.6682 -0.0130 -0.7438 200 200 202
157.5014 86.7161 316.1757 -0.4682 0.2760 -0.8394 179 174 176
144.9796 87.7187 323.1449 -0.3654 0.0298 -0.9304 255 255 255
140.3408 91.6087 334.1614 -0.6295 -0.0689 -0.7739 112 114 120
134.8157 95.6387 348.1747 -0.7601 -0.2745 -0.5890 108 107 114
-86.3195 108.4858 397.0897 0.2983 0.5735 -0.7630 214 220 223
-1127.1758 505.8739 1825.2533 -0.2422 0.3548 -0.9030 223 227 230
-1098.3699 481.4446 1750.0524 -0.3009 0.6783 -0.6703 224 228 231
184.3968 81.4101 293.5546 -0.4377 -0.0298 -0.8987 199 197 200
169.6111 85.4200 306.7522 -0.5896 0.0070 -0.8077 209 206 209
160.2503 87.4828 315.0771 -0.6060 0.2362 -0.7596 195 190 196
150.3999 89.1323 322.5626 -0.3230 0.2562 -0.9110 91 75 80
143.9151 92.3904 333.3955 -0.6398 0.0775 -0.7646 191 188 194
126.6294 98.7203 359.0403 -0.8848 -0.0610 -0.4619 90 92 98
119.1488 102.8960 376.1360 -0.8584 0.2139 -0.4662 142 143 149
111.9956 108.0175 393.9159 -0.9319 0.1172 -0.3433 38 41 47
109.6566 115.9792 420.0272 -0.9460 0.2537 -0.2016 170 174 177
-1085.1580 500.6920 1885.3160 -0.3897 -0.6133 -0.6871 227 228 232
177.4836 83.3598 298.5736 -0.6548 -0.0682 -0.7527 217 216 219
162.4524 87.5407 312.5683 -0.7382 0.1273 -0.6625 210 207 210
152.5025 89.5366 321.4784 -0.5226 0.3610 -0.7724 176 101 112
136.6617 95.3952 342.8084 -0.6976 -0.1287 -0.7048 139 141 145
128.0304 98.3092 353.8817 -0.8695 -0.0684 -0.4891 124 125 132
122.4852 103.4945 370.3665 -0.8667 0.2234 -0.4460 129 128 135
114.0966 107.6191 387.1146 -0.8942 0.1328 -0.4274 49 53 56
181.3764 84.2569 298.7042 -0.5821 0.0354 -0.8124 211 208 212
170.2012 85.2605 303.6444 -0.4642 0.0012 -0.8857 246 245 248
155.3944 90.1363 320.0880 -0.5860 0.3940 -0.7081 155 70 101
144.6753 91.9397 329.3988 -0.6314 0.4372 -0.6405 255 255 255
138.8921 95.6773 339.6548 -0.6895 0.1022 -0.7170 115 114 121
111.1395 114.8639 407.6949 -0.9321 0.2632 -0.2487 153 155 157
110.0251 124.3903 440.6082 0.0000 0.0000 0.0000 186 186 188
-1087.7797 528.4905 1880.4342 -0.2226 -0.3613 -0.9055 227 231 235
-1048.9092 497.5734 1874.2736 0.0147 -0.2170 -0.9761 225 229 232
173.5631 86.0104 303.0768 -0.4610 -0.0667 -0.8849 239 236 239
164.4089 87.8837 310.5136 -0.6908 0.0833 -0.7182 219 218 221
157.4818 90.4423 317.9262 -0.5176 0.3948 -0.7591 143 49 76
146.3757 91.9747 323.8255 -0.3709 0.4647 -0.8040 255 255 255
131.3301 98.9238 350.1679 -0.7985 0.0009 -0.6020 161 163 167
124.2606 102.9289 365.7791 -0.8500 0.2783 -0.4473 82 84 88
117.3891 107.9539 381.9106 -0.8447 0.1935 -0.4991 156 160 164
181.6960 84.1225 294.5468 -0.5805 0.0838 -0.8099 184 182 185
176.1207 86.5662 301.7870 -0.6190 -0.1229 -0.7757 195 192 195
166.5209 88.2572 308.4269 -0.5874 0.0896 -0.8043 240 237 241
140.4641 95.4999 335.7930 -0.5551 0.2440 -0.7952 116 116 120
120.1724 108.1175 379.5461 -0.8017 0.2966 -0.5189 154 158 159
112.6989 113.7053 399.4648 -0.8969 0.3378 -0.2853 181 183 187
-1168.9431 541.9719 1844.6592 -0.6350 -0.1891 -0.7490 223 227 230
183.8057 84.5083 293.6298 -0.4796 0.1097 -0.8706 67 62 68
160.4849 91.0745 316.7894 -0.6186 0.2697 -0.7380 202 174 177
153.8798 93.8443 323.9002 -0.5013 0.3655 -0.7843 157 147 148
149.6831 92.8853 324.4336 -0.3136 0.4449 -0.8389 134 131 137
143.5071 96.0786 334.4679 -0.5573 0.4168 -0.7181 130 132 134
131.7640 98.0671 346.8084 -0.6768 0.1603 -0.7185 61 65 66
125.9742 102.6213 360.7152 -0.7959 0.3476 -0.4958 143 145 146
110.0456 121.3003 423.6179 -0.9597 0.1379 -0.2449 145 149 152
-1171.8828 557.1321 1885.6993 0.5179 0.2296 -0.8240 223 227 230
185.7778 84.9475 293.4398 0.0000 0.0000 0.0000 163 160 166
176.9417 86.4818 298.4994 -0.6045 -0.1274 -0.7864 134 133 136
167.7593 88.2254 305.9328 -0.5727 0.1183 -0.8112 187 187 191
162.1428 91.0968 313.8251 -0.6675 0.2299 -0.7082 191 189 192
146.4563 96.6210 332.1141 -0.7194 0.4036 -0.5653 255 255 255
135.7820 99.0500 344.2589 -0.6450 0.2452 -0.7238 140 139 144
128.7810 102.9867 355.9492 -0.7730 0.4140 -0.4806 147 149 153
122.8027 108.1044 374.9516 -0.8007 0.3713 -0.4702 81 83 87
114.7775 112.8574 392.2953 -0.8414 0.4146 -0.3466 121 122 128
-115.7794 150.0122 533.5935 0.0000 0.0000 0.0000 212 216 219
179.7690 87.0377 298.4190 -0.5283 0.0092 -0.8490 166 166 170
170.1572 88.6252 304.4197 -0.5586 0.1296 -0.8192 101 97 105
155.5725 93.8999 321.8713 -0.6125 0.3111 -0.7267 171 155 151
137.4442 98.9320 339.0731 -0.6208 0.3582 -0.6973 118 116 124
111.4580 120.0560 414.5155 -0.9413 0.2333 -0.2438 128 127 132
-1157.2513 579.3463 1917.8301 0.5214 0.7389 -0.4269 225 229 232
-1133.6716 553.6561 1887.1920 0.0916 0.7076 -0.7007 223 227 230
173.0433 89.2130 303.2365 -0.5582 0.1409 -0.8176 201 201 203
162.6390 90.7506 309.9303 -0.6190 0.2634 -0.7399 184 183 188
158.2825 94.4056 320.2531 -0.6306 0.2361 -0.7393 191 109 123
147.1651 96.0604 327.6508 -0.5728 0.5359 -0.6202 255 255 255
141.2543 99.8677 338.8555 -0.4406 0.5011 -0.7448 147 146 149
129.7822 102.2928 351.6373 -0.7406 0.3988 -0.5408 144 146 150
124.0672 107.2580 367.6129 -0.7728 0.4383 -0.4590 145 147 151
115.9550 111.6501 383.9568 -0.7664 0.3972 -0.5048 157 158 162
-1147.6212 537.0263 1843.6168 -0.4101 0.1323 -0.9024 220 224 228
182.2664 87.5338 296.5830 -0.5424 0.0691 -0.8373 176 173 179
165.6055 91.3820 308.6703 -0.6025 0.3147 -0.7335 185 184 189
150.5486 96.8896 327.4323 -0.4325 0.5393 -0.7226 255 255 255
132.5539 102.5549 347.9705 -0.6300 0.5075 -0.5878 109 109 113
127.2488 107.7899 365.1930 -0.7053 0.5247 -0.4768 166 168 170
119.5056 112.2852 380.9523 -0.7204 0.4412 -0.5351 135 136 140
113.4566 119.0107 404.3279 -0.8958 0.3396 -0.2868 150 152 153
-127.8858 175.6682 563.6512 0.0000 0.0000 0.0000 213 219 222
183.9964 87.8148 294.4675 -0.5013 0.1647 -0.8494 197 196 201
173.9502 89.1671 301.4499 -0.6599 0.0544 -0.7494 187 187 191
168.4013 91.9446 307.7705 -0.6170 0.3056 -0.7252 203 200 203
159.4248 94.3123 317.0873 -0.6682 0.2476 -0.7016 199 112 126
152.9430 97.3571 325.4359 -0.5194 0.4355 -0.7352 255 255 255
148.2495 101.4355 335.9397 -0.6949 0.4769 -0.5383 145 145 148
143.6683 100.1449 337.0601 -0.5520 0.5043 -0.6641 81 83 87
136.6504 103.6429 347.4749 -0.5978 0.5653 -0.5684 149 148 155
130.4541 108.2136 362.6564 -0.6856 0.5719 -0.4505 105 109 112
115.7950 118.2464 397.7352 -0.8309 0.4262 -0.3577 129 130 136
110.0186 126.7777 425.2379 -0.9808 0.0518 -0.1881 83 87 92
-1104.5677 530.8947 1816.0396 -0.1528 0.3168 -0.9361 228 232 236
185.5362 88.0700 293.4398 0.0000 0.0000 0.0000 191 189 192
170.9809 92.3772 305.7409 -0.5719 0.2893 -0.7676 217 214 217
161.5206 94.5235 315.0502 -0.5731 0.3816 -0.7252 164 75 89
122.5983 112.5155 376.9315 -0.7457 0.4512 -0.4903 136 137 143
-1093.9667 539.2141 1812.5610 -0.0057 0.2274 -0.9738 220 224 228
179.0410 90.1110 297.9774 -0.4682 0.0395 -0.8827 212 211 214
164.4438 95.0649 313.8578 -0.5147 0.4782 -0.7116 219 210 213
154.6441 97.1608 322.4619 -0.5930 0.3214 -0.7383 102 97 103
138.4205 103.4857 343.3466 -0.5261 0.6015 -0.6012 108 107 112
131.4571 107.4222 356.7352 -0.6255 0.6427 -0.4424 94 95 102
124.7156 112.2151 373.0616 -0.6579 0.5611 -0.5024 179 180 184
117.5588 117.5108 390.9938 -0.7286 0.5526 -0.4047 139 138 143
111.0733 125.1163 417.7061 -0.9507 0.0979 -0.2944 143 142 149
-1118.9254 564.8253 1855.7836 -0.3653 0.0282 -0.9305 232 236 239
172.6578 92.5774 304.2869 -0.5286 0.2896 -0.7980 198 197 200
157.4087 97.7532 321.2241 -0.6088 0.3417 -0.7160 110 98 102
147.9628 100.2614 330.9151 -0.6157 0.4837 -0.6221 132 131 134
141.4110 103.9648 342.4904 -0.4115 0.6398 -0.6491 157 157 159
135.1783 108.2613 355.0880 -0.5637 0.6732 -0.4785 125 127 131
121.8484 118.7189 388.8138 -0.6815 0.5864 -0.4378 179 178 183
113.6207 124.6993 410.1813 -0.9122 0.2398 -0.3322 105 104 109
-1043.8893 542.4576 1832.2675 0.1514 -0.7915 -0.5922 223 227 230
174.8691 92.9032 302.6571 -0.6150 0.2811 -0.7367 227 227 229
166.0094 95.0970 310.6089 -0.5635 0.5018 -0.6562 169 166 170
150.9037 100.8471 330.1479 -0.5289 0.5359 -0.6581 255 255 255
145.3054 104.9302 341.7506 -0.5059 0.6043 -0.6156 196 195 198
128.3276 112.8464 369.6074 -0.6368 0.5914 -0.4947 185 184 189
-1008.7684 596.6034 1997.3431 0.0000 0.0000 0.0000 231 235 238
-1131.3807 600.5940 1858.9078 0.4205 0.8006 -0.4269 224 228 231
-1181.5342 569.9170 1843.6167 -0.1848 0.3551 -0.9164 223 227 230
183.4571 90.9777 295.2574 -0.5002 0.1021 -0.8599 213 213 215
169.3755 95.8369 309.8205 -0.6250 0.4503 -0.6377 223 223 226
158.7824 97.6196 317.9525 -0.6411 0.3706 -0.6720 139 52 72
152.8326 101.0475 327.4926 -0.5961 0.4911 -0.6352 255 255 255
137.1678 108.0899 351.0877 -0.5876 0.6403 -0.4947 149 148 153
130.5134 112.7018 366.0404 -0.6625 0.5780 -0.4765 138 139 146
122.9094 117.3232 381.7282 -0.6690 0.5647 -0.4833 83 85 91
116.1806 124.0515 403.3988 -0.8612 0.3289 -0.3874 164 165 169
176.3747 92.9379 299.3982 -0.6754 0.2925 -0.6769 194 191 194
169.3295 95.2020 306.5645 -0.6023 0.3464 -0.7192 183 182 187
161.5076 98.1342 316.2987 -0.5108 0.4460 -0.7349 172 86 99
145.4998 104.0704 336.4962 -0.6628 0.5409 -0.5178 159 161 163
139.8382 108.3625 349.1151 -0.5961 0.5839 -0.5510 148 147 152
111.7640 130.8691 421.1015 -0.9238 0.0967 -0.3706 116 117 124
178.4563 93.3818 298.3796 -0.5712 0.2801 -0.7716 149 148 153
165.0256 98.9813 316.4886 -0.4692 0.4935 -0.7324 189 109 127
154.5249 100.8471 323.6578 -0.5983 0.4631 -0.6539 115 109 116
148.9622 104.8223 334.6619 -0.6224 0.5376 -0.5689 255 255 255
143.1272 108.9861 347.2287 -0.4759 0.5601 -0.6781 115 116 120
132.6080 112.4097 363.2333 -0.5969 0.6150 -0.5152 151 153 157
125.8932 117.5782 378.8600 -0.5939 0.6046 -0.5308 103 105 109
118.5592 123.2393 396.3783 -0.7473 0.4211 -0.5141 139 141 145
-1057.3368 552.1693 1762.0107 0.0000 0.0000 0.0000 224 228 231
180.9562 93.7605 297.0438 -0.4983 0.2670 -0.8249 185 185 187
172.7326 96.0330 305.3899 -0.4986 0.4113 -0.7631 175 174 177
167.6449 99.4476 315.1395 -0.5523 0.5031 -0.6647 200 200 202
158.0982 101.7787 323.5368 -0.5564 0.5204 -0.6478 160 119 131
151.1472 105.0303 332.9139 -0.5668 0.5623 -0.6022 255 255 255
136.4037 113.3739 361.0014 -0.5653 0.6422 -0.5177 129 130 134
130.2901 118.8052 377.9668 -0.5962 0.5923 -0.5420 124 127 133
122.2577 124.0048 394.3820 -0.7183 0.4388 -0.5399 144 145 152
113.6631 129.7024 413.5166 -0.9272 0.1343 -0.3497 151 153 157
-1106.0594 590.5550 1851.2582 -0.5903 0.0305 -0.8066 225 229 232
183.2892 94.3743 295.7490 -0.3547 0.2967 -0.8867 192 191 196
175.4306 96.5903 304.4547 -0.5955 0.4181 -0.6860 150 149 156
160.3221 101.9808 321.1830 -0.5920 0.5086 -0.6252 141 51 70
146.4016 109.7737 346.1534 -0.5005 0.5350 -0.6806 147 146 149
138.5362 113.2095 357.4766 -0.6611 0.6095 -0.4375 164 163 168
132.4336 118.5264 371.5982 -0.7284 0.5311 -0.4328 144 144 148
176.5787 96.6248 302.6059 -0.6684 0.4322 -0.6053 198 196 199
169.1367 99.3814 311.5902 -0.6321 0.5057 -0.5871 196 193 196
162.2477 102.1786 319.0455 -0.4855 0.5128 -0.7081 172 85 101
147.8461 109.2509 342.5892 -0.5437 0.5821 -0.6046 222 222 222
123.5134 122.8122 388.3772 -0.7594 0.4494 -0.4705 165 166 170
116.5083 129.3610 406.8467 -0.8906 0.2218 -0.3970 133 137 140
-1098.9352 562.1385 1894.6761 0.0000 0.0000 0.0000 228 232 236
185.9813 94.8152 294.7739 0.0000 0.0000 0.0000 169 166 172
169.7375 99.0111 308.1489 -0.5901 0.4937 -0.6388 198 197 202
155.8183 105.3380 328.1228 -0.5224 0.6014 -0.6046 157 145 147
149.8419 109.3400 339.6760 -0.5844 0.6295 -0.5121 255 255 255
140.6123 113.0616 352.6402 -0.6268 0.5912 -0.5075 134 133 136
134.4029 118.0458 367.6900 -0.6170 0.5372 -0.5751 125 124 129
127.0020 122.9228 382.9331 -0.6556 0.4593 -0.5993 142 143 147
111.0791 135.7043 422.6948 -0.8870 0.0091 -0.4616 178 179 183
-1138.8273 595.7074 1891.3898 0.6023 0.4873 -0.6323 223 227 230
179.4208 97.1879 300.4818 -0.5833 0.4398 -0.6828 175 174 179
172.9068 99.7268 307.7396 -0.4348 0.5292 -0.7286 185 185 187
164.9845 102.5200 317.6833 -0.4407 0.5067 -0.7410 197 183 185
158.3163 105.6900 326.1230 -0.5187 0.6181 -0.5907 159 74 93
137.3394 118.3399 365.2683 -0.5576 0.5620 -0.6109 130 130 134
130.5230 123.4759 381.7234 -0.6853 0.3622 -0.6318 173 175 179
118.3743 127.9719 399.6468 -0.8254 0.2606 -0.5008 156 157 161
-1115.6500 598.6215 1899.6152 0.0567 0.8913 -0.4499 226 230 233
180.8098 97.1658 298.1550 -0.5284 0.4374 -0.7276 211 210 215
176.0913 100.4104 306.5653 -0.4952 0.5501 -0.6725 187 184 187
167.7275 103.1025 316.8626 -0.4901 0.5021 -0.7125 179 176 177
151.5338 109.0654 335.9512 -0.5914 0.6185 -0.5174 186 182 190
141.1213 112.1062 349.6262 -0.5675 0.5108 -0.6458 112 111 114
122.2840 128.9027 396.8372 -0.8246 0.2538 -0.5057 112 116 117
113.2991 134.5696 415.6625 -0.9210 0.0155 -0.3892 150 151 155
-1081.1735 595.4499 1824.3906 -0.3126 -0.1401 -0.9395 226 230 233
169.8516 103.3219 315.2958 -0.6021 0.5222 -0.6040 199 198 203
161.1308 106.1298 324.4400 -0.5868 0.5698 -0.5754 178 96 112
143.9092 112.4135 347.4518 -0.4575 0.5066 -0.7308 178 178 180
139.6797 118.2533 363.1111 -0.5943 0.5648 -0.5725 145 147 149
132.7124 123.3925 377.7123 -0.7466 0.3519 -0.5646 90 92 96
181.5213 97.0670 296.6441 -0.3522 0.4942 -0.7948 206 204 207
176.7941 100.1815 304.1127 -0.6043 0.5215 -0.6024 210 210 210
162.7271 105.9843 321.5920 -0.5703 0.5195 -0.6363 194 182 186
158.1357 110.3798 332.5328 -0.5665 0.5534 -0.6105 145 63 82
153.8361 109.1142 333.3595 -0.5870 0.5691 -0.5758 122 117 121
148.5341 113.8485 346.4208 -0.5187 0.5108 -0.6856 255 255 255
142.4403 118.4458 358.4891 -0.6828 0.5544 -0.4759 130 129 136
124.0140 127.9048 391.8737 -0.8905 0.1275 -0.4367 130 132 136
115.5587 133.5822 409.2266 -0.9060 0.0895 -0.4136 135 136 140
185.5145 98.0659 295.8622 0.0000 0.0000 0.0000 179 176 179
179.4222 100.7441 303.2280 -0.5969 0.5286 -0.6036 217 214 217
171.6331 103.3241 311.9486 -0.5626 0.5749 -0.5942 177 174 180
165.9739 106.7358 320.8915 -0.4932 0.4964 -0.7144 184 183 188
151.2987 114.2086 344.3130 -0.6280 0.4947 -0.6007 171 165 172
133.8228 122.2289 370.6117 -0.7604 0.3860 -0.5223 136 137 143
127.3260 128.1145 385.8792 -0.8306 0.0743 -0.5520 153 157 160
118.7425 133.6051 403.9225 -0.8919 0.0422 -0.4502 108 110 111
109.4473 139.7461 420.5665 -0.9007 0.0885 -0.4252 173 175 179
-1007.7314 649.4342 2006.1735 0.9474 -0.2119 -0.2398 231 235 238
173.5688 103.5071 310.0518 -0.4659 0.5885 -0.6608 179 176 179
159.4918 110.1193 330.4326 -0.5334 0.5682 -0.6267 138 58 74
154.6814 114.6734 343.2285 -0.6704 0.4071 -0.6203 155 143 145
137.2393 122.7695 368.8106 -0.6533 0.3255 -0.6836 103 104 111
181.6209 100.9431 300.7805 -0.5192 0.5317 -0.6691 172 172 174
176.8749 104.2533 309.8553 -0.4995 0.5757 -0.6474 182 179 182
171.1062 107.5739 318.2969 -0.5372 0.4818 -0.6923 158 158 160
166.6516 106.3021 318.2583 -0.4608 0.5062 -0.7290 204 201 205
161.8694 110.3914 328.3575 -0.5993 0.5419 -0.5892 180 150 155
146.5047 118.1167 350.1051 -0.4698 0.5521 -0.6888 255 255 255
141.0514 123.6630 366.6022 -0.6438 0.2235 -0.7318 116 117 124
129.4274 127.4140 381.3096 -0.6972 0.1173 -0.7072 105 102 108
121.7207 133.5067 398.7198 -0.8739 -0.0302 -0.4851 129 130 136
112.9136 139.4457 416.4204 -0.9228 0.0114 -0.3850 145 145 150
183.4736 101.2019 299.5519 -0.3090 0.5898 -0.7461 214 213 218
156.1339 114.3481 338.0939 -0.6318 0.4791 -0.6093 166 101 107
150.0842 118.9154 349.9626 -0.5314 0.5025 -0.6820 156 153 161
143.9812 124.0185 364.0792 -0.5876 0.0404 -0.8082 161 160 163
131.4892 127.0912 378.3083 -0.7487 0.1395 -0.6480 140 139 144
123.8115 132.7289 393.3526 -0.9111 -0.1219 -0.3936 126 128 132
187.3505 102.1646 300.1320 0.0000 0.0000 0.0000 189 181 186
172.6351 107.3661 315.2314 -0.5771 0.5160 -0.6331 175 172 175
164.3272 110.4197 324.8385 -0.6434 0.5195 -0.5622 169 166 170
157.4889 114.0161 334.6395 -0.6140 0.4335 -0.6596 140 61 74
135.3459 127.7861 374.9121 -0.8207 0.1373 -0.5546 87 88 95
115.1870 138.3071 410.5136 -0.9105 -0.0164 -0.4133 129 128 135
189.6461 102.7195 299.4535 0.0000 0.0000 0.0000 147 112 117
179.7130 104.1744 304.9227 -0.5657 0.5696 -0.5962 166 161 165
174.9357 107.7016 313.7162 -0.5081 0.5456 -0.6665 184 178 182
166.0997 110.5081 322.5914 -0.5932 0.5096 -0.6232 139 138 141
159.9977 114.3553 332.7473 -0.6232 0.3515 -0.6986 199 181 191
151.2449 118.0831 345.3983 -0.7107 0.3500 -0.6103 113 101 103
125.4031 131.1066 385.5592 -0.8787 -0.2042 -0.4315 104 106 108
117.5065 137.7192 404.3491 -0.9203 -0.0801 -0.3828 104 106 112
110.6492 146.5773 427.3705 -0.9328 0.2954 -0.2066 183 185 187
-1098.2869 595.0124 1818.6635 0.0000 0.0000 0.0000 227 231 235
182.1709 104.6241 303.1339 -0.4738 0.5934 -0.6507 203 200 203
167.4775 110.2968 320.8300 -0.5041 0.4750 -0.7213 164 164 166
153.4230 118.0627 343.4515 -0.7946 0.2113 -0.5691 129 85 93
148.7255 123.7927 354.6859 -0.5062 0.3941 -0.7671 237 234 237
137.1670 127.1453 370.6670 -0.7725 0.0238 -0.6346 88 89 96
128.6928 131.7616 381.7755 -0.7320 -0.1589 -0.6625 120 119 126
177.1143 107.9299 311.5753 -0.4799 0.5094 -0.7143 188 180 187
171.5679 111.4752 320.4865 -0.5523 0.4354 -0.7109 208 205 208
163.2687 114.9223 331.6983 -0.6755 0.2988 -0.6741 215 215 219
119.8269 136.7203 397.7220 -0.9072 -0.1566 -0.3905 95 96 103
112.2474 144.1146 417.7859 -0.9180 0.1555 -0.3649 153 155 159
-1095.0010 637.3116 1843.0016 0.2616 -0.9642 0.0440 231 235 238
-1019.8021 581.4566 1828.2339 0.0000 0.0000 0.0000 219 223 226
184.6387 105.0195 301.6174 -0.3032 0.6069 -0.7346 200 200 202
179.6299 108.3306 310.1183 -0.6308 0.4687 -0.6184 191 126 137
164.5730 114.5852 328.3804 -0.6778 0.3005 -0.6711 213 215 216
155.4397 118.0535 339.5779 -0.8262 0.0744 -0.5585 166 84 98
150.1717 123.1228 352.3146 -0.4907 0.1863 -0.8512 134 126 133
137.7434 125.8846 363.7388 -0.7092 -0.2269 -0.6675 139 142 148
131.4861 131.8699 380.2607 -0.6537 -0.2571 -0.7117 147 146 151
115.9305 157.7216 440.5250 0.7761 -0.0478 -0.6287 150 149 154
188.1221 105.8312 302.0069 0.0000 0.0000 0.0000 182 179 182
172.8642 111.1362 317.8882 -0.6023 0.3768 -0.7037 191 189 192
158.0000 118.2973 336.8848 -0.7565 0.0265 -0.6535 185 170 178
152.2145 123.0871 350.2530 -0.5386 -0.0312 -0.8420 171 135 143
140.9104 126.2881 361.2946 -0.6134 -0.3842 -0.6901 123 125 127
135.4841 132.7175 377.0411 -0.7650 -0.2270 -0.6026 99 98 103
122.4528 136.2884 391.4417 -0.9100 -0.2538 -0.3279 127 126 131
114.2972 142.6760 411.3376 -0.9184 0.0483 -0.3927 121 122 128
181.8898 108.5696 308.6939 -0.5365 0.4922 -0.6855 119 30 44
175.1572 111.4547 315.6308 -0.5657 0.3809 -0.7314 176 173 177
165.8822 114.2674 325.5567 -0.5726 0.3054 -0.7608 196 195 200
159.3886 117.9069 333.9560 -0.6792 -0.1210 -0.7239 194 194 198
144.3434 126.6419 359.2470 -0.6488 -0.3679 -0.6661 230 230 230
124.9409 135.9350 386.4832 -0.8806 -0.3291 -0.3409 69 68 75
117.5212 142.7711 405.4040 -0.9373 -0.0016 -0.3485 134 138 141
-1096.7217 610.3914 1767.9188 -0.1619 -0.9613 -0.2230 227 231 235
184.1979 108.9357 307.3794 -0.4334 0.5145 -0.7399 208 201 206
178.5237 112.2562 315.0700 -0.5514 0.3665 -0.7494 174 140 140
169.2799 114.9611 323.4596 -0.5199 0.2212 -0.8251 180 176 182
162.4978 118.5125 332.0390 -0.7000 -0.2502 -0.6689 175 177 181
153.2992 122.2614 344.3559 -0.7082 -0.1689 -0.6855 158 78 91
147.0624 127.4326 355.2505 -0.5560 -0.2265 -0.7997 113 110 116
135.2968 130.4089 368.8339 -0.8206 -0.3267 -0.4688 106 105 110
-1091.0265 636.8251 1808.6782 0.1447 -0.9753 -0.1670 224 228 231
185.9999 109.0155 305.4751 -0.3013 0.5209 -0.7987 166 163 168
170.8628 114.7546 320.8036 -0.5799 0.1309 -0.8041 186 185 190
138.1641 130.5900 364.8381 -0.6930 -0.4390 -0.5719 116 117 124
127.2080 135.2867 380.9928 -0.6692 -0.4489 -0.5921 140 139 144
119.3258 141.3755 397.7622 -0.9412 -0.1084 -0.3201 142 142 144
112.2974 149.8348 423.1653 -0.9326 0.2457 -0.2645 172 171 176
179.4186 111.9223 311.7941 -0.6823 0.3136 -0.6604 130 31 42
173.4471 115.2373 319.3307 -0.5469 -0.0059 -0.8372 161 153 158
163.6511 117.9011 328.5130 -0.5899 -0.3145 -0.7437 173 175 179
154.6758 121.5174 339.4575 -0.7904 -0.2541 -0.5574 156 137 143
147.9276 126.0678 349.4107 -0.3341 -0.5489 -0.7662 108 91 97
130.2841 135.5455 378.6760 -0.5958 -0.4387 -0.6728 107 108 112
121.7523 140.7867 391.8701 -0.9236 -0.2218 -0.3127 121 122 128
113.8784 148.1193 413.5312 -0.9366 0.1023 -0.3352 109 108 117
116.4983 164.4820 446.9764 -0.9884 -0.0528 0.1423 213 214 218
-1057.0551 716.6282 2069.4971 0.0000 0.0000 0.0000 232 236 241
180.7236 111.7817 309.0666 -0.6551 0.2733 -0.7044 185 104 122
166.5079 118.4218 326.9226 -0.5113 -0.2847 -0.8109 137 138 145
157.3932 121.9328 336.5434 -0.7826 -0.3442 -0.5187 200 199 204
139.9805 129.9653 360.9580 -0.4752 -0.6210 -0.6233 100 94 101
-1039.9603 622.5631 1779.8610 0.0000 0.0000 0.0000 230 234 237
175.0779 115.1125 316.8537 -0.5053 0.0197 -0.8627 175 111 114
170.9789 119.6626 325.0956 -0.5268 -0.3182 -0.7882 187 183 189
158.4352 121.3471 333.9817 -0.7435 -0.4258 -0.5156 193 192 197
150.0039 125.7485 346.1318 -0.3917 -0.6695 -0.6312 162 79 98
144.4720 130.9797 359.3496 -0.3435 -0.6522 -0.6758 255 255 255
132.1135 134.7226 372.4106 -0.6549 -0.3487 -0.6705 97 96 99
123.6481 139.6661 385.1386 -0.9019 -0.2880 -0.3220 132 131 134
116.9209 147.3475 407.6836 -0.9328 0.0084 -0.3604 135 134 139
-951.7090 665.3260 2005.4014 -0.5064 -0.2638 -0.8210 233 237 240
-1064.7499 609.5577 1727.0400 0.0000 0.0000 0.0000 223 227 230
184.0479 112.5570 308.6830 -0.5332 0.2495 -0.8084 115 28 44
177.5241 115.4798 315.7722 -0.5460 0.0373 -0.8370 193 114 124
152.0634 125.5004 343.0762 -0.5346 -0.6276 -0.5659 194 119 135
134.2133 134.1500 368.6018 -0.5770 -0.1597 -0.8010 100 101 105
113.2887 156.8967 429.4081 -0.8463 0.3519 -0.3999 174 176 180
-1018.5541 729.1895 1941.3062 0.0000 0.0000 0.0000 237 240 246
-1136.7584 679.5593 1842.0162 0.0000 0.0000 0.0000 226 230 233
-1047.7941 614.0306 1656.0527 0.0000 0.0000 0.0000 224 228 231
186.3146 112.7661 306.8816 -0.2653 0.2762 -0.9238 151 138 147
179.7363 115.7221 313.5246 -0.6156 0.0179 -0.7879 195 164 186
169.7111 117.8891 319.9359 -0.5218 -0.3695 -0.7689 219 216 220
159.0227 120.3034 328.5929 -0.6701 -0.5196 -0.5302 205 202 206
142.6820 128.3861 350.2090 -0.2329 -0.3704 -0.8992 255 255 255
137.5855 134.6119 362.3317 -0.5675 -0.6645 -0.4862 97 93 102
125.0983 138.3167 378.2149 -0.7181 -0.4283 -0.5485 125 127 129
118.6954 145.9792 399.4070 -0.9337 -0.2026 -0.2952 163 162 167
162.0171 120.8683 326.1151 -0.5340 -0.6141 -0.5812 229 229 231
153.1548 124.7338 338.6753 -0.6137 -0.5739 -0.5422 176 174 175
120.7427 144.9775 391.5404 -0.9040 -0.2608 -0.3388 126 125 128
114.7019 154.2446 418.2089 -0.9602 0.1244 -0.2500 110 112 116
-934.7186 563.4624 1645.0951 0.0000 0.0000 0.0000 233 237 240
181.6229 115.8721 311.3497 -0.5219 -0.0680 -0.8503 198 186 190
172.0331 118.1666 318.2249 -0.4255 -0.3659 -0.8277 178 103 115
156.0064 125.1032 335.7926 -0.6905 -0.5643 -0.4525 185 184 189
127.5567 137.7424 373.9526 -0.6215 -0.4816 -0.6180 100 102 103
-1169.4749 683.8664 1838.3940 0.0000 0.0000 0.0000 225 229 234
183.1572 115.7302 308.6726 -0.4335 -0.0504 -0.8997 220 196 200
174.2432 118.4996 317.2601 -0.3719 -0.3046 -0.8769 193 113 126
163.8286 120.7895 324.2415 -0.4917 -0.6289 -0.6022 192 191 196
147.2097 127.9928 341.9441 -0.3578 -0.5475 -0.7564 147 108 112
141.6293 125.7813 343.4111 -0.5095 -0.2928 -0.8091 243 243 243
136.1667 131.6201 356.3631 -0.3298 -0.7708 -0.5451 117 114 119
131.1200 138.4994 372.6631 -0.5997 -0.3493 -0.7199 100 101 105
122.8717 143.9128 385.8837 -0.9279 -0.2116 -0.3071 186 188 189
116.5601 152.5786 409.4957 -0.9521 -0.0017 -0.3058 102 102 106
-954.1447 683.4963 1882.6864 0.0000 0.0000 0.0000 235 239 243
178.3651 119.5854 316.3482 -0.4794 -0.2455 -0.8426 195 190 192
166.3166 121.0060 320.7945 -0.5645 -0.6192 -0.5458 211 210 213
156.8453 124.2811 331.1531 -0.7299 -0.5513 -0.4040 187 187 189
149.3823 127.9108 338.9304 -0.4747 -0.6685 -0.5725 155 70 88
138.7301 131.6779 351.8338 -0.3200 -0.6595 -0.6802 112 111 116
113.4216 162.3505 433.8289 -0.9216 0.0252 -0.3873 186 187 191
185.3629 115.9226 306.9054 -0.1346 -0.0713 -0.9883 145 48 67
158.4876 123.8486 327.3377 -0.6630 -0.5800 -0.4733 218 217 220
143.0424 132.9182 351.1775 -0.3183 -0.1434 -0.9371 255 255 255
131.1355 136.1821 363.7067 -0.0835 0.5010 -0.8614 31 31 35
124.8881 142.8308 378.7787 -0.9077 -0.2169 -0.3591 121 120 125
116.0129 148.4801 396.5788 -0.9337 -0.2437 -0.2624 129 130 136
190.2107 117.5090 308.4226 0.0000 0.0000 0.0000 158 91 100
183.2450 120.2684 311.3555 -0.5462 -0.2522 -0.7988 200 195 199
177.3868 118.1942 311.5298 -0.5653 -0.2313 -0.7918 205 200 201
167.7780 120.7037 318.5215 -0.5446 -0.6236 -0.5609 175 110 130
160.5890 123.7928 325.2159 -0.6079 -0.5443 -0.5781 196 195 198
152.1737 128.2232 337.5879 -0.4988 -0.7599 -0.4167 176 97 108
132.8970 135.3284 356.6922 -0.3350 -0.7345 -0.5902 65 68 79
127.7730 142.6816 373.5590 -0.7390 -0.2192 -0.6370 124 126 128
113.7789 158.7001 415.9478 -0.9596 0.0278 -0.2801 153 155 157
-989.0666 688.2523 1903.9492 0.0000 0.0000 0.0000 234 238 244
170.0897 120.9431 316.8170 -0.3897 -0.5368 -0.7484 152 58 76
154.1768 128.0545 333.6886 -0.6829 -0.6186 -0.3886 197 189 194
143.5087 131.4444 344.5789 -0.6684 -0.0620 -0.7412 255 255 255
118.6832 148.0664 389.9470 -0.9084 -0.1990 -0.3678 173 173 177
172.5018 121.2618 315.5195 -0.2924 -0.4672 -0.8344 221 198 201
162.7683 124.0428 322.9756 -0.6597 -0.5250 -0.5378 215 215 217
145.8863 131.2355 342.0297 -0.6347 -0.2264 -0.7389 116 111 115
135.2226 135.2069 351.9486 -0.3791 -0.4698 -0.7972 105 104 107
130.3015 142.5352 371.2924 -0.5576 -0.2468 -0.7926 108 109 113
122.3563 148.4429 386.3031 -0.9180 -0.2221 -0.3286 108 110 111
115.0987 155.9093 408.5935 -0.9549 -0.0160 -0.2965 149 151 152
181.9957 118.5130 307.5839 -0.4490 -0.2191 -0.8663 195 180 185
175.1447 121.6052 314.4636 -0.4571 -0.3735 -0.8072 179 174 178
164.9898 124.0812 320.1518 -0.7194 -0.5053 -0.4766 225 222 226
155.3813 127.2476 329.5630 -0.7723 -0.4937 -0.3997 180 176 182
137.8710 135.2939 351.1648 -0.4221 -0.6169 -0.6643 120 120 122
132.8107 142.1512 367.6313 -0.3239 0.4573 -0.8282 121 123 124
-837.7278 617.9003 1670.0582 0.0000 0.0000 0.0000 236 237 244
157.5892 127.3598 326.7363 -0.6820 -0.5256 -0.5085 189 188 191
146.6640 130.0285 336.5858 -0.5674 -0.5371 -0.6241 84 51 56
140.9078 135.4156 347.6482 -0.6875 -0.3021 -0.6604 241 241 241
123.5425 146.6247 380.0310 -0.9189 -0.1659 -0.3580 92 92 94
116.5997 154.1654 399.4994 -0.8968 0.2710 -0.3496 180 182 184
182.4059 118.0394 306.4297 -0.0757 -0.1542 -0.9851 167 153 155
176.4909 121.2997 310.6064 -0.5062 -0.3328 -0.7956 153 150 153
166.3167 123.6187 317.6974 -0.6139 -0.5179 -0.5958 190 187 191
149.1855 130.2715 333.7957 -0.4417 -0.8048 -0.3964 158 71 87
178.6868 121.4951 308.8157 -0.4714 -0.2953 -0.8310 194 194 194
168.9208 123.9680 315.6917 -0.3869 -0.4091 -0.8264 247 222 223
158.9510 126.8550 323.9601 -0.6580 -0.4101 -0.6316 196 198 200
140.6000 133.5196 343.1919 -0.7436 -0.1267 -0.6565 255 255 255
130.7009 138.1185 352.8923 -0.6007 -0.6668 -0.4411 107 108 112
124.1146 144.2427 369.3354 -0.5933 -0.0958 -0.7993 118 117 120
118.4655 152.6865 390.7582 -0.9055 0.0322 -0.4231 132 134 138
157.8274 -126.0644 301.4838 -0.6861 -0.3865 -0.6164 232 175 185
146.7039 -134.4762 322.0216 -0.7966 -0.3838 -0.4671 201 201 203
140.1064 -146.8718 352.6166 -0.6967 -0.5261 -0.4877 185 184 189
134.6510 -154.7549 370.5358 -0.8866 -0.3090 -0.3442 189 188 193
172.8454 -116.5697 282.3330 0.0000 0.0000 0.0000 199 199 201
159.0543 -123.6259 298.2505 -0.6494 -0.4252 -0.6304 242 228 235
144.0145 -138.6180 334.0741 -0.8516 -0.3517 -0.3886 154 151 155
135.5597 -149.7759 362.3207 -0.8582 -0.3404 -0.3842 177 174 180
166.3066 -118.4646 287.5348 -0.4576 -0.1476 -0.8768 212 212 212
140.8730 -142.2959 345.1039 -0.7533 -0.4747 -0.4552 196 195 198
133.3118 -156.3974 379.9348 -0.9444 -0.1987 -0.2621 159 159 161
155.2941 -125.0140 304.4292 -0.6859 -0.3873 -0.6161 198 123 135
145.0186 -134.9993 328.5321 -0.8584 -0.3145 -0.4051 183 182 185
167.9456 -116.5233 285.0912 -0.5811 -0.1841 -0.7928 243 243 245
146.4246 -131.8650 323.8457 -0.8629 -0.3267 -0.3855 173 170 175
141.8049 -138.1871 338.5535 -0.7928 -0.4207 -0.4410 158 158 160
136.1797 -144.8839 354.2516 -0.7574 -0.4663 -0.4571 189 188 191
132.4556 -148.8243 366.2410 -0.9328 -0.1659 -0.3198 168 167 170
156.6501 -122.4929 300.8896 -0.6918 -0.3210 -0.6469 218 136 150
137.8081 -141.4812 349.2019 -0.7369 -0.4423 -0.5112 183 182 185
-1074.2373 -763.7458 1880.1624 0.3307 0.2842 -0.8999 214 214 214
