ply
format ascii 1.0
element vertex 793
property float x
property float y
property float z
property float nx
property float ny
property float nz
property uchar red
property uchar green
property uchar blue
end_header
140.6076 -2.1876 339.3321 0.0755 -0.1063 -0.9915 31 35 68
122.6252 -2.9911 365.9379 -0.2454 -0.0144 -0.9693 255 227 205
107.3197 -2.9784 369.4792 0.0159 0.0273 -0.9995 207 167 149
70.5742 -1.8725 329.7881 -0.0175 -0.1647 -0.9862 242 206 191
53.0585 -2.7438 332.7663 0.2676 -0.3629 -0.8926 233 193 174
38.0421 -2.3517 330.8287 -0.0271 -0.5026 -0.8641 175 106 107
23.5414 -2.4404 334.2774 -0.3327 -0.4945 -0.8030 255 242 227
-40.8191 -2.2494 334.7300 0.6737 -0.1319 -0.7271 169 133 116
-43.8807 -2.7584 331.2431 0.5341 -0.2276 -0.8142 118 101 89
-58.4180 -2.1746 328.0874 -0.1524 -0.1358 -0.9789 255 255 244
-73.7336 -2.1152 330.6817 -0.2204 -0.0530 -0.9740 255 255 246
-90.0253 -2.2943 335.8921 -0.4311 -0.1328 -0.8925 255 255 255
-146.6471 -3.6117 382.0280 0.6266 -0.1034 -0.7725 78 82 88
-1086.8671 -14.7220 1907.2366 -0.4248 -0.0640 -0.9030 227 227 227
180.5713 -1.3979 284.6674 -0.0981 -0.1516 -0.9836 61 57 56
170.2165 -1.5053 287.3586 -0.2870 0.1145 -0.9511 114 109 113
144.7471 -1.4723 340.7526 0.1688 -0.0060 -0.9856 19 19 48
126.3219 -2.0681 365.6155 -0.4136 -0.0458 -0.9093 255 246 225
111.1088 -2.0374 368.9563 -0.1777 0.0577 -0.9824 218 180 163
56.5381 -1.9305 332.8956 0.0812 -0.2622 -0.9616 255 215 198
41.2542 -1.3336 328.6487 -0.1769 -0.4902 -0.8535 255 230 231
26.8012 -1.3705 331.5667 -0.4634 -0.4321 -0.7737 255 228 212
8.2828 -2.2319 334.4133 -0.4541 -0.7369 -0.5008 220 175 154
-37.6020 -1.5903 336.7020 0.4798 -0.1077 -0.8708 186 152 136
-54.7480 -1.2821 327.0939 -0.0294 -0.1548 -0.9875 255 254 237
-86.0397 -1.3102 334.1339 -0.3965 -0.0990 -0.9127 255 255 255
-102.6993 -1.4563 339.0147 0.1595 -0.1052 -0.9816 138 123 119
-105.1481 -1.8949 334.4377 0.2284 -0.1196 -0.9662 83 69 69
184.1776 -0.7856 285.2203 -0.1573 -0.2900 -0.9440 0 0 0
158.7864 -1.1202 302.2860 -0.4868 -0.0728 -0.8705 89 86 91
151.1470 -2.0051 313.9312 -0.2626 -0.4588 -0.8488 79 80 84
149.1675 -1.2112 324.7426 -0.3401 -0.1876 -0.9215 147 146 149
148.9559 -0.7654 342.2694 0.0255 0.0851 -0.9960 29 26 45
129.8450 -1.0972 364.4871 -0.4589 -0.0714 -0.8856 255 255 235
114.6352 -1.0488 367.8138 -0.2033 0.1125 -0.9726 230 193 178
73.8647 -1.0004 329.0905 0.2509 -0.0783 -0.9648 214 180 164
59.6427 -0.9185 330.8182 -0.0828 -0.1404 -0.9866 255 238 220
11.6182 -0.8470 328.2537 0.2398 -0.7587 -0.6057 255 249 232
-3.4267 -1.3510 337.0562 0.1754 -0.6429 -0.7456 255 223 201
-18.6359 -1.0792 336.9897 -0.0993 -0.7496 -0.6544 228 194 190
-34.0180 -0.9059 338.4197 0.3733 -0.0702 -0.9251 169 155 148
-70.0327 -1.2246 329.7913 -0.2344 -0.0227 -0.9719 255 238 227
-99.3204 -0.6921 339.9839 -0.2459 -0.0558 -0.9677 218 199 190
165.9640 -0.3036 291.7200 -0.2041 0.5209 -0.8288 166 161 165
159.3314 0.0837 297.4175 -0.0932 0.0334 -0.9951 106 103 109
153.0605 -0.9442 310.6885 0.0024 -0.0719 -0.9974 101 101 103
132.9863 -0.3302 340.3709 -0.1779 0.1484 -0.9728 24 24 51
118.2783 -0.0896 366.9570 -0.2372 0.1368 -0.9618 240 204 187
102.5169 0.0537 369.0987 0.4796 0.0300 -0.8770 186 146 128
89.0475 -0.0636 347.9701 0.8021 -0.0985 -0.5890 185 152 133
83.9825 -0.4401 342.0908 0.8340 -0.1438 -0.5326 150 112 91
78.0194 -0.4477 332.2022 0.5381 -0.0320 -0.8423 171 138 117
63.0511 -0.0514 330.2010 -0.1490 -0.0661 -0.9866 255 235 214
44.5410 -0.3514 326.6576 -0.0454 -0.4245 -0.9043 255 236 233
30.1057 -0.2921 328.5721 -0.3035 -0.4969 -0.8130 255 255 239
15.3534 -0.2855 331.1919 0.5787 -0.5737 -0.5796 231 182 171
0.2529 -0.4872 336.6694 0.1843 -0.7134 -0.6761 242 204 183
-51.3317 -0.5387 327.8019 0.1048 -0.1695 -0.9799 255 226 209
-66.6005 -0.3899 329.5368 -0.2053 -0.0069 -0.9787 255 255 244
-81.9039 -0.2794 331.6616 -0.2768 -0.0796 -0.9576 255 255 255
173.7653 0.2520 284.0044 -0.2197 0.5591 -0.7994 144 139 141
168.2886 0.5095 290.7877 -0.4752 0.5009 -0.7234 113 103 111
154.8260 0.0645 308.0605 -0.2736 -0.0277 -0.9614 150 143 148
136.4769 0.5231 340.0575 -0.2089 -0.0729 -0.9752 24 26 55
128.5965 0.8864 349.8776 -0.9425 -0.0166 0.3337 255 246 235
121.8722 0.8627 366.1923 -0.2773 0.1201 -0.9532 242 207 187
106.6312 0.8970 369.9243 0.1254 0.1085 -0.9862 201 158 139
95.6189 -0.0179 358.2479 0.8389 -0.0011 -0.5442 160 117 102
48.1218 0.3673 327.7950 0.3565 -0.3201 -0.8778 193 142 130
33.4604 0.6128 327.5435 -0.0175 -0.5018 -0.8648 236 186 169
19.1002 0.2906 334.3095 0.1761 -0.5401 -0.8230 215 168 161
4.0214 0.1888 338.5670 -0.2111 -0.7614 -0.6129 226 183 168
-15.0281 -0.1875 336.2454 -0.0367 -0.7889 -0.6134 255 233 217
-47.8996 0.2284 328.2531 0.2874 -0.2186 -0.9325 226 201 191
-62.7169 0.5184 328.3136 -0.2082 -0.0425 -0.9772 255 255 250
-78.4793 0.4984 332.1429 -0.1415 -0.0239 -0.9897 255 255 240
-95.1719 0.2906 338.2505 -0.3626 -0.1218 -0.9240 255 242 229
-1030.6831 3.6688 1958.8867 -0.3396 0.2544 -0.9055 228 228 230
177.0654 0.8719 284.9320 -0.0685 0.4046 -0.9119 170 168 169
170.7263 1.3192 289.6871 -0.4779 0.5262 -0.7033 136 129 132
156.2530 1.1324 304.6573 -0.3214 0.2714 -0.9072 92 89 97
146.0700 0.7745 310.9453 -0.2495 -0.1120 -0.9619 34 36 40
66.3835 0.7876 329.9534 -0.1658 -0.0647 -0.9840 252 214 195
51.8095 1.0176 329.9009 0.4354 -0.2013 -0.8775 183 137 123
37.2426 1.2351 329.9563 0.0672 -0.4486 -0.8912 174 103 106
22.6392 1.2111 333.1995 -0.2551 -0.5205 -0.8149 217 186 180
-11.3865 0.7672 334.6918 0.0763 -0.7508 -0.6561 255 246 228
-44.6123 0.9682 329.1366 0.4827 -0.2271 -0.8458 165 146 136
-59.1145 1.3708 327.7462 -0.1945 -0.0764 -0.9779 255 255 243
-74.7032 1.3814 331.2992 -0.1659 0.0095 -0.9861 255 255 242
-90.8714 1.2994 335.9883 -0.4126 -0.0970 -0.9058 255 255 255
163.5793 1.8470 294.0177 -0.3761 0.7215 -0.5814 145 142 145
158.2200 2.0610 302.6028 -0.6098 0.3604 -0.7059 134 131 137
146.4648 2.0352 305.4069 -0.0771 0.5570 -0.8270 105 104 109
139.4599 1.4635 338.4609 -0.0860 -0.2165 -0.9725 22 23 50
125.4929 1.8008 365.4867 -0.4780 0.0689 -0.8756 255 222 201
110.3893 1.8275 369.5233 -0.1246 0.1634 -0.9787 224 186 171
69.8699 1.5739 330.3051 -0.0577 -0.0732 -0.9956 239 202 182
55.2212 1.8417 329.8606 0.1845 -0.0619 -0.9809 227 184 173
40.4911 2.1536 328.7069 -0.0771 -0.4169 -0.9057 255 255 255
-22.9428 1.8559 334.9640 -0.1283 -0.7673 -0.6283 213 192 181
-38.3071 2.0416 336.3653 0.5425 -0.2632 -0.7978 181 145 129
-41.5443 1.4774 332.9526 0.6572 -0.2213 -0.7205 172 143 128
-103.8065 2.0969 340.2486 0.1158 0.3105 -0.9435 131 118 113
-106.5007 1.5215 336.7468 0.3444 0.2259 -0.9113 120 114 111
172.6805 2.1876 287.8221 -0.3873 0.6188 -0.6834 162 159 163
166.7943 2.5282 294.6500 -0.3280 0.7128 -0.6199 149 143 148
150.4535 2.6457 307.1583 0.0491 0.4049 -0.9131 100 99 106
145.7797 2.6732 319.3330 -0.3588 -0.2665 -0.8945 49 46 52
143.4260 2.2089 339.5134 -0.1518 -0.7157 -0.6817 141 139 149
129.0764 2.7473 364.5437 -0.5807 -0.1094 -0.8067 255 238 219
113.8239 2.8246 368.0334 -0.1947 0.2203 -0.9558 226 190 175
73.1199 2.4604 329.4200 0.2125 -0.0345 -0.9766 216 185 168
58.7876 2.6141 330.5092 -0.0029 0.0212 -0.9998 255 230 215
25.8274 2.3092 329.7014 -0.4075 -0.4378 -0.8015 230 202 193
-34.6743 2.9063 335.8054 0.3559 -0.3016 -0.8845 185 150 132
-55.5974 2.2132 327.2894 -0.0695 -0.0696 -0.9952 255 246 230
-70.9106 2.2980 329.9963 -0.2156 0.0246 -0.9762 255 237 225
-86.9111 2.2551 334.3086 -0.3838 -0.0655 -0.9211 255 255 255
174.8947 2.9888 286.8542 -0.3653 0.6511 -0.6653 123 119 118
159.9985 3.0092 300.0297 -0.6082 0.4396 -0.6610 112 111 118
132.2271 3.2497 340.7339 -0.3807 -0.1313 -0.9153 20 20 50
117.8580 3.6953 368.4633 -0.2455 0.1898 -0.9506 247 213 195
76.9592 3.1557 330.9387 0.5288 0.0050 -0.8487 214 179 168
62.2146 3.4444 330.3058 -0.1706 0.0376 -0.9846 255 228 210
43.5640 3.1881 325.7775 -0.0553 -0.3269 -0.9434 255 227 230
29.1837 3.2801 327.6181 -0.3513 -0.3979 -0.8475 255 249 236
10.5736 3.1183 322.0880 0.1069 -0.7720 -0.6265 255 243 229
-19.2528 2.9084 331.7873 -0.0693 -0.6634 -0.7451 224 194 183
-52.0652 3.0346 327.0273 0.0509 -0.0662 -0.9965 255 232 218
-67.2954 3.1596 329.3028 -0.2425 0.0362 -0.9695 255 255 244
-82.7564 3.2362 332.1870 -0.2885 -0.0482 -0.9563 255 255 249
-99.8029 3.0408 338.7972 -0.3232 0.1110 -0.9398 185 167 153
-698.7390 16.7440 1741.4664 0.0000 0.0000 0.0000 136 138 139
177.2949 3.7596 286.0053 -0.4835 0.5380 -0.6905 129 124 128
168.4565 3.4362 292.4316 -0.5341 0.6331 -0.5602 128 123 127
152.7729 3.5298 305.3962 -0.2454 0.3503 -0.9039 206 203 209
145.4989 4.0347 311.8145 -0.4141 0.0616 -0.9081 124 121 124
143.3558 3.6263 331.2618 -0.7582 -0.5373 -0.3694 122 121 126
136.0488 4.0355 341.3784 -0.3609 -0.2335 -0.9029 24 24 49
121.6539 4.6060 368.2354 -0.3219 0.1316 -0.9376 240 206 188
101.0943 4.0543 367.6373 0.6920 0.1584 -0.7043 173 133 115
93.6821 4.0503 354.1059 0.8563 0.0104 -0.5163 171 131 113
87.6160 3.7691 345.7095 0.8179 -0.0689 -0.5712 172 134 115
82.1603 3.4848 337.6011 0.7684 -0.0422 -0.6385 155 120 98
65.3945 4.3345 329.3314 -0.2253 0.0107 -0.9742 255 231 213
46.9075 4.0065 325.6680 0.3278 -0.1463 -0.9333 241 181 174
18.3096 4.0169 331.9634 0.4926 -0.5021 -0.7107 166 108 102
14.3375 3.6442 325.8495 0.6156 -0.6282 -0.4758 203 160 145
-15.5126 3.9840 328.2802 0.1968 -0.5788 -0.7914 191 190 167
-48.5999 3.8089 327.4349 0.1799 -0.0739 -0.9809 251 219 205
-63.5759 4.0233 328.5432 -0.2645 -0.0182 -0.9642 255 255 249
-79.0613 4.1002 331.5364 -0.1680 -0.0016 -0.9858 255 255 242
-95.9206 3.9372 337.9483 -0.3686 -0.0821 -0.9260 254 226 215
171.3664 4.1891 291.7416 -0.4945 0.6203 -0.6089 118 115 120
156.6715 4.1854 306.4829 -0.4081 0.4202 -0.8105 63 41 53
128.2757 4.4641 351.3083 0.5512 0.3718 -0.7470 255 227 213
105.6982 4.7821 370.4804 0.2577 0.2053 -0.9442 200 160 142
50.7776 4.6012 328.8199 0.5209 -0.0202 -0.8534 170 125 108
32.4271 4.2503 325.4038 -0.2007 -0.4050 -0.8920 255 208 193
21.7861 4.7953 332.6896 -0.1387 -0.4767 -0.8680 186 141 135
-11.9170 4.7311 329.2635 0.0908 -0.6490 -0.7554 255 255 244
-45.1842 4.5714 328.0189 0.3341 -0.0990 -0.9373 205 180 168
-59.9800 4.8806 327.8144 -0.2185 -0.0388 -0.9751 255 255 248
-91.7229 4.9093 335.9260 -0.4019 -0.0781 -0.9124 255 255 247
-111.1416 4.2734 336.9019 -0.1927 -0.4842 -0.8535 95 93 91
174.1404 4.9369 291.2851 -0.4094 0.5159 -0.7525 105 97 104
159.3985 4.9865 306.0650 -0.6165 0.3296 -0.7151 85 73 75
147.0415 5.0502 308.4710 -0.1169 0.5575 -0.8219 176 178 184
141.2017 5.3197 318.8438 -0.5247 -0.4878 -0.6977 19 17 27
124.8522 5.6230 366.1351 -0.4632 0.1187 -0.8783 242 210 195
109.6649 5.6724 370.7626 -0.1283 0.2189 -0.9673 218 180 163
68.7532 5.1781 328.8111 -0.0927 -0.0088 -0.9957 255 221 199
54.6041 5.2836 330.7660 0.3827 0.0552 -0.9222 203 158 146
35.8365 5.0069 326.1588 0.0861 -0.3950 -0.9146 167 96 99
-42.0272 5.1995 330.6918 0.5855 -0.1886 -0.7885 174 149 133
-75.3838 4.9730 330.6899 -0.1452 -0.0010 -0.9894 255 226 211
-105.2992 5.5880 342.5921 -0.2389 0.4345 -0.8684 142 130 123
168.3354 5.3448 298.3355 -0.2828 0.5849 -0.7602 130 126 132
155.0773 6.3615 311.4027 -0.3844 0.3054 -0.8712 105 70 77
151.7645 5.5906 311.5095 -0.0682 0.5422 -0.8375 120 117 123
128.2794 6.5809 365.0204 -0.6124 -0.0230 -0.7902 255 225 209
113.2906 6.6422 369.4732 -0.1922 0.2019 -0.9604 229 195 182
72.2896 5.9668 329.0891 0.2026 -0.0078 -0.9792 218 184 166
58.1990 6.0471 331.6124 0.1053 0.1148 -0.9878 238 196 185
39.1934 5.8168 326.2929 0.1148 -0.3179 -0.9412 213 145 154
24.9850 5.8735 328.8845 -0.2801 -0.3538 -0.8924 198 174 168
-8.4159 5.5416 329.2436 -0.0628 -0.6995 -0.7119 255 239 223
-38.8371 5.7691 334.4207 0.5580 -0.2872 -0.7786 182 146 131
-56.2319 5.7782 326.3861 -0.0854 -0.0238 -0.9961 255 251 235
-71.9881 5.7613 331.1462 -0.1836 -0.0084 -0.9830 255 253 237
-87.5467 5.8927 333.5260 -0.3604 -0.0424 -0.9318 255 255 255
-994.3329 34.3856 1963.4646 -0.4104 -0.2814 -0.8674 227 227 227
-1081.6862 31.7470 1916.4006 0.1501 0.0472 -0.9875 229 229 231
177.1720 5.6400 291.5291 -0.4375 0.4238 -0.7931 103 87 97
170.2537 6.2167 296.5322 -0.5798 0.4605 -0.6721 159 156 161
160.8427 5.9771 302.5691 -0.6843 0.2392 -0.6889 174 169 173
144.3953 6.1191 318.6150 -0.3080 -0.1634 -0.9373 153 149 157
138.5583 6.4019 330.0909 -0.4039 -0.6225 -0.6704 87 83 89
131.6714 6.8061 341.5882 -0.3100 -0.4339 -0.8460 38 40 73
117.2620 7.5322 369.5501 -0.2207 0.1905 -0.9565 237 204 188
99.2770 8.0962 365.2141 0.7230 0.2813 -0.6310 139 96 79
76.0870 6.6862 330.5457 0.4862 0.0765 -0.8705 216 185 168
61.5799 6.8867 331.3012 -0.1898 0.1277 -0.9735 255 228 213
42.6418 6.7208 324.6964 0.0239 -0.1945 -0.9806 255 246 250
28.2321 6.8365 326.6397 -0.3522 -0.2243 -0.9086 255 227 216
6.3717 6.1032 316.9431 -0.3786 -0.6444 -0.6644 255 255 252
-4.9529 6.4434 327.9512 -0.2432 -0.7404 -0.6266 255 244 223
-23.2226 6.0415 325.6054 -0.3998 0.0082 -0.9166 202 168 157
-35.7268 6.3511 338.2463 0.1624 -0.3189 -0.9338 181 145 127
-52.7617 6.5819 326.4410 0.0108 -0.0186 -0.9998 255 228 210
-68.1639 6.6554 329.8721 -0.2365 0.0049 -0.9716 255 255 248
-83.5327 6.8075 332.0411 -0.2929 -0.0045 -0.9561 255 255 253
-100.8367 6.6333 339.5002 -0.3051 -0.0792 -0.9490 176 158 146
179.3928 6.4407 290.2533 -0.5472 0.3837 -0.7438 111 38 54
127.6981 8.1530 352.3313 0.8242 0.0948 -0.5584 240 212 199
104.7221 8.7130 370.3867 0.3145 0.2503 -0.9157 199 161 142
91.9133 7.9821 350.8058 0.8747 0.1364 -0.4650 189 152 130
86.0406 7.6091 342.5080 0.8222 0.0500 -0.5670 150 112 91
80.6002 7.2465 334.5985 0.7062 0.1057 -0.7000 173 136 121
45.8542 7.5790 323.9111 0.2457 -0.0364 -0.9687 255 204 203
9.6821 6.9574 315.9738 0.0860 -0.6336 -0.7689 255 246 232
-19.6864 7.0275 322.9154 -0.2101 -0.0797 -0.9744 211 196 172
-31.6790 7.4577 333.8714 -0.2232 -0.2137 -0.9511 185 149 136
-49.4012 7.3280 327.3453 0.0766 -0.0332 -0.9965 255 225 209
-64.4722 7.5319 328.7763 -0.2677 0.0085 -0.9635 255 255 252
-79.9044 7.6375 331.8411 -0.2017 0.0174 -0.9793 255 255 246
-96.7623 7.5500 338.1770 -0.4285 0.0217 -0.9033 234 211 200
-112.8754 7.5682 328.1619 -0.4691 -0.5840 -0.6625 80 80 84
-1015.4098 40.6715 1872.9952 0.6900 0.4006 -0.6029 230 230 232
172.1830 7.0840 294.1540 -0.5404 0.3807 -0.7503 139 131 138
156.5810 7.3388 307.7614 -0.3880 0.3130 -0.8669 146 66 82
139.7375 7.5384 324.6290 -0.4486 -0.2735 -0.8508 126 123 129
120.7494 8.4880 368.3885 -0.3122 0.1746 -0.9338 242 210 195
64.7961 7.7648 330.2376 -0.2961 0.0871 -0.9512 255 242 224
49.7790 8.1868 327.1527 0.5341 0.0666 -0.8428 163 108 99
31.4484 7.8251 323.6893 -0.3461 -0.1778 -0.9212 255 236 223
13.0360 7.6256 317.7811 0.4115 -0.5695 -0.7116 229 191 183
-1.3389 7.4866 324.0553 -0.4313 -0.6582 -0.6171 255 254 230
-16.1820 7.7428 324.4078 -0.0206 -0.3117 -0.9499 166 158 149
-27.5797 8.5742 328.8168 -0.6006 0.1105 -0.7919 187 153 140
-45.9129 8.1325 327.3349 0.2666 -0.0901 -0.9596 228 199 186
-1091.4243 47.3482 1889.9786 -0.1472 -0.0710 -0.9866 236 236 238
179.8422 7.4370 286.0680 -0.4187 0.3492 -0.8383 161 116 124
174.4115 7.8885 292.9903 -0.4224 0.2707 -0.8650 166 161 167
159.3294 8.1372 307.2168 -0.5647 0.2097 -0.7982 167 89 104
147.3608 8.1595 310.9465 -0.1697 0.2082 -0.9633 142 141 148
124.0735 9.4719 366.5941 -0.3890 0.2542 -0.8855 235 203 188
109.0657 9.5478 371.6260 -0.1076 0.2062 -0.9726 220 184 169
68.0381 8.6473 329.0346 -0.1642 0.0965 -0.9817 255 225 205
53.7768 8.7971 330.7019 0.5140 0.0828 -0.8538 180 139 130
34.7604 8.6586 323.1792 -0.0371 -0.1392 -0.9896 189 118 122
20.5510 8.6263 327.8777 0.4796 -0.4371 -0.7609 181 136 131
16.8473 8.0564 323.6786 0.7202 -0.5084 -0.4720 154 110 100
2.1328 8.4784 320.8508 -0.5113 -0.5457 -0.6639 255 255 244
-12.7095 8.4599 325.7839 -0.0233 -0.4951 -0.8685 223 206 184
-24.1063 9.4746 327.4344 -0.5988 0.2005 -0.7754 199 166 154
-42.7436 8.8232 329.3711 0.4502 -0.1184 -0.8850 206 178 167
-60.6886 8.4180 327.3912 -0.2287 0.0516 -0.9721 255 255 250
-76.1755 8.5227 330.6855 -0.1337 -0.0079 -0.9910 255 244 230
-92.5122 8.5110 335.8826 -0.4027 -0.0056 -0.9153 255 248 231
-1084.5999 52.6562 1913.5251 -0.2218 0.1995 -0.9545 230 230 232
176.7870 8.6640 292.1189 -0.4889 0.1072 -0.8657 170 162 169
168.3577 8.4003 299.5862 -0.3305 0.3163 -0.8892 188 185 190
161.1364 9.0527 304.4276 -0.7468 0.1353 -0.6511 195 183 187
151.8730 8.7676 313.4320 -0.1585 0.2227 -0.9619 13 10 16
140.0014 8.7503 317.6972 -0.5409 0.0200 -0.8409 113 111 114
133.5564 9.1817 328.6034 -0.5036 -0.4120 -0.7594 107 106 111
127.4519 10.4261 365.3408 -0.5098 0.3086 -0.8030 232 200 186
112.7841 10.4824 370.8755 -0.1887 0.1563 -0.9695 229 195 182
71.4764 9.4535 329.0703 0.1615 0.1199 -0.9796 244 213 194
57.4180 9.5579 331.7259 0.1489 0.1788 -0.9725 224 185 175
38.5044 9.3131 325.8594 0.2286 -0.0192 -0.9733 162 90 101
23.9509 9.4877 327.1379 -0.0074 -0.2866 -0.9580 175 137 134
-9.0966 9.3120 324.9074 -0.1985 -0.5815 -0.7889 255 241 221
-39.3466 9.5270 331.3166 0.5483 -0.2288 -0.8043 196 164 150
-56.9719 9.2853 326.3127 -0.1094 0.0862 -0.9902 255 253 236
-72.9015 9.2821 331.6527 -0.1499 -0.0235 -0.9884 255 244 226
-88.4953 9.4292 334.2851 -0.3644 0.0164 -0.9311 255 255 249
-1088.5066 57.6088 1959.4713 0.3834 -0.6191 -0.6854 224 226 228
-1123.4160 53.3764 1832.7432 -0.1556 0.4030 -0.9019 227 227 227
171.1581 9.1517 299.5094 -0.6724 0.2323 -0.7028 237 234 237
155.3762 9.5036 313.5343 -0.4203 0.0559 -0.9056 123 98 100
116.4846 11.4140 370.1504 -0.2418 0.1796 -0.9536 232 200 186
99.0894 11.8540 367.5273 0.7197 0.3217 -0.6153 148 108 89
75.1673 10.2063 330.0472 0.4462 0.1484 -0.8826 223 193 178
60.7938 10.3886 331.4966 -0.1228 0.2118 -0.9696 246 210 195
41.9897 10.1205 325.7557 0.1582 0.0481 -0.9862 254 208 214
27.2897 10.3224 326.7113 -0.2207 -0.0412 -0.9745 212 167 164
5.4546 9.6510 314.3180 -0.4167 -0.4012 -0.8157 255 255 255
-20.4759 10.3845 325.3219 -0.3719 -0.0284 -0.9278 229 207 192
-36.0585 10.2326 333.4660 0.3341 -0.2865 -0.8979 193 159 143
-53.7034 10.0295 327.4236 -0.0651 0.0482 -0.9967 255 238 223
-69.1676 10.1414 330.8025 -0.2145 -0.0096 -0.9767 255 255 241
-84.7642 10.2984 333.4166 -0.3017 0.0350 -0.9528 255 255 239
-1080.6721 56.9768 1796.0630 0.0471 0.4093 -0.9112 224 227 226
178.2821 9.5256 289.6286 -0.6128 0.1581 -0.7743 157 112 125
162.6513 9.9640 301.6629 -0.5635 0.2359 -0.7917 203 195 200
147.0875 10.2736 317.9311 -0.4301 0.1757 -0.8855 88 90 94
135.0965 10.2323 323.9808 -0.2336 -0.1948 -0.9526 125 127 129
129.7652 10.5277 339.2095 -0.3756 -0.8136 -0.4438 206 206 208
128.1929 11.6959 356.7368 -0.3246 0.4147 -0.8501 217 190 177
119.8678 12.3840 368.5117 -0.2887 0.2486 -0.9246 232 201 184
104.7053 12.5054 373.1940 0.2996 0.2978 -0.9064 198 163 143
91.0583 11.6927 350.7156 0.8935 0.2084 -0.3977 174 138 120
84.9213 11.2910 341.3835 0.8019 0.1865 -0.5676 156 121 101
79.2399 10.8881 332.6012 0.6225 0.1708 -0.7638 180 147 129
45.1722 10.9835 324.7046 0.1805 0.1341 -0.9744 255 211 212
8.7688 10.5202 312.6497 -0.1097 -0.3571 -0.9276 255 255 240
-5.6059 10.2149 322.9858 -0.3314 -0.5515 -0.7655 255 255 235
-32.7353 10.9609 335.3541 -0.1180 -0.3399 -0.9330 208 176 164
-50.2217 10.8195 327.6591 -0.0427 -0.0290 -0.9987 255 230 213
-65.2859 11.0514 328.8685 -0.2558 0.0611 -0.9648 255 255 241
-80.7975 11.1840 332.0107 -0.2273 0.0314 -0.9733 255 255 242
-97.4133 11.1920 337.7286 -0.4754 0.1132 -0.8725 224 200 192
180.0259 10.3491 287.7958 -0.5480 0.2151 -0.8083 181 109 119
172.3621 10.0803 295.7538 -0.7360 0.1338 -0.6637 204 201 207
165.3633 10.7433 301.0130 -0.3373 0.2459 -0.9087 234 228 232
156.0608 10.5606 308.2503 -0.5499 0.0157 -0.8351 154 71 90
137.4105 11.1536 321.4156 -0.3492 -0.0403 -0.9362 92 91 96
63.9757 11.2726 330.0829 -0.3132 0.2002 -0.9284 255 222 204
48.8512 11.7044 326.3206 0.4723 0.1786 -0.8632 216 158 150
30.6930 11.2440 324.3301 -0.4200 0.0645 -0.9052 255 229 214
-2.0475 11.2138 319.1271 -0.4584 -0.4338 -0.7757 255 255 247
-16.8586 11.1987 324.8397 -0.1230 -0.0467 -0.9913 177 149 138
-28.9673 11.7779 335.5624 -0.4253 -0.3220 -0.8458 206 172 156
-46.7068 11.6556 327.0904 0.1648 -0.1009 -0.9811 237 205 193
174.5020 10.8891 294.2949 -0.5622 0.2490 -0.7886 205 204 207
168.3134 11.4910 300.8500 -0.3575 0.1514 -0.9216 223 220 223
158.9749 11.3379 308.0494 -0.5196 0.2560 -0.8152 157 68 85
148.6361 11.2292 314.6594 -0.2921 0.0745 -0.9535 247 247 247
144.3918 12.7105 321.6075 0.0000 0.0000 0.0000 73 66 82
123.3488 13.3254 367.2855 -0.2807 0.3583 -0.8904 228 196 182
108.5414 13.4257 372.7969 -0.1477 0.2261 -0.9628 216 179 164
67.3339 12.1133 329.4092 -0.2339 0.2408 -0.9420 255 229 211
53.0019 12.2940 331.0569 0.5418 0.1482 -0.8273 133 91 80
33.8493 12.1655 321.7945 -0.1369 0.1335 -0.9815 220 158 150
15.6282 11.8978 316.0966 0.6030 -0.3376 -0.7228 200 160 151
12.0700 11.2949 312.6766 0.3235 -0.3607 -0.8748 253 219 201
1.2812 12.1281 316.6074 -0.5428 -0.3085 -0.7812 255 255 250
-13.4107 12.0138 324.4969 -0.2448 -0.1597 -0.9563 255 255 241
-43.3663 12.3953 328.5066 0.3931 -0.1356 -0.9094 224 194 183
-61.4408 11.9312 327.3922 -0.2151 0.1284 -0.9681 255 255 246
-76.9799 12.0460 331.0602 -0.1613 0.0329 -0.9864 255 254 239
-93.2879 12.1210 335.7440 -0.4300 0.0120 -0.9028 255 238 224
-1086.1594 72.1924 1911.4548 -0.4500 0.0445 -0.8919 226 225 228
182.2889 11.1088 286.7257 -0.4132 0.3579 -0.8374 161 91 101
176.7371 11.6727 293.0811 -0.4938 0.2820 -0.8226 160 157 162
151.3961 12.0528 313.5887 -0.2745 0.2378 -0.9317 118 115 120
138.5391 12.1851 316.4420 -0.3514 0.2701 -0.8964 135 135 135
126.9326 14.2453 366.6535 -0.3808 0.4313 -0.8179 225 193 179
111.9696 14.3898 371.1346 -0.1968 0.1920 -0.9615 207 173 157
70.6880 12.9345 329.1452 0.0805 0.2968 -0.9515 239 203 186
56.7546 13.0401 332.6151 0.3281 0.1492 -0.9328 220 181 169
23.2095 12.9906 326.7025 0.3815 -0.0015 -0.9244 158 116 110
19.4164 12.3536 323.0995 0.7603 -0.2343 -0.6059 172 128 117
-9.8551 12.9084 322.4737 -0.3931 -0.2318 -0.8898 255 255 246
-40.0326 13.1330 330.1367 0.4532 -0.1983 -0.8691 214 181 172
-57.9290 12.7523 327.0583 -0.1497 0.1372 -0.9792 255 247 232
-73.4327 12.8795 330.6273 -0.1388 0.0579 -0.9886 255 249 232
-89.4534 12.9993 334.5527 -0.3918 0.0106 -0.9200 255 249 233
170.7590 12.2761 299.9568 -0.6591 0.0813 -0.7476 234 232 235
160.6575 12.2304 305.1142 -0.6446 0.2945 -0.7055 170 74 93
129.1879 15.2828 362.7699 -0.3893 0.5147 -0.7638 179 152 145
115.7986 15.3025 370.8693 -0.2009 0.2222 -0.9541 230 196 183
74.3115 13.7044 330.0953 0.4331 0.2721 -0.8593 218 187 170
60.2019 13.8648 332.4776 -0.0129 0.2446 -0.9695 233 197 184
26.6074 13.7893 327.1140 -0.0164 0.0896 -0.9958 186 153 146
4.6021 13.1031 312.4512 -0.4855 -0.1655 -0.8584 255 255 255
-25.1384 12.7803 331.0476 -0.5597 -0.2890 -0.7767 178 179 174
-36.7334 13.8590 332.2708 0.4075 -0.2566 -0.8764 191 157 143
-54.5541 13.5341 327.5963 -0.1624 0.0561 -0.9851 255 240 226
-69.7417 13.7286 329.7870 -0.1895 0.0688 -0.9795 255 244 227
-85.5731 13.8765 333.2570 -0.2802 0.0012 -0.9599 255 255 242
-1144.8556 79.3005 1893.8582 -0.2631 0.4192 -0.8689 221 221 221
177.8232 12.5510 289.8731 -0.5879 0.3144 -0.7453 193 187 194
172.1330 13.1537 296.7224 -0.6795 0.0528 -0.7318 204 201 205
162.2201 13.1193 302.1781 -0.5815 0.3394 -0.7394 166 151 158
153.2964 12.9369 311.0836 -0.3687 0.2214 -0.9028 119 116 120
133.5948 13.7332 322.2596 -0.3183 0.2660 -0.9099 108 109 115
119.6705 16.2083 370.5959 -0.2346 0.2680 -0.9344 231 200 183
103.8541 16.4404 373.3828 0.2568 0.3810 -0.8882 199 164 146
98.0265 15.7414 367.2700 0.7361 0.3074 -0.6031 161 120 104
90.1828 15.3976 351.0269 0.8862 0.2376 -0.3979 179 141 124
84.1485 14.8920 341.6407 0.7850 0.2703 -0.5574 155 119 102
78.3756 14.4114 332.6429 0.5551 0.3038 -0.7743 195 162 146
63.6153 14.6991 332.0352 -0.2520 0.3122 -0.9160 255 219 204
44.5846 14.3894 325.7534 0.0838 0.2606 -0.9618 255 220 220
30.0117 14.6174 326.6339 -0.4081 0.1850 -0.8940 217 178 166
-6.3653 13.7937 320.3867 -0.4204 -0.1847 -0.8883 255 255 255
-21.4851 13.7556 327.6352 -0.2343 -0.1183 -0.9649 255 220 203
-33.3007 14.6330 333.4042 0.1369 -0.3121 -0.9401 218 183 172
-50.8575 14.3719 326.7025 -0.1349 -0.0524 -0.9895 255 234 220
-66.1111 14.5663 329.1613 -0.2341 0.1031 -0.9667 255 251 238
-81.7365 14.7383 332.2204 -0.2103 0.0259 -0.9773 255 255 241
-130.7759 15.7494 351.9318 -0.5493 -0.2084 -0.8092 123 124 133
-1134.3706 84.1978 1912.9545 -0.4119 0.4769 -0.7764 224 227 226
180.3458 13.2888 289.5416 -0.5117 0.4160 -0.7517 200 188 192
165.2564 13.8609 302.1968 -0.3987 0.3718 -0.8383 203 200 203
155.6747 13.7819 309.2790 -0.4682 0.2385 -0.8508 133 124 127
147.7865 14.5614 314.8852 -0.5550 0.1557 -0.8171 255 255 255
136.6958 14.5360 321.9476 -0.3189 0.3405 -0.8845 52 53 60
123.1463 17.1433 369.7241 -0.1858 0.3300 -0.9255 220 186 172
107.6246 17.3647 372.6293 -0.2070 0.3253 -0.9226 217 181 166
47.9483 15.2000 325.5713 0.3797 0.2648 -0.8864 219 158 154
7.9812 13.9201 311.3988 -0.2087 -0.0865 -0.9742 255 250 233
-2.8775 14.6772 318.1103 -0.4573 -0.0314 -0.8888 255 255 255
-17.6783 14.6940 324.5923 -0.1573 0.0129 -0.9875 255 255 246
-94.9649 15.6250 338.6393 -0.4649 0.1625 -0.8703 233 208 198
173.3179 14.0211 293.4478 -0.4853 0.2574 -0.8356 208 205 208
168.2836 14.5998 302.2709 -0.4419 0.1867 -0.8774 206 204 207
158.4753 14.5654 308.6868 -0.5256 0.4010 -0.7503 177 101 108
139.4048 15.3881 320.3505 -0.3824 0.3027 -0.8730 92 94 93
128.4794 15.3325 328.5637 -0.4520 -0.0294 -0.8915 158 155 158
66.7514 15.5656 330.4385 -0.2464 0.3697 -0.8959 254 218 203
51.9006 15.8694 329.3167 0.5273 0.2351 -0.8165 165 122 104
33.1760 15.5174 324.0187 -0.2711 0.3260 -0.9057 255 224 211
11.3184 14.6877 311.4828 0.1359 0.0661 -0.9885 249 213 198
-14.1275 15.5444 323.2177 -0.3925 0.1362 -0.9096 255 255 255
-29.5319 15.5110 331.6446 -0.4157 -0.3169 -0.8525 247 214 193
-47.2379 15.1909 326.2543 0.0924 -0.1014 -0.9905 254 223 206
-62.5791 15.3846 328.9631 -0.2085 0.1074 -0.9721 255 255 239
-77.8593 15.5802 331.4081 -0.1870 0.0865 -0.9785 255 238 225
176.2012 14.7444 293.2094 -0.4048 0.4387 -0.8023 205 199 203
160.6453 15.4010 306.4698 -0.5805 0.3422 -0.7389 198 110 130
150.5110 15.3730 313.6023 -0.4438 0.2591 -0.8579 255 255 255
147.1185 15.8148 329.1487 -0.4415 0.3935 -0.8064 135 135 137
130.3605 16.2755 324.4019 -0.4938 0.2871 -0.8208 106 105 110
127.3943 18.0176 370.8340 -0.1289 0.4201 -0.8983 213 179 163
111.3437 18.2894 371.9921 -0.2345 0.3449 -0.9089 222 185 170
70.0425 16.3969 329.8534 0.0229 0.4226 -0.9060 235 199 184
55.9245 16.5649 332.7638 0.4005 0.2300 -0.8870 201 157 147
36.5208 16.3454 323.2966 0.2462 0.4268 -0.8702 198 134 138
22.5267 16.4902 326.2654 0.5064 0.3131 -0.8034 168 131 123
14.6956 15.4144 312.5540 0.5552 0.0793 -0.8279 216 179 168
0.5281 15.5295 316.2683 -0.5413 0.0595 -0.8387 255 255 255
-43.9585 15.9537 327.4722 0.3260 -0.1143 -0.9384 232 197 188
-59.0301 16.2153 328.3560 -0.1835 0.0801 -0.9797 255 255 244
-74.2477 16.4100 331.0357 -0.1536 0.1228 -0.9805 255 249 233
-1055.2781 91.0876 1848.1814 -0.0986 0.3664 -0.9252 231 233 235
178.4001 15.5120 291.8576 -0.5094 0.4211 -0.7505 235 230 234
170.2212 15.4156 300.3028 -0.6627 0.1137 -0.7402 223 220 223
163.1751 16.1937 305.1459 -0.5758 0.3071 -0.7577 196 113 120
152.6808 16.2220 311.5753 -0.2268 0.3189 -0.9203 231 228 231
115.2840 19.1913 372.1305 -0.2001 0.3257 -0.9241 219 183 168
97.8638 19.5798 369.6884 0.6602 0.4444 -0.6056 150 110 90
73.9210 17.1472 331.6155 0.3799 0.3737 -0.8462 225 193 181
59.6174 17.3537 333.5459 0.1149 0.2846 -0.9517 223 184 172
40.2692 17.0102 327.4775 0.2747 0.4618 -0.8434 173 99 106
25.9019 17.2555 327.8093 0.0540 0.3420 -0.9382 185 155 145
18.4787 15.9857 317.8456 0.8193 0.0902 -0.5662 195 156 144
3.8605 16.4358 312.8254 -0.5133 0.1528 -0.8445 255 255 251
-10.6164 16.4128 321.0935 -0.4438 0.1281 -0.8869 255 255 253
-25.2451 16.6559 321.9493 -0.5149 0.0730 -0.8541 255 255 249
-40.6881 16.7101 329.0307 0.4045 -0.1443 -0.9031 216 181 173
-55.5257 17.0162 328.4920 -0.2271 0.0226 -0.9736 255 249 234
-70.6624 17.2424 330.5482 -0.1843 0.0938 -0.9784 255 245 228
-86.5011 17.4253 334.0180 -0.2799 0.0385 -0.9592 255 242 229
-1022.3813 94.6255 1826.4912 0.6145 -0.7182 0.3264 228 230 231
172.2025 16.2174 298.3206 -0.6416 0.1689 -0.7482 213 211 214
156.0795 16.9674 312.0481 -0.4056 0.2775 -0.8709 130 126 132
133.1435 17.1146 322.6569 -0.3682 0.4496 -0.8138 25 26 37
118.9760 20.1078 371.3544 -0.1826 0.3142 -0.9316 223 190 174
103.2942 20.3630 374.6636 0.3023 0.4641 -0.8326 201 165 147
90.3258 19.0235 354.4396 0.8751 0.2918 -0.3861 170 132 111
83.6422 18.4718 342.8375 0.7749 0.3313 -0.5383 155 119 104
77.8904 17.8954 333.7356 0.6196 0.3432 -0.7059 193 162 143
63.1438 18.1665 333.6234 -0.1706 0.3769 -0.9104 234 193 179
43.9812 17.8133 327.1281 0.0917 0.4534 -0.8866 248 199 204
-7.1892 17.2577 319.5059 -0.4125 0.2085 -0.8868 255 255 244
-18.6270 18.1155 326.7344 -0.0827 0.2863 -0.9546 255 251 237
-21.9122 17.4111 323.3145 0.0765 0.1167 -0.9902 255 255 245
-37.3395 17.4742 330.4733 0.3935 -0.1333 -0.9096 212 177 166
-51.5928 17.8858 326.3026 -0.2013 -0.0380 -0.9788 255 244 227
-67.0716 18.0717 329.9970 -0.2099 0.0678 -0.9754 255 236 222
180.4787 16.2710 290.4580 -0.5458 0.4287 -0.7199 210 207 210
165.2362 16.9995 303.4238 -0.4706 0.3556 -0.8075 218 210 215
147.6342 17.8424 316.4025 -0.4812 0.3442 -0.8062 226 226 226
136.1290 17.9307 322.1595 -0.3063 0.4001 -0.8638 81 83 85
124.0833 18.0106 328.2894 -0.3226 0.3851 -0.8647 107 108 112
107.3161 21.2709 374.8719 -0.2258 0.4631 -0.8570 216 180 162
66.2970 19.0259 332.0850 -0.2192 0.4331 -0.8743 252 214 197
47.5438 18.6046 327.3473 0.2462 0.4235 -0.8718 239 189 188
29.2227 18.0903 326.8364 -0.3544 0.3319 -0.8742 191 153 148
7.2523 17.2528 311.4008 -0.2710 0.2530 -0.9287 255 249 234
-3.7178 18.1016 317.6501 -0.4206 0.3273 -0.8462 255 255 239
-33.9390 18.2621 331.4413 0.1359 -0.0121 -0.9906 236 202 188
-82.7656 18.2745 333.0825 -0.2056 0.0901 -0.9745 255 246 230
173.7112 17.0401 295.4789 -0.4617 0.2658 -0.8463 232 231 234
167.7820 17.7690 302.5985 -0.4808 0.2974 -0.8248 226 223 227
157.9740 17.8031 309.0840 -0.4446 0.3281 -0.8335 103 91 97
139.9171 18.6874 323.1732 -0.4335 0.2819 -0.8559 132 131 134
127.4575 18.8258 327.7597 -0.3577 0.3977 -0.8449 108 108 120
122.3891 21.0299 370.5475 -0.1114 0.3355 -0.9354 216 179 166
51.2990 19.3491 329.8866 0.4341 0.4365 -0.7880 176 133 118
32.4622 18.9559 324.5291 -0.2002 0.3859 -0.9006 239 200 193
10.5745 18.0173 311.5260 0.0412 0.3496 -0.9360 252 216 200
-15.0223 18.9811 324.3670 -0.4265 0.2893 -0.8569 255 255 238
-30.2998 19.0983 330.8887 -0.1827 0.1809 -0.9664 251 217 204
-47.9593 18.6971 326.0090 0.0184 -0.0284 -0.9994 252 215 202
-63.5425 18.8860 329.8409 -0.1827 0.0306 -0.9827 255 246 232
-78.7276 19.1309 331.4898 -0.1793 0.1062 -0.9780 255 255 237
176.7839 17.7550 295.6870 -0.3968 0.4064 -0.8231 206 204 207
161.1942 18.5569 309.2159 -0.4151 0.3155 -0.8533 127 51 68
149.9168 18.6722 314.1533 -0.4603 0.3492 -0.8162 255 255 255
130.5249 19.6487 326.3116 -0.5037 0.3945 -0.7685 64 70 75
110.8883 22.1937 373.4920 -0.2650 0.4604 -0.8473 229 195 179
69.5987 19.8534 331.4253 -0.0202 0.4718 -0.8815 253 217 198
55.1744 20.0919 332.9913 0.3573 0.4142 -0.8371 206 165 152
36.0553 19.7405 324.9445 0.1885 0.4459 -0.8750 154 96 91
21.8878 19.9441 327.3332 0.4862 0.5264 -0.6975 176 143 136
17.8103 19.3978 317.5891 0.7686 0.4785 -0.4246 175 138 130
13.9323 18.7610 312.4246 0.4299 0.3767 -0.8205 228 195 188
-0.2513 18.9365 315.7124 -0.4344 0.4550 -0.7774 255 246 230
-11.4390 19.8380 322.0302 -0.4658 0.3508 -0.8124 255 252 233
-26.2734 20.0270 326.1411 -0.4982 0.2581 -0.8278 255 253 234
-44.6962 19.4772 326.9144 0.2637 -0.0041 -0.9646 237 200 189
-59.8113 19.7177 328.9305 -0.1845 0.0123 -0.9828 255 250 235
-75.1450 19.9496 331.3527 -0.1602 0.0981 -0.9822 255 249 232
-1114.5117 115.7823 1941.3215 -0.3584 0.4984 -0.7894 226 225 228
168.8947 18.6069 299.2349 -0.6252 0.3156 -0.7138 197 194 198
163.6384 19.3425 307.7421 -0.5889 0.3024 -0.7495 198 109 125
153.1699 19.4405 314.1604 -0.2354 0.3150 -0.9195 255 255 255
142.2971 19.5271 320.5581 -0.5462 0.1777 -0.8186 67 61 72
133.7370 20.4562 325.6922 -0.3993 0.4384 -0.8052 159 159 161
121.5406 20.5906 333.0975 -0.3845 0.5410 -0.7480 156 156 158
114.7016 23.1064 373.1755 -0.2348 0.4422 -0.8656 219 185 169
97.5929 23.4532 371.9038 0.5242 0.5087 -0.6830 168 132 113
73.5345 20.6185 333.4519 0.3400 0.4900 -0.8027 238 207 190
58.9528 20.8770 334.4140 0.1368 0.4141 -0.8999 229 190 176
40.0310 20.4438 329.3220 0.2653 0.5046 -0.8216 144 70 77
25.2290 20.7276 329.0215 0.0659 0.5842 -0.8089 188 161 147
3.1330 19.7568 314.0298 -0.4510 0.5091 -0.7331 255 245 228
-22.4043 20.8728 323.6001 -0.2366 0.5702 -0.7867 254 225 207
-41.3905 20.2584 328.1177 0.3658 0.0335 -0.9301 230 196 185
-56.1409 20.5427 328.1433 -0.2481 0.0088 -0.9687 255 243 229
-71.8432 20.7473 332.2739 -0.2000 0.0289 -0.9794 255 247 231
-1066.5166 118.0026 1895.7714 -0.0642 0.3224 -0.9444 228 228 230
171.1853 19.3708 297.9452 -0.5552 0.4037 -0.7271 181 178 183
157.5196 20.1512 316.6760 -0.4185 0.2489 -0.8734 215 212 215
145.0572 20.3420 319.3954 -0.4478 0.2392 -0.8615 63 62 65
136.7463 21.2699 325.0972 -0.3724 0.3172 -0.8722 140 142 148
123.9773 21.4601 330.1466 -0.2642 0.5826 -0.7687 124 125 134
118.5028 24.0158 372.6829 -0.0798 0.5629 -0.8227 211 175 158
103.0265 24.3014 377.0707 0.2015 0.5086 -0.8371 192 154 133
89.5155 22.7646 354.6191 0.8426 0.3902 -0.3713 166 133 113
82.9800 22.0885 343.4537 0.7421 0.4186 -0.5236 155 122 101
77.3752 21.4027 335.0538 0.5548 0.4460 -0.7024 209 176 158
62.4422 21.6922 334.6140 -0.0867 0.4397 -0.8940 241 202 186
43.5375 21.2520 328.8094 0.1426 0.5310 -0.8353 238 196 201
28.5144 21.5621 327.7247 -0.3050 0.5791 -0.7561 225 190 179
6.5359 20.5559 312.8500 -0.3577 0.4992 -0.7892 255 236 223
-7.9458 20.6553 320.9371 -0.3265 0.4890 -0.8089 255 232 215
-19.3744 21.6045 327.5324 -0.0559 0.6041 -0.7950 243 204 190
-37.9365 21.0569 328.6860 0.3781 0.0985 -0.9205 222 188 177
-83.6030 21.8332 333.5908 -0.2108 0.1663 -0.9633 255 228 215
-86.9733 21.0221 332.7959 -0.3937 0.1708 -0.9032 231 204 188
173.7719 20.1145 297.0519 -0.4689 0.3691 -0.8024 244 241 244
165.0225 20.1719 304.5221 -0.6073 0.3280 -0.7236 120 29 44
107.2209 25.2123 378.0784 -0.2217 0.5091 -0.8317 210 172 153
65.8822 22.5101 334.4416 -0.1295 0.4897 -0.8622 242 204 185
46.8771 22.0682 328.5819 0.1998 0.6022 -0.7730 232 186 188
-4.4503 21.4673 319.7173 -0.3179 0.5732 -0.7552 255 230 211
-34.6372 21.8378 330.5314 0.3233 0.2067 -0.9234 233 198 187
-52.3959 21.3863 326.2963 -0.2418 0.0140 -0.9702 255 245 230
-68.0841 21.5824 331.1617 -0.2163 -0.0160 -0.9762 255 255 242
182.9537 20.0197 291.1799 -0.2653 0.3942 -0.8799 236 233 236
167.8913 20.9208 304.0394 -0.5561 0.3582 -0.7500 184 100 124
158.0927 21.0295 310.9283 -0.4118 0.2463 -0.8774 111 111 111
139.8491 22.0704 324.5717 -0.5324 0.2202 -0.8174 147 146 149
127.5589 22.2509 329.9763 -0.3488 0.5684 -0.7451 47 44 49
118.4132 23.2510 336.3091 -0.5114 0.3356 -0.7911 127 131 136
110.5570 26.1350 375.7080 -0.1890 0.5127 -0.8375 222 185 170
50.6019 22.8418 330.8273 0.3022 0.6325 -0.7132 194 143 133
31.9064 22.3843 326.4822 -0.1937 0.5819 -0.7898 234 199 190
17.2766 22.7206 322.8941 0.7137 0.5148 -0.4749 193 158 149
13.2302 22.0752 314.1651 0.3403 0.6250 -0.7026 233 197 184
9.8792 21.3318 312.3685 0.0417 0.6193 -0.7841 247 211 196
-0.9902 22.2728 318.6461 -0.2796 0.6616 -0.6958 255 237 224
-15.9258 22.4225 326.7838 -0.3678 0.3915 -0.8435 255 242 224
-31.2009 22.6320 331.8244 0.1618 0.2126 -0.9636 229 197 185
-48.7785 22.1936 325.9383 -0.0535 0.0534 -0.9971 255 224 209
-64.2862 22.4197 329.7773 -0.1743 0.0077 -0.9847 255 245 232
-79.7812 22.6685 332.4870 -0.2075 0.1200 -0.9708 255 248 233
-1101.0369 128.1211 1876.3112 -0.2149 0.0098 -0.9766 227 229 230
176.4392 20.8453 296.6247 -0.4614 0.3524 -0.8142 206 206 208
169.5663 21.7106 301.5491 -0.5863 0.3840 -0.7133 181 173 178
160.7414 21.8090 309.9037 -0.3583 0.3661 -0.8588 115 103 105
141.7449 22.9089 321.1715 -0.5713 0.1130 -0.8129 135 135 137
130.7593 23.0612 329.1562 -0.5179 0.4641 -0.7186 83 88 86
114.6260 27.0456 375.8441 -0.1319 0.5624 -0.8163 214 176 155
69.1877 23.3360 333.4086 0.0027 0.5433 -0.8395 248 213 193
54.5642 23.6147 334.0501 0.2305 0.5838 -0.7785 198 153 136
35.4748 23.1744 326.9814 0.0922 0.6084 -0.7882 215 152 144
21.2978 23.4067 330.1414 0.5151 0.5622 -0.6470 169 127 120
2.3535 23.0703 317.7085 -0.3636 0.7230 -0.5874 255 232 220
-12.2971 23.2610 324.1006 -0.4606 0.4073 -0.7887 255 238 222
-45.3680 22.9952 326.2572 0.2163 0.1082 -0.9703 240 205 192
-60.5418 23.2462 328.5673 -0.1713 0.0465 -0.9841 255 251 237
-76.1758 23.4919 332.1424 -0.1944 0.0834 -0.9774 255 250 234
-1117.6121 136.5026 1938.9685 -0.0789 0.2761 -0.9579 227 229 230
162.8374 22.5909 307.8453 -0.5613 0.3686 -0.7410 130 49 60
152.7603 22.7400 314.6142 -0.2975 0.3856 -0.8734 255 255 255
120.7598 24.1032 333.0770 -0.3534 0.4732 -0.8070 108 109 113
98.0332 27.3709 376.5813 0.4005 0.5701 -0.7174 165 125 107
90.2777 26.5060 361.0801 0.7947 0.4777 -0.3744 157 122 102
77.0551 24.9313 337.4650 0.5303 0.5455 -0.6490 211 180 163
72.8795 24.1368 334.3978 0.2855 0.5736 -0.7678 235 199 184
58.4154 24.4080 336.1490 0.0745 0.5399 -0.8384 226 185 171
39.3418 23.9357 329.8355 0.2112 0.6144 -0.7602 155 93 98
24.6683 24.2111 331.7362 0.1249 0.6521 -0.7477 217 191 184
-8.8089 24.0675 323.4174 -0.2460 0.5564 -0.7937 255 236 221
-42.1439 23.7840 327.6755 0.3587 0.1771 -0.9165 240 205 194
-56.8649 24.0611 327.9593 -0.2620 0.0518 -0.9637 255 236 223
-72.4550 24.3131 331.3584 -0.2272 0.0478 -0.9727 255 249 233
-88.1437 24.5836 334.1355 -0.4888 0.2626 -0.8319 190 166 156
171.8888 22.4623 300.1976 -0.5060 0.4556 -0.7324 198 197 200
155.6920 23.5050 313.8433 -0.4074 0.3691 -0.8353 255 255 255
144.4107 23.7081 319.6700 -0.3466 0.1556 -0.9250 120 120 122
133.6812 23.8695 327.6684 -0.5030 0.3408 -0.7943 165 165 169
124.2890 24.9200 333.4310 -0.2729 0.5219 -0.8082 40 41 50
102.8046 28.2886 379.6902 0.0918 0.5301 -0.8429 184 146 125
82.7771 25.7065 346.7302 0.7168 0.4912 -0.4949 160 129 110
62.0009 25.2224 336.8011 -0.0538 0.5005 -0.8641 233 192 176
46.5594 25.5406 332.3187 0.2128 0.6885 -0.6933 225 182 180
43.1761 24.7260 331.0350 0.2106 0.6370 -0.7415 214 170 174
27.9999 25.0364 330.5932 -0.2756 0.6710 -0.6883 207 177 167
5.6943 23.8747 315.7044 -0.3432 0.7174 -0.6062 255 250 238
-5.3228 24.8701 322.8669 -0.0827 0.6978 -0.7115 255 230 218
-38.7796 24.5805 329.0955 0.4049 0.2207 -0.8873 233 198 187
-53.2598 24.8766 327.1626 -0.2643 0.0729 -0.9617 255 243 229
-1128.6804 137.6438 1846.5953 0.0999 -0.6063 -0.7889 233 232 235
180.9537 22.3210 294.4590 -0.5508 0.2906 -0.7824 196 193 198
174.2270 23.2050 299.0049 -0.5022 0.4319 -0.7492 216 213 216
164.7290 23.3690 305.2261 -0.6454 0.3190 -0.6940 182 93 105
147.6837 24.4850 319.3771 -0.2005 0.3234 -0.9248 115 115 115
136.5419 24.6834 326.5742 -0.4714 0.2450 -0.8472 128 127 132
128.0340 25.7262 333.7639 -0.4270 0.4923 -0.7585 118 120 122
115.8090 25.9511 341.2041 -0.2762 0.3291 -0.9030 89 91 93
106.8118 29.2074 379.7700 -0.2361 0.5005 -0.8329 213 178 158
65.4634 26.0446 336.5106 -0.0716 0.5327 -0.8433 243 205 188
31.4120 25.8501 329.6626 -0.2224 0.6853 -0.6934 237 206 196
9.0624 24.6637 314.1251 -0.0153 0.7507 -0.6605 255 228 214
-35.4873 25.3747 331.4832 0.4146 0.3963 -0.8192 228 193 182
-68.6301 25.1385 330.0055 -0.2318 0.0350 -0.9721 255 249 236
-84.4964 25.3986 333.9882 -0.3221 0.2508 -0.9129 222 199 187
182.5650 23.0683 291.8734 -0.3593 0.3526 -0.8640 97 92 98
167.9712 24.1034 305.3386 -0.5694 0.2942 -0.7676 169 69 82
157.4947 24.2994 310.6676 -0.4138 0.3379 -0.8453 255 255 255
150.7069 25.2711 318.8087 -0.3362 0.4036 -0.8509 106 103 109
139.0600 25.4948 324.5848 -0.6219 0.1834 -0.7613 122 122 124
130.5635 26.5435 331.3706 -0.6432 0.3518 -0.6801 133 132 137
117.8852 26.8018 337.1858 -0.3646 0.4038 -0.8391 135 140 141
110.3981 30.1209 378.3911 -0.1533 0.4674 -0.8706 217 181 163
68.9943 26.8646 336.4521 0.0513 0.5774 -0.8149 241 206 186
54.2949 27.1552 337.2825 0.1095 0.6171 -0.7792 207 161 149
50.3097 26.3471 334.4720 0.1916 0.6782 -0.7095 209 164 150
34.8759 26.6558 329.4606 -0.0226 0.6973 -0.7164 234 204 194
16.6146 26.1434 326.4776 0.6464 0.5553 -0.5232 174 136 129
12.4894 25.4204 316.4788 0.3764 0.7308 -0.5694 230 193 182
-1.8869 25.6696 322.4064 -0.0687 0.7990 -0.5974 255 229 215
-32.0309 26.1817 332.8755 0.2056 0.4367 -0.8758 223 189 178
-49.6696 25.6863 326.2794 -0.0808 0.1020 -0.9915 255 230 215
-64.9720 25.9526 329.3431 -0.1749 0.1035 -0.9791 255 245 230
-80.8375 26.2235 333.5508 -0.2518 0.1820 -0.9505 255 231 217
-94.3814 27.3333 341.4034 -0.5289 0.1962 -0.8257 150 136 124
-1113.4617 149.0820 1889.4258 0.1867 0.0893 -0.9784 230 230 232
185.9905 23.7650 292.3441 -0.1221 0.3946 -0.9107 228 228 228
176.0717 23.9530 297.0981 -0.5524 0.3663 -0.7488 213 211 214
170.2662 24.8500 303.7307 -0.5263 0.2797 -0.8030 186 120 131
161.2876 25.0445 311.9423 -0.4305 0.4451 -0.7852 140 137 141
141.4922 26.2953 322.4589 -0.5953 0.1331 -0.7924 59 59 63
120.9410 27.6282 335.8245 -0.3003 0.4577 -0.8369 103 104 111
98.2033 31.3947 380.8694 0.2695 0.6087 -0.7462 188 153 130
72.8304 27.6853 337.9389 0.3282 0.5904 -0.7374 219 183 166
38.5757 27.4558 331.0240 0.1736 0.6846 -0.7079 190 133 121
1.5738 26.4641 322.4801 -0.0692 0.8635 -0.4995 251 217 206
-28.5558 27.0002 333.8929 -0.3579 0.3674 -0.8584 232 197 186
-46.2602 26.4902 326.3080 0.1866 0.1495 -0.9710 239 204 191
-61.4264 26.7674 328.9746 -0.1678 0.1148 -0.9791 255 255 244
-77.0757 27.0441 332.5864 -0.2551 0.1160 -0.9599 255 236 221
-1086.5587 152.8628 1879.2192 -0.2757 -0.1835 -0.9436 225 227 229
178.4461 24.6821 296.1622 -0.5094 0.3523 -0.7851 152 149 154
163.9785 25.8153 311.3834 -0.5630 0.4463 -0.6956 127 122 123
153.1439 26.0445 316.7489 -0.4166 0.5395 -0.7317 111 108 111
132.7143 27.3520 328.0474 -0.6031 0.2515 -0.7570 78 83 83
114.6659 31.0222 378.6761 -0.0034 0.5132 -0.8582 203 162 144
90.7975 30.3617 366.8638 0.7481 0.5351 -0.3924 169 136 115
82.6453 29.3944 349.9092 0.7026 0.5704 -0.4254 168 134 116
76.9108 28.5132 340.6275 0.5428 0.5519 -0.6330 218 182 165
57.9010 27.9728 337.6505 0.0086 0.5467 -0.8373 214 174 158
42.5832 28.2622 334.2361 0.2777 0.6746 -0.6840 151 87 88
5.0451 27.2561 321.1855 -0.2577 0.8846 -0.3886 246 214 202
-43.0093 27.2955 328.1215 0.3761 0.1904 -0.9068 235 202 191
-57.9224 27.5789 329.2103 -0.2716 0.0860 -0.9586 255 249 234
-73.3610 27.8635 331.6903 -0.2742 0.1027 -0.9562 255 251 237
-89.7978 28.1622 337.6002 -0.5214 0.1811 -0.8339 202 181 170
-1113.4213 163.5105 1961.3860 -0.0580 -0.2684 -0.9616 223 225 227
-1131.7229 150.4251 1811.8711 0.2916 0.0311 -0.9560 221 223 224
180.6785 25.4080 294.9612 -0.5120 0.3300 -0.7930 213 208 212
172.5245 25.5959 302.3329 -0.5071 0.2811 -0.8148 212 207 208
155.6878 26.8282 315.7273 -0.3647 0.6250 -0.6902 227 225 226
144.0871 27.0868 320.8892 -0.3286 0.2339 -0.9151 137 137 141
136.2578 28.1510 328.2337 -0.5137 0.2482 -0.8213 121 121 123
124.7007 28.4489 336.5577 -0.2582 0.4562 -0.8516 112 111 114
102.4588 32.3259 381.9465 -0.1277 0.5619 -0.8173 186 146 126
61.5306 28.7957 338.2172 -0.0200 0.5511 -0.8342 239 198 184
46.2467 29.1017 337.0624 0.2505 0.6300 -0.7351 208 168 163
27.6805 28.5705 335.0223 -0.2174 0.6719 -0.7080 226 197 189
8.4299 28.0408 319.3871 -0.1920 0.8735 -0.4474 255 235 223
-6.1443 28.3390 327.1361 0.0338 0.7796 -0.6253 244 210 199
-39.7188 28.1052 329.9529 0.5042 0.2634 -0.8224 224 192 180
-1079.2410 166.4953 1939.4456 -0.1267 -0.2557 -0.9584 230 230 232
-1140.6379 158.3047 1858.5754 -0.0271 0.0276 -0.9993 222 224 226
174.9767 26.3374 301.5282 -0.5590 0.3222 -0.7640 211 209 210
157.9940 27.5928 313.8505 -0.2778 0.6483 -0.7088 255 255 255
147.4698 27.8598 320.7060 -0.0842 0.3516 -0.9324 112 109 113
128.3767 29.2604 336.7678 -0.4794 0.3486 -0.8054 46 47 56
114.6225 29.5655 340.7625 -0.3017 0.3010 -0.9046 146 148 152
106.4971 33.2439 381.7349 -0.2889 0.4780 -0.8295 215 179 159
65.1073 29.6197 338.6087 -0.0177 0.5705 -0.8211 235 199 184
50.1069 29.9303 338.7658 0.1384 0.5871 -0.7976 223 184 174
31.1225 29.3849 334.4264 -0.2225 0.6762 -0.7023 218 192 183
11.8444 28.8249 320.5147 0.2296 0.8396 -0.4923 244 211 202
-2.7327 29.1546 329.0396 0.1597 0.8148 -0.5574 239 209 198
-32.7279 29.7570 334.3550 0.2716 0.4508 -0.8503 201 167 154
-36.3542 28.9298 332.2603 0.5105 0.3734 -0.7746 207 172 161
-54.1920 28.3806 327.6317 -0.2698 0.0848 -0.9592 255 240 224
-69.5585 28.6763 330.3918 -0.2320 0.1246 -0.9647 255 251 237
-85.5503 28.9829 334.9930 -0.4257 0.1905 -0.8846 224 200 190
182.9590 26.1170 293.5869 -0.4121 0.2872 -0.8647 205 202 206
176.8382 27.0691 299.5545 -0.6423 0.2809 -0.7131 191 188 194
167.8787 27.3074 306.2390 -0.5827 0.3609 -0.7281 177 88 104
161.1522 28.3496 313.4735 -0.4242 0.5852 -0.6911 190 187 193
151.0486 28.6432 321.3005 -0.1370 0.4534 -0.8807 137 134 137
138.8473 28.9324 325.9937 -0.5082 0.3073 -0.8045 112 111 114
130.6327 30.0562 333.6437 -0.7222 0.2008 -0.6619 167 169 171
118.0078 30.3984 340.2829 -0.2737 0.3615 -0.8913 81 83 87
110.3545 34.1750 381.7394 -0.1198 0.4467 -0.8866 206 166 145
68.7060 30.4430 338.9913 0.0968 0.6046 -0.7906 232 194 177
53.9347 30.7622 340.2894 0.0433 0.5385 -0.8415 222 183 169
34.6634 30.1982 334.3700 -0.0980 0.6800 -0.7266 225 195 180
15.6773 29.6399 326.1941 0.4521 0.7390 -0.4995 214 179 172
0.8922 29.9758 331.1837 0.1073 0.8277 -0.5508 240 208 198
-29.1588 30.5855 335.5341 -0.1225 0.4706 -0.8738 211 179 167
-50.6764 29.1880 326.7647 -0.0775 0.1119 -0.9907 255 229 213
-65.8158 29.4827 329.6991 -0.1211 0.1729 -0.9775 255 241 225
-81.8355 29.7999 334.3653 -0.3009 0.1956 -0.9334 253 228 216
-1118.7471 169.6685 1890.6141 -0.3413 0.1484 -0.9281 223 225 227
169.5601 28.0435 303.7342 -0.4939 0.3817 -0.7813 179 90 107
140.8732 29.7013 322.8316 -0.4800 0.3930 -0.7843 67 63 71
121.3503 31.2054 339.3086 -0.2089 0.4194 -0.8834 142 146 150
98.6818 35.5217 386.2733 0.1495 0.5852 -0.7970 186 146 126
91.6081 34.3881 374.2465 0.5796 0.6696 -0.4644 151 113 94
83.6950 33.2313 357.9424 0.7091 0.5998 -0.3708 162 126 109
72.6277 31.2871 341.0110 0.3373 0.5910 -0.7328 219 183 166
57.4887 31.5863 340.2401 0.0264 0.5453 -0.8378 225 182 167
38.2484 31.0200 335.0674 0.1058 0.6390 -0.7619 226 195 180
23.6152 31.3649 338.6443 0.0688 0.5517 -0.8312 217 177 172
4.4751 30.8071 332.9056 -0.0548 0.8086 -0.5859 243 211 199
-47.2722 29.9980 326.9958 0.1551 0.1546 -0.9757 241 206 195
-62.3051 30.2950 329.9833 -0.1391 0.1920 -0.9715 255 236 221
-78.0229 30.6132 333.1544 -0.2844 0.1322 -0.9496 255 246 230
-1039.6254 176.5063 1944.0094 0.4033 0.1675 -0.8996 229 231 232
-1104.7297 175.1561 1902.8237 0.4857 0.0775 -0.8707 221 223 224
178.6676 27.7856 297.4908 -0.5303 0.2975 -0.7939 189 186 189
172.3436 28.7809 303.3046 -0.4070 0.3876 -0.8271 216 190 181
163.3415 29.0881 311.4669 -0.5716 0.4078 -0.7120 138 127 138
153.0252 29.3921 318.0167 -0.3344 0.5511 -0.7645 139 137 137
132.8518 30.8349 330.3581 -0.6488 0.2138 -0.7303 111 108 111
110.2374 32.3628 341.6844 -0.3847 0.3184 -0.8664 88 88 92
102.4901 36.4407 385.5790 -0.2025 0.5458 -0.8131 196 159 137
76.9778 32.1647 344.6161 0.5717 0.5903 -0.5698 204 166 150
42.0290 31.8640 337.3351 0.2680 0.5523 -0.7894 213 174 162
27.1583 32.1888 338.5714 -0.1696 0.5342 -0.8282 237 202 194
8.0114 31.6111 332.0147 -0.2579 0.7750 -0.5769 220 185 176
-43.9113 30.8146 328.3819 0.3415 0.1432 -0.9289 225 193 181
-58.8243 31.1053 329.8771 -0.2950 0.1438 -0.9446 255 255 239
-74.3705 31.4249 332.4895 -0.2901 0.1191 -0.9496 255 245 230
-91.2085 31.8024 339.8008 -0.5138 0.0336 -0.8573 181 162 152
-1034.8232 183.7572 1975.6462 0.5219 0.5173 -0.6782 227 229 230
-1146.1782 171.5695 1827.6113 -0.1166 0.1932 -0.9742 227 229 230
181.2899 28.4955 296.6623 -0.4954 0.2535 -0.8308 180 176 182
155.9831 30.1654 317.6094 -0.2703 0.5991 -0.7536 241 241 241
143.5811 30.4715 321.3751 -0.3223 0.4870 -0.8118 105 104 109
124.3913 32.0128 337.9653 -0.2251 0.4752 -0.8506 114 116 117
61.1191 32.4138 340.6231 0.0099 0.5768 -0.8168 232 191 175
45.9493 32.7359 340.7240 0.2646 0.4578 -0.8488 150 96 92
30.5815 33.0076 337.9121 -0.1646 0.5596 -0.8122 218 192 183
-3.4997 32.7479 333.6032 0.1332 0.7395 -0.6599 236 209 202
-25.0253 31.3077 326.6797 -0.6795 0.4003 -0.6148 176 145 130
-37.4796 32.5323 334.7704 0.6324 0.1699 -0.7558 210 178 166
-40.6051 31.6530 330.5042 0.5287 0.1284 -0.8391 231 200 190
