ply
format ascii 1.0
element vertex 767
property float x
property float y
property float z
property float nx
property float ny
property float nz
property uchar red
property uchar green
property uchar blue
end_header
176.1009 -86.6971 276.1177 -0.1282 0.5221 -0.8432 199 130 133
167.5931 -89.0435 282.5146 -0.4946 0.7760 -0.3915 177 175 178
162.2971 -91.2989 289.5421 -0.4133 0.7550 -0.5091 159 154 158
132.2185 -100.3048 319.4143 -0.6136 0.4714 -0.6335 205 204 207
117.7508 -106.4010 339.3188 -0.7634 0.0084 -0.6458 225 164 176
108.8410 -108.7992 346.8750 -0.4974 -0.4999 -0.7090 208 208 208
99.8640 -111.7007 358.3418 -0.7032 -0.3602 -0.6130 181 178 181
82.5300 -122.8459 392.7779 -0.7929 -0.2642 -0.5491 163 157 161
178.3349 -85.5102 274.9242 0.3381 0.4101 -0.8470 0 0 0
170.6089 -88.3563 281.8419 -0.3652 0.7834 -0.5029 152 147 151
164.7777 -90.1362 288.7148 -0.5606 0.6995 -0.4431 146 143 146
153.9332 -91.4413 293.9443 -0.3759 0.6224 -0.6866 161 154 156
149.6335 -95.1185 303.1121 -0.3873 0.7886 -0.4776 210 207 210
142.6937 -97.1873 310.6502 -0.5976 0.6490 -0.4708 145 66 90
135.0557 -99.0670 317.7356 -0.7340 0.3247 -0.5965 191 191 193
128.0775 -101.9848 326.3492 -0.7762 0.3827 -0.5011 183 180 186
120.4598 -104.7620 335.3089 -0.6894 0.1262 -0.7133 207 120 136
95.3360 -115.4998 368.2289 -0.5824 -0.4156 -0.6986 142 141 146
90.3550 -114.8483 368.5053 -0.5886 -0.4109 -0.6962 120 119 124
77.1830 -128.5175 411.7841 -0.8712 -0.3417 -0.3524 147 146 151
173.4514 -87.5416 281.3246 -0.3785 0.7655 -0.5203 169 161 166
157.8113 -91.3771 293.9216 -0.5263 0.6016 -0.6009 185 116 121
152.6902 -94.2413 303.0528 -0.4772 0.7506 -0.4570 200 194 201
144.9970 -95.7877 307.6847 -0.5861 0.6662 -0.4611 201 178 179
111.5894 -106.8050 344.2836 -0.3762 -0.4603 -0.8041 255 255 255
102.4730 -109.2982 354.4256 -0.6954 -0.4339 -0.5728 233 232 235
84.4221 -117.0577 380.3018 -0.7999 -0.3233 -0.5056 168 170 172
166.6680 -88.6398 286.9757 -0.5320 0.7384 -0.4144 143 142 147
160.2552 -90.0446 292.3431 -0.4968 0.7043 -0.5071 126 38 47
154.8919 -92.7477 300.1900 -0.5033 0.5897 -0.6316 167 162 168
136.6533 -96.7261 314.5150 -0.6543 0.3715 -0.6587 216 218 222
129.4570 -99.0055 322.4783 -0.7096 0.3150 -0.6303 217 212 216
122.5462 -102.3993 332.6689 -0.6133 -0.0093 -0.7898 201 180 178
114.7900 -105.4487 342.9045 -0.4074 -0.4260 -0.8078 211 210 215
97.1906 -111.5735 364.5762 -0.6629 -0.4313 -0.6120 216 218 220
78.6236 -121.8021 398.7590 -0.8778 -0.1661 -0.4493 118 120 124
174.6989 -85.7801 279.9165 -0.3989 0.7675 -0.5018 202 194 197
168.5126 -87.1666 285.2643 -0.5030 0.7274 -0.4668 186 186 188
147.0166 -93.8039 306.4866 -0.4265 0.6861 -0.5893 183 173 179
140.2404 -96.0061 313.8113 -0.5485 0.4126 -0.7273 197 194 198
125.5359 -101.0775 330.7450 -0.6285 -0.0797 -0.7737 189 179 185
118.0274 -104.1320 341.5411 -0.6036 -0.3264 -0.7275 125 124 129
104.5439 -106.2535 349.4364 -0.6671 -0.4529 -0.5915 196 195 198
87.2655 -114.7569 376.3161 -0.8082 -0.2556 -0.5306 164 163 168
73.4160 -128.2502 420.3708 -0.8044 -0.4517 -0.3859 179 180 184
177.5301 -85.0324 279.1725 0.0062 0.6971 -0.7170 159 80 100
163.1939 -89.2920 292.0203 -0.4355 0.7121 -0.5507 160 152 157
156.2395 -90.6292 299.0304 -0.5855 0.5814 -0.5649 164 85 93
150.3001 -93.0894 306.8769 -0.4134 0.5858 -0.6971 192 187 191
106.9821 -103.9520 344.3153 -0.5302 -0.4859 -0.6949 170 169 174
99.5685 -108.7298 359.1167 -0.7215 -0.4389 -0.5356 186 186 188
81.5051 -118.2059 392.9699 -0.8416 -0.2526 -0.4775 125 129 132
181.0579 -84.7787 279.6722 -0.0059 0.8270 -0.5622 0 0 0
171.1534 -86.2334 284.7671 -0.4319 0.7519 -0.4982 168 167 170
165.5572 -88.0862 290.7955 -0.6059 0.5854 -0.5387 216 213 216
159.8156 -90.3272 297.2870 -0.4485 0.6594 -0.6034 165 91 109
154.2585 -92.8107 305.6674 -0.5642 0.4970 -0.6594 224 216 219
142.1405 -94.0180 312.9793 -0.6018 0.4313 -0.6722 134 126 135
135.0647 -96.4275 319.0445 -0.7334 0.2060 -0.6478 183 180 186
127.8768 -98.9552 327.5648 -0.6740 -0.0620 -0.7361 160 144 147
119.8901 -101.4356 336.6244 -0.5930 -0.3868 -0.7062 236 198 211
88.9554 -110.2329 369.2825 -0.7145 -0.3249 -0.6196 190 189 192
173.4256 -85.0104 283.3001 -0.4716 0.7351 -0.4870 136 138 139
145.2489 -93.1947 310.8601 -0.6593 0.3916 -0.6418 177 90 103
110.0791 -102.2765 341.3522 -0.3476 -0.4794 -0.8058 204 204 204
101.5262 -105.5233 352.8116 -0.6854 -0.4351 -0.5838 234 236 235
83.1972 -113.0391 381.0852 -0.8707 -0.0454 -0.4896 76 75 80
74.7275 -121.4588 408.0011 -0.8624 -0.3193 -0.3928 233 232 235
175.4950 -83.7402 282.3992 -0.4279 0.7184 -0.5484 156 109 118
167.1167 -86.3591 289.8309 -0.5785 0.5614 -0.5918 201 201 205
160.3972 -87.5837 295.5374 -0.3798 0.6783 -0.6290 97 86 97
154.4066 -89.7493 303.1902 -0.7425 0.2905 -0.6036 155 108 129
136.2892 -93.7444 316.1707 -0.5965 0.1770 -0.7829 154 153 158
129.3429 -96.2327 324.9119 -0.6460 -0.1118 -0.7551 253 250 253
122.0367 -99.2090 332.9204 -0.5000 -0.4433 -0.7440 230 156 165
113.1529 -101.0210 340.4843 -0.2995 -0.5191 -0.8005 255 255 255
91.7413 -107.7910 365.9995 -0.6748 -0.3537 -0.6478 154 153 156
78.1520 -118.6257 399.3234 -0.9054 -0.1956 -0.3768 221 222 226
178.4520 -83.0611 282.0544 -0.2079 0.7105 -0.6723 127 32 42
169.9163 -85.4399 288.0582 -0.5156 0.5839 -0.6271 192 190 193
163.9583 -87.2442 294.2722 -0.5069 0.6257 -0.5930 221 221 223
147.8952 -91.7942 308.7243 -0.4283 0.3305 -0.8410 236 166 178
140.4984 -93.4994 315.6106 -0.5344 0.1689 -0.8282 255 255 255
132.5921 -95.3545 322.7997 -0.5799 -0.1582 -0.7991 171 171 173
123.9016 -96.7994 328.7958 -0.4273 -0.4388 -0.7905 192 97 122
103.6985 -102.5329 347.8624 -0.6730 -0.4590 -0.5799 154 153 158
95.4420 -106.4668 362.4350 -0.6906 -0.3927 -0.6074 214 214 216
87.2022 -111.8587 377.6365 -0.8818 -0.0781 -0.4650 189 188 191
182.6160 -83.1547 282.7278 -0.0964 0.6584 -0.7465 0 0 0
172.6113 -84.4929 286.7858 -0.4249 0.6776 -0.6003 234 232 233
157.2991 -88.8106 300.9039 -0.6831 0.3211 -0.6559 182 106 111
150.6131 -90.6546 308.6435 -0.4342 0.2466 -0.8664 233 161 172
143.0613 -92.0225 314.8526 -0.5301 0.1179 -0.8397 149 141 150
115.5141 -98.8333 338.5435 -0.4787 -0.5570 -0.6787 255 255 255
106.1583 -100.3498 343.0528 -0.5753 -0.4597 -0.6765 158 158 160
80.4346 -113.7608 389.7798 -0.8679 -0.2379 -0.4360 174 176 180
71.2401 -121.6824 416.6411 -0.7258 -0.5317 -0.4365 157 163 166
165.8273 -85.6726 292.8140 -0.6987 0.4981 -0.5136 177 174 180
134.5785 -93.1878 320.0273 -0.5011 -0.1476 -0.8527 227 227 229
126.5636 -94.9428 326.6986 -0.4555 -0.4474 -0.7696 255 255 255
97.2724 -103.0083 355.5523 -0.7605 -0.3862 -0.5221 89 93 94
88.5449 -107.0745 370.6247 -0.8515 -0.1504 -0.5022 239 238 241
173.9388 -82.7402 285.5907 -0.4591 0.6693 -0.5842 162 111 130
157.7742 -86.2365 298.2231 -0.4903 0.3624 -0.7926 160 152 159
152.4354 -88.8474 306.6064 -0.5431 0.1463 -0.8268 208 193 185
144.7711 -89.9462 312.0341 -0.6076 -0.0720 -0.7910 182 172 178
137.2941 -91.8359 317.8742 -0.4275 -0.1674 -0.8884 185 184 189
130.2062 -94.4326 326.0182 -0.4862 -0.4394 -0.7553 243 240 243
107.9073 -97.1352 339.0533 -0.3968 -0.4832 -0.7804 130 132 136
92.1091 -105.6009 365.9691 -0.7993 -0.2158 -0.5608 187 191 194
83.0403 -110.3887 384.0647 -0.8503 -0.1146 -0.5137 147 149 151
74.5734 -118.5603 408.5802 -0.7352 -0.4425 -0.5134 119 121 125
177.2180 -82.2413 284.8739 -0.4378 0.6628 -0.6074 149 49 60
166.4538 -83.3510 290.4980 -0.6509 0.4783 -0.5895 199 196 202
161.6810 -85.9912 298.1415 -0.3781 0.3677 -0.8496 176 173 181
154.7729 -87.4120 304.7202 -0.7046 0.0847 -0.7045 203 126 138
147.9034 -89.1080 310.0554 -0.4577 -0.1395 -0.8781 236 223 232
119.3990 -93.7469 328.7051 -0.3665 -0.5513 -0.7495 167 159 164
111.7901 -96.7360 338.3075 -0.3138 -0.5004 -0.8069 255 255 255
99.3343 -100.0288 350.6587 -0.7444 -0.3735 -0.5535 159 159 161
66.9455 -121.1712 425.1846 -0.7008 -0.5730 -0.4249 178 180 181
178.9800 -80.8241 283.5983 -0.3066 0.4834 -0.8200 145 40 55
169.8454 -82.7389 289.7461 -0.5516 0.5119 -0.6585 219 218 221
165.2037 -85.5237 297.9937 -0.5804 0.3251 -0.7466 218 215 219
139.1162 -89.7564 315.7275 -0.4652 -0.1655 -0.8696 253 252 255
110.7650 -89.5102 328.2457 -0.3518 -0.6573 -0.6665 156 156 156
102.8301 -98.9232 347.3216 -0.7214 -0.3661 -0.5878 178 180 181
94.5768 -102.6272 361.1876 -0.7865 -0.2724 -0.5543 155 154 157
85.6163 -106.8083 378.8623 -0.8528 -0.1625 -0.4963 171 171 173
76.6609 -113.3829 398.5489 -0.8328 -0.3706 -0.4112 203 202 205
182.5159 -80.5556 283.3431 -0.2215 0.3651 -0.9042 0 0 0
172.2537 -81.5850 288.7150 -0.4149 0.5961 -0.6874 188 147 159
155.2560 -84.7578 301.6534 -0.7096 0.1962 -0.6767 202 197 201
149.6504 -87.2405 308.2442 -0.4103 -0.1589 -0.8980 182 110 121
142.1856 -88.7348 314.0628 -0.4533 -0.2267 -0.8620 237 237 239
129.5348 -89.8902 319.8401 -0.4182 -0.5142 -0.7487 245 240 242
122.5829 -92.6375 327.3040 -0.3466 -0.5426 -0.7652 239 166 180
114.6442 -95.0294 335.2765 -0.4123 -0.5699 -0.7108 255 255 255
175.4308 -81.1406 288.4495 -0.4218 0.5221 -0.7413 158 59 79
165.6268 -82.8248 294.2691 -0.6484 0.3123 -0.6943 218 215 219
158.4320 -84.0637 299.5576 -0.5076 0.1385 -0.8504 107 101 110
152.3106 -85.9969 306.7535 -0.4690 -0.1879 -0.8630 186 105 125
133.4716 -89.5012 318.8428 -0.2900 -0.4804 -0.8277 254 251 255
124.5323 -90.3771 324.3515 -0.3607 -0.5439 -0.7576 203 105 133
103.4900 -94.5986 341.1368 -0.6677 -0.3560 -0.6538 222 224 226
96.9500 -99.8860 355.5675 -0.8167 -0.2666 -0.5118 145 149 150
87.9412 -103.8101 372.4470 -0.8695 -0.1513 -0.4702 150 149 154
78.9437 -108.7454 388.8057 -0.8391 -0.2790 -0.4671 175 174 179
68.8063 -114.3613 409.8732 -0.6319 -0.5255 -0.5697 121 120 127
184.3258 -79.0700 282.6629 -0.1374 0.2405 -0.9609 0 0 0
178.4232 -80.4330 287.4917 -0.5036 0.3610 -0.7849 212 128 141
167.9334 -81.6748 292.7996 -0.5782 0.3953 -0.7137 255 255 255
162.0813 -83.6006 299.8099 -0.4036 0.1025 -0.9092 221 221 223
144.1141 -86.8396 311.8349 -0.5519 -0.3598 -0.7523 173 170 175
136.8405 -88.8185 318.1478 -0.2907 -0.4082 -0.8654 223 220 223
115.4520 -91.4035 330.3902 -0.4919 -0.5022 -0.7112 255 255 255
107.9282 -94.4579 338.5863 -0.5258 -0.3994 -0.7510 151 152 159
82.3164 -106.2840 383.9843 -0.7979 -0.2710 -0.5385 149 153 159
72.6428 -112.2579 406.2826 -0.6162 -0.5627 -0.5510 107 111 115
170.1974 -80.3870 291.4829 -0.5469 0.4407 -0.7118 202 173 171
154.7677 -84.7305 305.5502 -0.5513 -0.1556 -0.8197 202 197 201
127.5856 -89.2142 322.6132 -0.4704 -0.5639 -0.6788 208 135 146
118.8832 -90.6972 327.8079 -0.4352 -0.4935 -0.7530 192 186 193
97.7292 -95.2451 349.7163 -0.8180 -0.1238 -0.5618 154 153 156
90.6125 -100.8721 365.6488 -0.8479 -0.1150 -0.5176 79 80 86
179.1819 -78.4117 285.6884 -0.4818 0.2137 -0.8498 227 134 143
164.5460 -82.3541 298.3269 -0.5447 -0.0801 -0.8348 185 184 189
145.9331 -84.9026 308.8017 -0.4121 -0.3732 -0.8312 187 191 194
138.1494 -86.3162 315.0963 -0.3746 -0.3669 -0.8515 255 255 255
108.7741 -90.6192 335.2596 -0.4615 -0.4285 -0.7768 165 165 167
101.2324 -94.0509 345.2006 -0.7977 -0.1163 -0.5917 59 53 60
93.0681 -98.0778 360.5799 -0.8447 -0.0942 -0.5269 195 196 203
85.6513 -104.3417 379.3904 -0.7963 -0.2704 -0.5411 111 113 119
75.8888 -109.6280 399.7506 -0.6679 -0.5621 -0.4879 169 168 173
64.7183 -112.5928 412.8323 -0.7109 -0.4651 -0.5275 200 200 202
181.6974 -77.2998 283.2862 -0.2853 0.2037 -0.9365 175 167 174
172.4608 -79.2498 290.2076 -0.4008 0.3996 -0.8244 203 118 126
155.5762 -82.3139 303.4389 -0.5430 -0.1039 -0.8333 245 242 245
149.0801 -84.1841 307.7502 -0.2805 -0.3696 -0.8858 172 166 175
141.2885 -85.2804 313.3419 -0.4372 -0.4316 -0.7890 237 237 239
127.9759 -85.6838 316.7538 -0.4201 -0.4614 -0.7814 222 155 164
120.3172 -87.8175 324.4991 -0.3519 -0.4885 -0.7985 196 193 198
186.3675 -77.7070 282.8575 -0.1476 0.1627 -0.9756 0 0 0
175.7796 -78.7154 290.3770 -0.4343 0.2299 -0.8709 184 103 108
165.2244 -79.9819 295.1514 -0.4061 -0.1381 -0.9033 174 166 171
159.3871 -81.9919 301.6230 -0.4389 -0.1462 -0.8866 229 226 229
151.6743 -82.8846 306.2756 -0.3479 -0.3649 -0.8636 244 241 244
131.4738 -85.0827 316.8916 -0.2532 -0.4747 -0.8430 201 198 201
103.8247 -92.0292 342.0054 -0.8099 -0.1282 -0.5724 175 178 175
95.9221 -95.9785 356.2704 -0.8527 -0.0585 -0.5192 131 132 139
87.1328 -99.6167 371.5109 -0.8202 -0.2248 -0.5260 61 63 67
78.1259 -105.1088 389.3736 -0.6638 -0.4600 -0.5898 178 182 188
67.8252 -109.7360 407.8593 -0.6553 -0.5529 -0.5147 187 187 191
178.1665 -77.6193 288.7191 -0.6386 0.0611 -0.7671 231 146 163
169.0308 -79.7677 295.0626 -0.3860 0.1493 -0.9103 219 173 179
143.0148 -83.2903 310.1474 -0.5096 -0.4572 -0.7289 232 234 238
123.3106 -86.6210 322.3806 -0.4099 -0.4831 -0.7737 166 130 140
115.8747 -89.0822 331.5244 -0.4299 -0.5297 -0.7312 255 255 255
91.1970 -98.9742 368.4803 -0.8169 -0.1248 -0.5632 118 116 126
170.0988 -77.7589 292.8665 -0.4924 0.2134 -0.8438 181 85 101
159.8357 -79.4682 299.2263 -0.4344 -0.2956 -0.8508 238 235 238
153.3425 -81.0255 304.4443 -0.4118 -0.3953 -0.8211 211 208 214
133.4943 -83.2913 315.0132 -0.2360 -0.4506 -0.8610 228 221 223
125.3368 -84.4556 319.7371 -0.5263 -0.4549 -0.7184 189 122 129
105.1753 -88.6481 337.6244 -0.6839 -0.2280 -0.6930 137 139 139
97.8132 -92.6690 351.1781 -0.8569 0.0128 -0.5154 192 191 196
80.6401 -100.9696 382.3128 -0.7237 -0.3694 -0.5829 169 168 171
60.3853 -112.2284 421.3651 -0.7914 -0.2222 -0.5695 219 219 217
178.0676 -75.0847 285.4422 -0.6508 -0.0040 -0.7593 151 144 149
162.8833 -78.6161 296.9831 -0.4892 -0.3418 -0.8024 251 248 251
157.0092 -80.5588 303.2589 -0.3354 -0.3455 -0.8764 255 255 255
144.1277 -80.8409 306.9555 -0.3379 -0.4458 -0.8289 197 195 205
136.9728 -82.6511 314.1108 -0.3137 -0.5100 -0.8010 235 234 239
116.2103 -85.1061 325.9493 -0.5484 -0.4469 -0.7068 255 255 255
108.8546 -88.2639 335.5133 -0.6059 -0.3178 -0.7293 164 164 164
101.6064 -91.7944 348.6372 -0.8603 0.0208 -0.5094 175 174 177
92.4577 -94.5690 361.4772 -0.8228 0.0055 -0.5683 188 190 192
69.2558 -103.5003 398.5387 -0.5962 -0.6582 -0.4598 203 205 207
-75.1143 -113.4121 429.4928 0.1409 -0.5450 -0.8265 255 255 255
-114.0320 -96.8982 370.5307 -0.0841 -0.7540 -0.6515 235 235 235
-150.8282 -104.1747 387.6201 0.0000 0.0000 0.0000 223 224 221
172.3588 -76.5199 291.4364 -0.4343 0.2406 -0.8681 166 55 77
147.0395 -79.9064 306.0452 -0.2372 -0.3844 -0.8922 212 211 216
140.5096 -81.9576 312.8721 -0.4287 -0.5153 -0.7420 184 183 188
127.5795 -82.6904 316.5993 -0.4457 -0.4540 -0.7715 240 171 165
120.1634 -90.3615 335.5734 -0.0171 -0.6598 -0.7513 255 255 255
83.3091 -98.2480 376.8503 -0.7497 -0.2996 -0.5901 186 187 191
72.8233 -101.4550 390.7907 -0.5285 -0.5818 -0.6182 145 147 149
62.8965 -107.2983 411.9107 -0.7780 -0.3957 -0.4879 175 177 179
-72.2481 -115.4009 429.4927 0.0127 -0.5463 -0.8375 255 255 255
183.8318 -73.6702 283.8009 -0.1009 0.1633 -0.9814 0 0 0
175.0856 -75.6390 290.7998 -0.4984 -0.0259 -0.8666 219 136 157
163.4362 -76.1963 293.7357 -0.1904 -0.2123 -0.9585 219 208 203
158.1263 -78.4601 300.9336 -0.3893 -0.3138 -0.8660 215 212 215
130.0707 -81.2950 315.6748 -0.2937 -0.3979 -0.8692 231 167 170
110.0189 -84.7019 331.0562 -0.5490 -0.3745 -0.7473 102 104 108
102.9855 -88.5091 342.6553 -0.8607 0.0110 -0.5089 173 175 177
94.7534 -91.8345 356.9433 -0.8632 0.0846 -0.4977 201 203 205
86.4930 -96.4033 372.3296 -0.7669 -0.2339 -0.5976 192 192 194
76.9320 -100.3910 387.3068 -0.5317 -0.5633 -0.6325 203 205 207
177.2299 -74.4157 288.9014 -0.6258 -0.1143 -0.7715 211 208 214
167.5283 -76.1232 294.9354 -0.1246 -0.0966 -0.9875 196 117 128
149.6754 -78.6974 305.1749 -0.3378 -0.4108 -0.8468 234 233 238
122.0515 -82.7046 320.9519 -0.4785 -0.3734 -0.7948 128 125 131
99.0034 -91.5486 354.2449 -0.8497 0.0154 -0.5270 91 94 102
65.8168 -103.6759 401.8455 -0.7121 -0.5630 -0.4195 167 169 173
-48.2766 -105.3894 413.8187 -0.1062 0.6319 -0.7677 255 255 246
-64.4363 -108.6054 423.0351 -0.2187 -0.4135 -0.8838 255 255 246
-103.2637 -99.0570 385.4994 0.7867 -0.5349 -0.3081 226 226 226
170.3629 -75.2601 294.7143 -0.4545 -0.0493 -0.8894 230 125 142
159.7992 -76.7078 298.8941 -0.5813 -0.3188 -0.7486 183 175 180
151.6411 -77.1584 302.0857 -0.3597 -0.4462 -0.8195 241 241 243
140.5717 -78.7869 307.4988 -0.4259 -0.4680 -0.7743 250 250 252
132.5616 -79.7771 313.3074 -0.2737 -0.4606 -0.8444 182 127 143
125.3747 -81.7251 319.7733 -0.5537 -0.4027 -0.7289 120 114 122
105.5815 -86.6801 339.2490 -0.8363 -0.0274 -0.5476 101 101 103
88.4548 -92.7003 365.7821 -0.8012 -0.0962 -0.5906 102 105 111
79.8086 -97.5141 382.5438 -0.5958 -0.5209 -0.6113 179 180 184
58.9867 -107.3686 420.1971 -0.8410 -0.1154 -0.5285 184 184 182
-120.3800 -95.1359 370.1875 -0.2740 -0.9010 -0.3364 255 255 255
178.0147 -72.3931 285.7931 -0.5437 -0.2261 -0.8083 198 192 196
143.0618 -77.3670 305.9378 -0.3035 -0.3659 -0.8798 227 227 229
107.8718 -84.4539 334.4775 -0.7322 -0.0728 -0.6772 151 151 153
100.7212 -88.1871 349.3469 -0.8751 0.0550 -0.4807 135 141 144
92.6185 -91.9908 364.5550 -0.8042 -0.0412 -0.5929 86 87 91
68.3394 -99.4454 392.0484 -0.4975 -0.7068 -0.5030 121 132 135
-59.2188 -105.9810 418.4199 0.0237 -0.0620 -0.9978 255 255 240
-78.1326 -105.5204 422.6689 0.4227 -0.5951 -0.6835 237 135 144
171.7346 -73.5109 292.2090 -0.5161 -0.0747 -0.8533 219 138 147
160.0759 -74.1307 295.1023 -0.5781 -0.2980 -0.7596 224 179 204
152.8285 -75.1144 300.2633 -0.2790 -0.3809 -0.8815 243 243 245
146.1656 -76.6269 305.6786 -0.3109 -0.3201 -0.8949 255 255 255
134.4762 -77.7670 312.1761 -0.3318 -0.5184 -0.7881 197 188 191
126.1479 -78.7616 315.0682 -0.4809 -0.3622 -0.7985 210 181 182
82.4175 -94.3919 377.4288 -0.6078 -0.4424 -0.6594 156 157 161
61.5769 -102.5995 409.9662 -0.8605 -0.3122 -0.4027 175 174 179
-55.3599 -106.1342 421.3140 0.0364 0.3974 -0.9169 255 255 239
-73.6259 -104.3661 422.9214 0.2502 -0.6078 -0.7536 255 255 255
183.4674 -70.7394 285.2684 -0.0676 -0.1261 -0.9897 0 0 0
180.1115 -71.2465 284.6887 -0.2454 -0.1438 -0.9587 209 206 209
173.9756 -72.2384 291.0096 -0.5409 -0.2321 -0.8085 172 166 173
163.1883 -73.4094 293.7751 -0.1512 -0.2428 -0.9582 137 32 60
157.3392 -75.1917 300.4409 -0.3168 -0.3807 -0.8687 218 217 220
137.6331 -77.0290 309.2971 -0.3693 -0.5116 -0.7758 185 185 185
109.4812 -81.2761 329.8580 -0.7750 -0.0896 -0.6255 149 150 154
102.7786 -85.5922 344.6234 -0.8608 0.0424 -0.5072 151 151 153
94.6247 -89.0404 359.8833 -0.8262 -0.0297 -0.5627 119 121 125
85.8098 -92.6114 373.5426 -0.6240 -0.3458 -0.7007 115 124 125
70.8480 -95.8238 384.9513 -0.4082 -0.6442 -0.6469 184 184 186
-50.7994 -104.7923 420.6715 -0.0744 0.0024 -0.9972 255 253 234
-69.5271 -104.3459 424.4997 0.0623 -0.6147 -0.7863 253 203 188
-110.2497 -90.7785 363.0183 0.2567 -0.7387 -0.6232 228 228 228
-111.0565 -88.3480 362.4208 -0.1086 -0.6613 -0.7422 255 255 255
167.0009 -73.1316 295.6059 -0.0370 -0.1677 -0.9851 202 129 133
159.9471 -74.0491 298.6514 -0.5699 -0.3388 -0.7486 174 128 121
147.9813 -74.8290 303.5688 -0.4167 -0.3382 -0.8438 255 255 255
128.7913 -77.6164 313.3966 -0.3640 -0.3645 -0.8571 236 162 171
120.8529 -78.9421 320.7737 -0.5359 -0.3105 -0.7851 255 255 255
105.3556 -83.7565 340.5643 -0.8897 0.1036 -0.4447 108 107 112
98.2151 -87.9066 356.0819 -0.8109 -0.0882 -0.5784 201 208 208
74.5987 -94.1271 383.4104 -0.4254 -0.6584 -0.6209 179 179 179
-46.7504 -105.4527 424.5399 0.0927 0.4661 -0.8799 255 253 234
-141.4234 -88.6824 355.6918 0.9515 -0.1622 0.2614 156 149 149
175.9308 -70.9915 287.6655 -0.5934 -0.2685 -0.7588 223 223 226
170.0184 -72.4351 295.2994 -0.3069 -0.2937 -0.9053 166 46 84
151.6033 -74.4052 302.4839 -0.4465 -0.3495 -0.8237 222 218 224
139.7446 -75.3914 306.8828 -0.3553 -0.4397 -0.8249 215 215 219
132.0437 -76.6661 312.5909 -0.3354 -0.3509 -0.8743 165 62 78
112.6616 -80.5675 327.5605 -0.7664 -0.1400 -0.6270 204 203 206
88.2891 -89.6847 367.2124 -0.6448 -0.3434 -0.6829 154 153 156
-64.3579 -101.6385 420.8451 -0.1862 -0.2336 -0.9543 211 157 152
-104.5788 -91.6216 375.5017 0.2364 -0.8002 -0.5511 200 195 195
178.6017 -70.1764 286.7832 -0.4961 -0.3478 -0.7956 234 232 235
160.2362 -71.5914 295.6239 -0.5860 -0.2752 -0.7621 118 100 115
142.5465 -74.3091 306.3050 -0.2777 -0.3459 -0.8962 233 232 237
123.1486 -77.1427 318.5966 -0.5946 -0.3284 -0.7339 174 175 182
107.1173 -80.8504 336.4548 -0.8548 0.1325 -0.5017 201 200 207
92.4080 -88.9420 366.4867 -0.6930 -0.2556 -0.6741 199 199 201
77.2240 -90.9148 375.1277 -0.3552 -0.7150 -0.6022 146 148 152
-60.2433 -101.6769 419.9433 0.0237 -0.0620 -0.9978 228 164 149
-117.2527 -87.0900 360.9731 0.1166 -0.7496 -0.6515 255 255 255
-118.6581 -85.5620 357.8784 0.1562 -0.7579 -0.6334 192 192 181
180.1530 -68.6030 285.4000 -0.2388 -0.3213 -0.9164 214 209 213
170.7262 -70.1553 291.5337 -0.4062 -0.3134 -0.8584 168 160 165
152.4343 -72.1435 299.7898 -0.2987 -0.3198 -0.8991 235 235 237
145.2798 -73.3412 305.0824 -0.3044 -0.3441 -0.8882 229 229 233
133.1884 -74.2904 309.2792 -0.4348 -0.3839 -0.8146 230 171 180
98.6928 -83.2831 349.2139 -0.8230 -0.0936 -0.5603 222 219 220
80.3655 -88.8656 371.6548 -0.2231 -0.6387 -0.7364 124 126 130
-56.7880 -102.1044 423.0528 0.1460 0.2809 -0.9486 253 198 187
-81.1901 -87.8316 367.1514 0.0755 -0.7052 -0.7050 167 159 155
-98.1296 -87.7423 369.4290 -0.0384 -0.8737 -0.4850 192 190 191
-113.0240 -85.8298 358.7569 -0.0097 -0.7132 -0.7009 128 123 123
-131.0185 -84.5517 349.1936 0.2524 -0.4523 -0.8554 102 97 101
-132.0979 -83.1572 347.2521 0.0775 -0.2869 -0.9548 195 190 192
174.1320 -69.8967 291.4669 -0.5064 -0.3077 -0.8055 203 200 205
162.5941 -70.3719 294.0241 -0.1932 -0.2935 -0.9362 176 168 175
155.3907 -71.3196 299.6772 -0.3038 -0.3185 -0.8979 171 172 178
124.2353 -74.6396 313.8519 -0.4919 -0.2684 -0.8283 162 154 159
117.2352 -76.9865 322.3627 -0.4222 -0.1066 -0.9002 255 255 255
110.0983 -79.4574 333.0588 -0.8195 0.0312 -0.5722 102 103 110
102.8994 -82.8871 346.0040 -0.8335 -0.0098 -0.5525 156 157 163
93.8367 -85.2017 359.9832 -0.6145 -0.4456 -0.6511 102 102 106
84.8802 -88.5674 371.4286 -0.3131 -0.6110 -0.7271 190 193 192
69.4311 -90.8820 382.4491 -0.5408 -0.6637 -0.5168 193 194 198
-52.2496 -101.1041 423.7897 0.0219 -0.1724 -0.9848 255 213 204
-77.9842 -87.9786 368.7047 0.1171 -0.7049 -0.6996 191 181 159
-127.2018 -83.6809 352.6979 0.1637 -0.5534 -0.8167 189 187 187
181.1039 -66.8335 283.6608 -0.0119 -0.2644 -0.9643 199 192 196
166.1311 -69.9592 294.6742 -0.0901 -0.3331 -0.9386 218 215 221
147.0180 -71.5233 303.5003 -0.3290 -0.4099 -0.8507 255 255 255
134.7289 -72.1895 306.9303 -0.4368 -0.3001 -0.8480 212 199 206
128.1458 -74.3836 313.3993 -0.4102 -0.1688 -0.8962 186 98 110
119.0926 -74.8376 320.7548 -0.6234 -0.2849 -0.7282 255 255 255
114.2704 -79.2974 330.4051 -0.7561 -0.0645 -0.6513 142 143 147
63.4607 -94.0931 402.6353 -0.9657 -0.0453 -0.2558 175 178 177
34.7906 -89.3357 372.5997 0.1986 -0.5873 -0.7846 220 222 219
-47.1164 -99.2705 422.8272 -0.1820 -0.2882 -0.9401 255 255 255
-91.0275 -86.8870 364.0500 0.2778 -0.6472 -0.7100 114 110 107
-91.9496 -84.0686 358.4070 0.0569 -0.6466 -0.7607 181 174 174
-107.7751 -83.4149 355.4807 0.0423 -0.7003 -0.7126 210 206 205
-124.0474 -83.3299 352.8423 0.0673 -0.6676 -0.7415 188 185 186
174.0481 -67.2841 286.0875 -0.5620 -0.3750 -0.7372 213 213 222
157.8085 -69.9841 297.6756 -0.4612 -0.3328 -0.8225 211 210 215
138.9729 -72.1729 306.2617 -0.3735 -0.3260 -0.8685 214 213 218
104.4785 -79.8823 341.8578 -0.8541 0.0409 -0.5185 172 179 181
96.7381 -83.2188 355.1579 -0.6232 -0.4071 -0.6678 175 173 173
87.7403 -86.2753 368.6670 -0.4688 -0.5683 -0.6762 208 220 232
71.4943 -86.7995 372.7274 -0.4908 -0.6240 -0.6081 181 183 185
58.4467 -101.4974 425.7092 -0.9686 -0.0052 -0.2484 150 152 153
-86.7323 -85.6223 365.5083 0.2740 -0.6541 -0.7050 188 180 176
-104.8078 -86.9076 365.3420 0.0000 0.0000 0.0000 180 176 175
-104.2841 -82.9514 356.0632 0.2935 -0.7435 -0.6009 219 217 216
-138.4325 -81.5516 349.2283 -0.2272 -0.5745 -0.7863 205 200 201
177.3516 -66.8417 286.1692 -0.4858 -0.3876 -0.7834 230 227 232
167.7820 -68.3025 292.2391 -0.2196 -0.4072 -0.8865 217 214 219
159.8158 -68.6564 295.7477 -0.5158 -0.3628 -0.7761 214 213 220
149.1115 -70.0621 301.4454 -0.3451 -0.3693 -0.8629 244 244 246
141.3439 -70.8094 305.6750 -0.3263 -0.3862 -0.8628 230 230 232
129.0597 -71.5296 310.3819 -0.4462 -0.1448 -0.8831 230 134 150
122.2946 -73.7356 317.7070 -0.6474 -0.2575 -0.7173 196 192 200
106.7403 -77.7649 337.3563 -0.8266 0.0506 -0.5606 218 217 220
99.4133 -81.0702 351.9227 -0.7221 -0.2577 -0.6419 214 214 216
75.1334 -85.7142 369.8386 -0.3414 -0.5974 -0.7257 180 180 182
65.7476 -90.3417 388.3134 -0.8788 -0.1199 -0.4619 112 116 121
38.4893 -86.4069 372.0526 -0.0165 -0.5432 -0.8395 202 205 204
-61.2568 -96.7513 418.9769 0.0000 0.0000 0.0000 213 155 147
-118.9936 -81.1874 350.9477 0.1681 -0.7117 -0.6821 194 190 189
-135.4158 -80.8616 348.2206 -0.0707 -0.5441 -0.8360 142 137 139
170.2488 -67.3053 290.7648 -0.2549 -0.4372 -0.8625 255 255 255
152.3225 -69.3247 299.9305 -0.2686 -0.3726 -0.8883 255 255 255
133.1638 -71.6156 309.8988 -0.5830 -0.1893 -0.7901 148 119 144
113.1348 -74.0473 322.3198 -0.5857 -0.0480 -0.8091 255 255 255
110.6233 -77.1743 336.0058 -0.7783 -0.0256 -0.6274 179 179 181
90.4168 -83.4343 363.0086 -0.4792 -0.6325 -0.6086 217 219 221
60.4375 -95.5558 418.3422 -0.9648 0.0705 -0.2533 161 160 163
42.6397 -85.9870 369.6804 -0.0320 -0.5852 -0.8103 255 255 255
-37.8072 -95.6663 417.0279 -0.2448 -0.4651 -0.8507 255 255 255
-57.3190 -96.3888 419.1532 0.0000 0.0000 0.0000 235 178 165
-82.2575 -84.4004 365.0668 0.0519 -0.7473 -0.6624 140 129 125
-97.7243 -82.4505 359.5816 -0.1220 -0.7583 -0.6404 225 218 216
-99.0360 -80.4976 358.7115 0.2978 -0.7402 -0.6029 206 187 182
-116.0096 -81.3337 353.2793 0.1443 -0.7257 -0.6727 183 176 176
177.3104 -64.4682 282.5830 -0.3401 -0.4189 -0.8419 171 165 172
172.8734 -66.4257 290.0594 -0.4537 -0.4014 -0.7956 220 219 224
161.1979 -66.9266 293.2263 -0.3685 -0.3290 -0.8694 168 170 176
154.4207 -67.9299 298.0028 -0.3071 -0.3314 -0.8921 194 196 200
143.1562 -69.1195 302.4092 -0.3540 -0.4460 -0.8220 171 172 176
136.0177 -70.4192 308.1146 -0.4802 -0.1584 -0.8628 255 255 255
123.8383 -71.5451 315.0078 -0.3571 -0.1315 -0.9248 135 97 94
116.6919 -73.7290 322.6212 -0.6296 0.0234 -0.7765 255 255 255
102.0639 -79.2595 347.5474 -0.7723 -0.0839 -0.6297 147 149 153
78.3048 -83.2712 366.3132 -0.2345 -0.6627 -0.7112 183 187 190
-52.8032 -95.0947 421.3529 0.0000 0.0000 0.0000 247 203 195
-61.7669 -83.3948 360.5221 0.1374 -0.8021 -0.5812 175 156 149
-77.3156 -81.9659 362.3893 0.0762 -0.7630 -0.6419 230 210 194
-112.4149 -80.4634 354.0576 0.0096 -0.7234 -0.6903 141 135 132
-130.2298 -79.2110 347.8414 0.1278 -0.6089 -0.7829 172 166 164
180.5352 -63.8809 282.5078 -0.0873 -0.3787 -0.9214 151 143 151
163.7375 -65.8756 292.4939 -0.2201 -0.3409 -0.9140 216 213 218
146.1532 -68.2396 302.1144 -0.2934 -0.4354 -0.8511 215 217 219
127.5162 -71.0570 313.5217 -0.4182 -0.0624 -0.9062 223 143 157
104.3323 -76.9508 343.6328 -0.7878 -0.1408 -0.5996 124 125 132
92.2251 -80.3775 355.2999 -0.2915 -0.6131 -0.7343 159 161 163
82.1644 -82.3987 365.4033 -0.2766 -0.7303 -0.6246 152 158 163
67.1246 -84.6976 377.7089 -0.7444 -0.4241 -0.5158 132 136 139
62.9354 -90.7675 403.0623 -0.9746 0.0978 -0.2014 35 40 40
28.8508 -82.8595 366.3461 0.1609 -0.6505 -0.7423 215 215 215
-33.2116 -93.6787 414.4797 -0.1884 -0.6347 -0.7494 255 255 255
-93.6538 -81.3155 359.3737 0.0569 -0.6466 -0.7607 204 184 182
-127.0197 -78.7919 348.8458 0.1007 -0.6379 -0.7635 191 183 179
184.7759 -64.0309 284.2684 0.1476 -0.2911 -0.9452 0 0 0
173.4896 -64.3796 287.2264 -0.5064 -0.3892 -0.7694 202 199 204
156.8774 -66.7993 297.0760 -0.4114 -0.3884 -0.8246 174 175 182
137.3154 -68.1666 305.4403 -0.4067 -0.2312 -0.8838 198 197 202
129.6318 -69.3698 312.1460 -0.5067 -0.0691 -0.8593 255 250 255
110.7543 -73.1310 328.5462 -0.7529 0.0107 -0.6581 193 193 193
95.8754 -79.5490 353.9499 -0.4416 -0.5090 -0.7389 170 174 177
70.2035 -82.3118 369.9388 -0.6464 -0.4103 -0.6433 168 167 170
57.0278 -95.7579 428.1693 0.0000 0.0000 0.0000 144 146 148
33.1904 -82.5786 368.8302 0.2277 -0.6445 -0.7299 161 160 163
-47.2719 -92.8703 416.2015 0.0000 0.0000 0.0000 255 255 235
-56.5017 -80.0840 356.1220 -0.2250 -0.6899 -0.6880 217 179 172
-89.1675 -79.7318 357.7268 0.1427 -0.7225 -0.6765 255 237 219
-107.7143 -78.8008 350.2893 0.0740 -0.7410 -0.6674 215 208 211
165.9184 -64.5654 290.1111 -0.2798 -0.3516 -0.8934 212 211 218
158.8391 -65.4220 295.6422 -0.4456 -0.3233 -0.8348 204 206 212
147.6145 -66.4473 299.6608 -0.2402 -0.3790 -0.8937 255 255 255
140.0437 -67.1286 303.6499 -0.4515 -0.2454 -0.8579 237 239 243
120.9502 -69.8660 316.4156 -0.6369 -0.1470 -0.7568 148 142 148
106.9721 -75.1187 339.5097 -0.7381 -0.2788 -0.6144 183 182 187
82.6197 -77.5212 359.2601 -0.3603 -0.7216 -0.5912 177 182 182
65.6469 -87.5161 393.0070 -0.9801 0.1035 -0.1692 174 178 181
-121.5406 -76.5604 347.0778 0.0165 -0.7043 -0.7097 208 192 193
-137.5840 -76.5696 346.1395 -0.0074 -0.6118 -0.7910 143 134 130
174.8290 -62.8022 284.7115 -0.5053 -0.3469 -0.7902 191 189 192
168.4759 -63.7215 289.9756 -0.2793 -0.3742 -0.8843 192 191 198
151.1141 -65.9193 298.9991 -0.2960 -0.3595 -0.8850 236 237 241
132.7864 -68.5100 311.0366 -0.6128 -0.1078 -0.7828 196 193 198
116.7759 -71.0028 324.2205 -0.6231 0.1754 -0.7622 226 225 228
113.3058 -71.2994 325.7468 -0.5811 0.2778 -0.7649 255 255 255
110.0682 -73.8216 335.9681 -0.6869 -0.3320 -0.6465 171 173 174
97.4197 -76.2971 349.6149 -0.5804 -0.3655 -0.7277 135 137 138
86.3672 -76.5280 352.7997 -0.1977 -0.5242 -0.8283 239 238 241
73.6260 -80.8350 367.3708 -0.4117 -0.5288 -0.7422 197 201 202
59.4846 -91.6232 422.0886 -0.9389 -0.0131 -0.3438 197 201 202
36.3478 -80.2950 366.2471 0.1161 -0.6582 -0.7438 89 92 98
-42.5117 -90.1742 416.2014 -0.2539 -0.4738 -0.8432 255 255 235
-51.9070 -77.6900 348.6608 -0.0634 -0.7023 -0.7091 218 176 167
-84.5667 -77.6604 354.9380 0.1333 -0.7469 -0.6515 255 255 252
-100.2587 -77.1277 350.5439 0.2669 -0.7759 -0.5716 206 195 179
-102.1278 -76.1035 348.1680 0.1294 -0.7621 -0.6344 214 206 199
-118.7067 -76.3928 347.0482 0.0809 -0.7094 -0.7002 176 158 155
-133.4044 -75.2454 344.0126 0.1196 -0.6809 -0.7225 180 170 162
177.9216 -62.1939 283.3772 -0.4048 -0.3274 -0.8538 224 221 224
171.5612 -63.2087 289.5316 -0.4019 -0.3677 -0.8386 186 185 190
159.9523 -63.5760 292.6008 -0.4020 -0.2781 -0.8724 255 254 255
141.8665 -65.5292 301.1271 -0.4978 -0.3360 -0.7995 237 237 241
123.0315 -68.2621 314.0403 -0.4109 -0.0785 -0.9083 145 67 73
100.5960 -75.0379 347.0166 -0.6735 -0.3226 -0.6651 152 152 157
76.7891 -78.4827 363.4868 -0.5080 -0.5767 -0.6399 73 74 81
40.8419 -80.3721 367.3189 0.0581 -0.6337 -0.7714 171 176 177
-38.3969 -90.4335 415.4620 0.0000 0.0000 0.0000 255 255 244
-47.3329 -76.3155 350.8067 0.3094 -0.6126 -0.7273 255 255 242
-80.1303 -76.1437 352.8488 0.0117 -0.8114 -0.5844 255 255 241
-130.4722 -74.9001 344.6354 0.0938 -0.6723 -0.7343 173 163 155
178.2384 -60.2125 281.3889 -0.1316 -0.2341 -0.9633 210 205 211
152.8790 -64.3207 296.6690 -0.3526 -0.3122 -0.8821 153 156 162
133.2702 -65.7631 306.5837 -0.5095 -0.1221 -0.8517 159 158 166
126.4580 -67.5045 313.9124 -0.4368 -0.1485 -0.8872 254 229 230
119.0348 -69.1181 320.6396 -0.7967 0.0739 -0.5998 127 125 128
111.4223 -70.8461 331.0129 -0.6057 -0.3275 -0.7252 198 196 199
103.9007 -73.8636 344.4409 -0.7315 -0.3054 -0.6096 123 124 131
90.1007 -75.5344 352.4563 -0.1121 -0.4076 -0.9062 214 216 217
66.7361 -80.8103 379.0693 -0.9269 0.0546 -0.3714 218 220 222
63.0532 -88.5416 411.4518 -0.9661 0.1874 -0.1774 46 53 53
44.4408 -78.8794 366.5677 0.0628 -0.6120 -0.7884 110 113 119
23.8794 -78.3007 361.9634 -0.3055 -0.3330 -0.8921 221 223 222
-45.0553 -77.0853 353.2538 0.3130 -0.6749 -0.6683 255 251 234
-63.5352 -75.7031 350.2345 -0.0003 -0.5586 -0.8294 255 255 249
-94.9236 -74.6262 350.5752 0.1578 -0.8015 -0.5768 255 241 220
-112.3266 -73.2919 344.0108 0.0399 -0.7471 -0.6635 200 183 175
162.4433 -62.5194 291.5697 -0.3527 -0.2324 -0.9064 171 172 176
155.0285 -63.0374 295.8114 -0.3903 -0.3199 -0.8633 230 230 232
143.4836 -63.8126 299.5564 -0.3215 -0.2756 -0.9059 223 223 226
137.1360 -65.4027 306.1958 -0.5480 -0.1387 -0.8249 192 191 196
129.8771 -66.7831 313.1980 -0.4838 -0.1898 -0.8544 250 247 250
79.3712 -75.8828 358.1243 -0.5407 -0.5935 -0.5961 182 186 191
48.3444 -78.0463 366.7347 0.0561 -0.6094 -0.7909 139 143 144
27.5700 -76.9277 361.0794 -0.3040 -0.5291 -0.7922 213 215 214
-32.5236 -84.9934 409.9342 0.0000 0.0000 0.0000 255 255 237
-41.2715 -76.9614 354.5038 0.2841 -0.6838 -0.6720 255 255 246
-60.0066 -75.1966 350.8552 -0.1200 -0.6209 -0.7746 255 255 251
-75.6478 -74.5590 351.1543 -0.0327 -0.7925 -0.6090 255 255 255
-91.6387 -74.2781 349.0282 0.1136 -0.8109 -0.5740 255 251 227
-109.3445 -73.1355 343.9919 0.0723 -0.7469 -0.6610 175 156 147
-125.1594 -72.8719 342.1898 0.0453 -0.7136 -0.6991 213 194 185
181.0808 -59.4932 280.7316 0.0909 -0.2105 -0.9734 0 0 0
175.1037 -60.3498 285.3544 -0.5227 -0.2278 -0.8215 237 234 237
170.6257 -60.2732 285.5196 -0.4159 -0.2974 -0.8594 238 235 238
165.0979 -61.5857 290.3951 -0.3751 -0.3027 -0.8762 216 213 216
146.8664 -63.1660 298.8293 -0.2466 -0.2784 -0.9283 157 158 166
140.0989 -64.4709 304.2809 -0.5829 -0.0487 -0.8111 255 255 255
119.8267 -66.1907 316.3507 -0.7202 0.0990 -0.6866 191 122 127
93.8213 -74.5417 351.9622 -0.3531 -0.4359 -0.8278 147 149 151
69.0741 -77.5347 367.1148 -0.7274 -0.1895 -0.6595 111 113 117
65.2787 -84.6980 400.0337 -0.9658 0.1661 -0.1993 60 61 68
31.4774 -75.7630 359.9891 -0.0260 -0.6176 -0.7861 54 58 61
-55.6917 -73.3512 346.4968 -0.2402 -0.6210 -0.7461 255 255 255
-105.5894 -72.1860 343.1447 0.0712 -0.7446 -0.6637 237 209 202
-121.7780 -72.1354 342.0212 0.0183 -0.7299 -0.6833 245 226 216
167.8294 -60.6563 289.7188 -0.3105 -0.3570 -0.8810 208 208 210
156.3731 -61.2780 293.4095 -0.3876 -0.2608 -0.8842 208 207 214
150.0422 -62.4791 298.5193 -0.3204 -0.2921 -0.9011 255 254 255
131.2428 -64.6056 309.6575 -0.5310 -0.2451 -0.8112 235 235 237
123.1941 -65.5432 315.6251 -0.5300 0.0295 -0.8475 114 26 47
117.9716 -69.3922 330.0591 -0.4649 -0.0194 -0.8852 161 163 167
105.4107 -70.6993 337.3535 -0.7224 -0.4565 -0.5194 126 126 126
97.2771 -73.2607 348.9269 -0.4897 -0.4117 -0.7686 115 122 122
81.5679 -73.5074 353.4645 -0.4256 -0.5342 -0.7305 138 140 140
72.4569 -76.3314 366.2264 -0.6956 -0.2946 -0.6552 190 192 196
35.4287 -75.5248 361.6894 0.2012 -0.6596 -0.7242 153 157 160
-34.1218 -76.7677 355.8193 -0.0729 -0.7087 -0.7018 255 255 242
-87.3037 -72.6246 346.5639 0.0219 -0.8271 -0.5616 255 255 250
-102.6952 -71.9999 343.8865 0.0832 -0.7618 -0.6424 229 203 191
-117.9912 -71.2313 341.5715 0.0151 -0.7360 -0.6768 213 190 179
-135.0853 -70.5649 337.8023 0.0264 -0.6650 -0.7464 215 198 194
175.2489 -58.2772 282.5066 -0.5403 -0.1369 -0.8303 215 212 215
159.6640 -60.7001 292.7986 -0.4495 -0.2345 -0.8620 170 169 174
153.1864 -61.7320 296.1978 -0.4062 -0.3038 -0.8618 234 233 238
141.7085 -62.6473 301.7219 -0.6029 -0.0455 -0.7965 210 209 212
133.8329 -63.4072 307.4270 -0.4940 -0.2269 -0.8393 131 132 139
99.6016 -71.0481 346.1780 -0.5762 -0.3928 -0.7167 143 144 148
85.3004 -72.5141 352.2220 -0.2103 -0.5272 -0.8233 199 200 204
67.2503 -80.0158 387.5597 -0.9329 -0.0232 -0.3594 64 70 75
64.0819 -87.6987 422.8890 0.0000 0.0000 0.0000 171 172 178
39.4738 -75.3044 362.6854 0.1651 -0.6339 -0.7555 95 96 103
-51.6031 -71.7748 345.6325 0.0416 -0.6663 -0.7446 255 255 249
-83.1200 -71.3475 345.1863 0.1395 -0.7927 -0.5935 255 255 243
-132.0576 -69.9680 339.1631 0.0660 -0.6933 -0.7177 212 193 186
177.7129 -57.4212 281.5456 -0.3847 -0.1128 -0.9161 255 255 255
168.9660 -58.9743 286.6908 -0.3144 -0.3300 -0.8901 255 255 255
163.1905 -60.2190 292.3990 -0.3915 -0.2287 -0.8913 199 198 203
126.6496 -64.9502 315.3170 -0.4869 -0.1101 -0.8665 242 237 241
118.0178 -65.4287 321.2682 -0.6902 -0.0191 -0.7234 205 168 171
106.1952 -67.5784 332.7566 -0.5995 -0.4581 -0.6563 182 181 184
75.3232 -73.8710 359.6038 -0.6966 -0.3916 -0.6012 183 182 187
23.0088 -75.4677 365.6888 -0.2287 0.4408 -0.8680 48 49 58
-26.4704 -76.0495 352.6920 0.6433 -0.2959 -0.7062 255 255 255
-47.8067 -71.2490 346.0759 0.1968 -0.7052 -0.6811 255 255 245
-63.8687 -70.2332 348.6932 0.0074 -0.6163 -0.7875 255 248 232
-97.3629 -69.5042 342.1222 0.1529 -0.7855 -0.5996 255 255 232
-112.9369 -69.3852 339.7503 0.0275 -0.7418 -0.6701 224 201 186
-128.2764 -69.0334 338.6914 0.0095 -0.6977 -0.7164 248 223 213
172.0868 -58.3771 286.2399 -0.2945 -0.2596 -0.9197 148 142 148
154.1998 -59.8102 295.2210 -0.4124 -0.2719 -0.8695 177 176 181
143.0990 -60.8043 299.5255 -0.4891 0.0196 -0.8720 253 255 255
136.9903 -62.6984 307.1857 -0.4900 -0.1676 -0.8554 240 239 244
101.8930 -68.6960 342.6563 -0.6145 -0.4940 -0.6151 212 212 212
89.0180 -71.5204 351.7616 -0.0861 -0.4940 -0.8652 192 194 195
69.9608 -77.0988 377.0461 -0.9521 0.1413 -0.2710 85 89 92
65.7713 -82.8638 408.7733 0.0000 0.0000 0.0000 129 128 133
42.8171 -73.1246 361.1106 0.1968 -0.5696 -0.7980 166 170 173
26.8656 -73.5288 362.0219 -0.5072 -0.0658 -0.8593 119 118 123
-28.9016 -70.9813 349.8966 0.2050 -0.6256 -0.7527 255 250 231
-44.3310 -70.2452 346.2415 0.2644 -0.7485 -0.6081 255 255 240
-60.4900 -70.5507 348.2886 -0.1391 -0.6661 -0.7328 255 255 240
-78.5924 -69.9505 343.3479 0.2193 -0.7733 -0.5949 255 255 239
-94.1437 -69.3106 341.6797 0.1315 -0.7984 -0.5876 255 255 236
-109.4113 -68.6552 339.0858 0.0868 -0.7332 -0.6744 242 214 203
-142.6010 -68.0190 335.6519 0.1131 -0.6326 -0.7661 179 163 164
180.7558 -56.6681 281.4238 -0.1897 -0.0951 -0.9772 0 0 0
174.7124 -57.4774 285.5913 -0.4801 -0.1491 -0.8645 224 221 224
164.3339 -58.4925 290.4020 -0.4399 -0.3302 -0.8352 123 122 129
157.6213 -59.2292 294.5352 -0.3369 -0.2591 -0.9052 156 158 159
146.1647 -60.0574 298.8343 -0.3591 -0.0103 -0.9333 180 179 186
127.4460 -62.2962 310.3213 -0.5208 -0.1706 -0.8365 180 176 182
120.6755 -64.0951 319.4985 -0.7282 0.0478 -0.6837 145 28 58
92.7215 -70.5278 349.4987 -0.2637 -0.5090 -0.8194 139 142 152
77.8375 -71.3696 355.9677 -0.6686 -0.4467 -0.5945 162 161 166
46.2552 -71.9660 360.5885 0.1237 -0.5712 -0.8114 117 121 124
-6.4508 -73.5033 363.4041 -0.3502 -0.6825 -0.6415 255 255 255
-22.2303 -73.0096 357.0995 0.6375 -0.3896 -0.6647 255 255 241
-40.7606 -69.7168 347.4010 0.2781 -0.7513 -0.5985 255 255 235
-90.3921 -68.0827 341.0113 0.0616 -0.7979 -0.5997 255 255 250
-123.4763 -67.3466 336.8250 -0.0170 -0.7270 -0.6864 254 225 205
-140.0706 -67.8472 336.3761 0.0939 -0.6130 -0.7844 187 172 164
149.2274 -59.2592 297.7673 -0.4073 -0.0945 -0.9084 247 249 253
137.8630 -60.3485 303.4857 -0.4627 -0.0809 -0.8828 141 139 149
130.4617 -61.2395 309.6361 -0.5557 -0.1900 -0.8094 243 242 247
123.5235 -62.9237 317.0041 -0.6286 0.0059 -0.7777 240 234 227
104.1679 -66.4505 335.0215 -0.5676 -0.3471 -0.7466 198 197 200
95.8907 -69.1084 346.4271 -0.3355 -0.5668 -0.7524 117 119 123
80.5102 -69.5009 351.8949 -0.5034 -0.5360 -0.6777 193 194 198
71.8571 -73.0845 366.5965 -0.8293 -0.0267 -0.5582 210 212 216
50.6839 -71.4522 360.2600 -0.0676 -0.5391 -0.8395 128 132 138
30.0869 -70.6827 354.9913 -0.2041 -0.2448 -0.9478 194 194 196
-18.1908 -72.9799 361.1741 0.2665 -0.6253 -0.7335 255 255 241
-37.3001 -69.7539 348.9246 0.1488 -0.7496 -0.6450 255 255 239
-55.5765 -67.9938 343.2795 -0.1450 -0.7023 -0.6969 255 255 255
-104.5332 -66.7343 337.9428 0.0118 -0.7668 -0.6418 255 238 219
-120.0347 -66.6282 336.3052 0.0230 -0.7567 -0.6533 255 249 233
-135.1522 -66.1558 334.7357 0.0122 -0.6183 -0.7858 212 188 180
175.3968 -55.6702 283.0308 -0.5970 -0.0970 -0.7963 245 242 245
165.9834 -56.9883 287.6761 -0.3687 -0.3130 -0.8753 192 192 194
158.9359 -57.5744 292.8500 -0.3626 -0.2717 -0.8915 147 145 153
141.2861 -59.7148 302.6441 -0.5687 -0.0197 -0.8223 214 214 216
133.7365 -60.5520 308.3741 -0.5165 -0.1751 -0.8382 255 255 255
115.0926 -63.8311 324.0515 -0.4790 -0.3593 -0.8009 183 170 165
99.3722 -67.9987 345.5707 -0.5489 -0.5628 -0.6180 128 127 132
84.2288 -68.5093 349.7051 -0.2023 -0.5929 -0.7794 172 173 177
66.4254 -76.0248 387.7357 0.0000 0.0000 0.0000 64 70 73
34.0234 -69.5793 354.4085 -0.0360 -0.2450 -0.9688 65 66 72
-14.6492 -71.5632 361.8134 0.0048 -0.7606 -0.6492 255 255 242
-85.3075 -65.8460 338.6033 0.0655 -0.8130 -0.5786 255 255 240
-100.7337 -65.7662 336.1730 0.0527 -0.7920 -0.6082 255 235 218
168.4055 -55.9534 286.5901 -0.2566 -0.2797 -0.9252 248 246 249
150.6447 -57.5177 295.2533 -0.5005 -0.2261 -0.8357 190 189 192
143.9363 -58.5750 301.5865 -0.5639 0.0295 -0.8253 234 233 238
124.7927 -60.6319 312.7817 -0.5839 -0.0814 -0.8077 223 223 228
117.9709 -62.5169 323.1869 -0.5957 -0.2882 -0.7497 236 193 203
105.4281 -63.8169 329.3835 -0.5381 -0.1753 -0.8244 255 255 255
73.9848 -69.2720 359.3638 -0.8527 -0.1322 -0.5053 157 162 163
53.9042 -69.7825 358.4819 -0.1243 -0.4633 -0.8774 136 141 142
37.6698 -69.2808 356.8294 0.0689 -0.4041 -0.9121 133 135 137
-33.2544 -67.9739 347.4657 0.1165 -0.7527 -0.6480 255 248 231
-51.5330 -66.2450 341.4377 -0.0626 -0.6688 -0.7408 255 255 248
-96.7940 -64.7051 335.6684 0.1332 -0.8032 -0.5806 255 255 235
-115.2719 -64.8940 334.1255 0.0386 -0.7523 -0.6577 255 247 228
-131.1978 -65.0575 334.5004 0.0468 -0.6306 -0.7747 255 249 237
-145.6909 -63.0857 325.0399 0.2985 -0.3996 -0.8667 106 98 96
177.5195 -54.5461 281.9902 -0.4126 -0.1009 -0.9053 239 237 237
170.2656 -54.7609 286.1809 -0.2430 -0.1975 -0.9497 175 173 181
160.9859 -56.3246 291.2743 -0.4097 -0.2800 -0.8682 212 211 216
153.1299 -56.4493 294.8279 -0.4432 -0.2653 -0.8562 199 199 201
134.7035 -58.4273 304.7434 -0.4776 -0.1338 -0.8683 201 201 205
121.5269 -61.8334 321.5667 -0.6899 -0.1916 -0.6981 221 167 165
109.5611 -63.9761 329.3835 -0.4563 -0.3484 -0.8188 255 255 255
87.9315 -67.5176 348.5740 -0.0866 -0.6135 -0.7849 64 68 72
57.7587 -69.1307 356.3979 0.0837 -0.5213 -0.8492 110 112 116
41.8203 -68.7309 358.8216 0.1301 -0.5089 -0.8509 111 110 113
26.1403 -70.8875 369.4364 -0.8066 0.5229 -0.2755 147 151 152
-7.1181 -70.7569 364.8264 0.0000 0.0000 0.0000 255 249 233
-29.4147 -66.8924 347.6508 0.2233 -0.7102 -0.6677 255 250 230
-47.6824 -64.9816 338.5627 0.0468 -0.6699 -0.7410 255 255 239
-81.3002 -64.7090 337.7621 0.1778 -0.7657 -0.6181 216 186 173
-111.6137 -63.9757 333.2143 0.0604 -0.7380 -0.6721 255 255 236
-126.9613 -63.8430 333.2672 -0.0775 -0.6936 -0.7162 255 255 255
-143.7625 -64.4938 333.7104 0.3246 -0.6134 -0.7200 137 121 120
-142.8071 -62.5842 325.5825 0.5359 -0.4672 -0.7032 136 123 123
180.1397 -53.7673 281.5155 -0.2102 -0.0557 -0.9761 240 237 241
174.0298 -54.4852 285.5836 -0.4501 -0.2243 -0.8643 195 192 195
162.5249 -54.7844 288.5777 -0.5037 -0.3067 -0.8076 239 238 241
145.2212 -56.7352 299.2705 -0.4379 0.0722 -0.8961 206 206 208
137.9190 -57.6319 304.4297 -0.3980 -0.0993 -0.9120 151 152 159
127.4483 -59.4940 311.4361 -0.5599 -0.1225 -0.8194 169 166 172
99.5903 -63.9398 336.1607 -0.5689 -0.4072 -0.7145 159 160 167
91.6193 -66.5269 346.0941 -0.1599 -0.6701 -0.7249 135 136 142
76.7217 -67.5484 355.1173 -0.8109 -0.2351 -0.5358 34 32 42
62.2842 -68.9445 359.6843 0.1334 -0.5209 -0.8431 96 97 104
45.2137 -68.6572 360.7273 0.0805 -0.5367 -0.8400 85 86 90
-10.4978 -67.4656 352.7123 0.1018 -0.6907 -0.7160 255 255 237
-25.9806 -66.4692 348.7951 0.4933 -0.5517 -0.6725 255 251 234
-44.0171 -64.1074 338.5609 0.1261 -0.6415 -0.7567 255 255 238
-78.1774 -64.2509 337.2815 0.2830 -0.7230 -0.6303 253 224 206
-93.0597 -63.6455 334.4461 0.0542 -0.8072 -0.5878 255 255 244
-107.6178 -62.8097 332.8921 -0.0057 -0.7297 -0.6838 255 255 246
180.6082 -51.8240 279.4753 -0.1223 -0.0767 -0.9895 0 0 0
155.8436 -55.5442 293.0536 -0.3077 -0.2519 -0.9175 133 130 138
148.4762 -56.0367 298.6497 -0.4503 0.0072 -0.8928 229 229 231
130.4451 -58.4522 310.2361 -0.5458 -0.0606 -0.8357 189 191 195
122.0498 -59.0288 316.3681 -0.6992 -0.1459 -0.6999 232 232 232
111.2652 -61.4200 326.5187 -0.6187 -0.1177 -0.7767 188 183 187
72.1030 -70.0417 368.8329 -0.9214 -0.0208 -0.3880 128 132 138
49.9029 -68.0214 360.7257 -0.0558 -0.4998 -0.8644 83 93 99
29.7810 -68.0209 360.0615 -0.7069 0.3607 -0.6084 32 34 38
-6.9718 -67.2096 357.3363 0.2893 -0.6694 -0.6843 255 255 239
-22.4879 -66.6017 353.4298 0.5310 -0.6149 -0.5831 243 212 191
-88.7892 -62.1880 330.6891 -0.0073 -0.8091 -0.5876 255 255 234
-122.2493 -62.1554 330.1457 -0.0657 -0.7276 -0.6829 255 254 240
-138.8600 -62.8628 333.0139 0.0932 -0.5671 -0.8184 205 187 173
176.5229 -53.4798 283.8693 -0.4958 -0.2762 -0.8233 255 255 255
164.6806 -53.6373 286.8235 -0.4106 -0.2354 -0.8809 251 251 253
158.5998 -54.6352 292.5119 -0.3616 -0.2724 -0.8916 255 255 255
140.7909 -56.6710 303.4312 -0.5058 -0.0478 -0.8613 225 224 227
114.2422 -60.1353 323.7639 -0.5111 -0.1395 -0.8481 181 89 99
106.0406 -61.4074 335.2292 -0.5901 -0.2249 -0.7754 255 255 255
93.7228 -64.0079 343.4435 -0.2210 -0.6653 -0.7131 187 189 193
78.7170 -64.4421 348.4574 -0.6460 -0.4627 -0.6070 198 197 200
33.2534 -66.4104 357.0448 -0.1502 0.2491 -0.9568 133 130 134
-18.8574 -66.6416 355.3319 0.1869 -0.7590 -0.6237 255 255 239
-40.1681 -63.1611 338.5525 0.1674 -0.6206 -0.7660 255 245 226
-71.6006 -63.5523 339.3344 0.2136 -0.4629 -0.8603 255 238 216
-101.5603 -59.8832 329.3611 -0.0569 -0.6901 -0.7215 255 255 234
-118.3069 -60.9744 328.7804 0.0521 -0.7072 -0.7051 255 255 255
-134.2907 -61.3784 331.8237 -0.0659 -0.6036 -0.7945 255 246 232
177.4393 -51.8028 281.3711 -0.2627 -0.1595 -0.9516 238 235 238
167.3776 -52.7886 286.2448 -0.2346 -0.1552 -0.9596 174 171 176
150.8312 -54.9232 296.0559 -0.5740 -0.0325 -0.8182 230 230 232
143.2370 -55.3911 302.1812 -0.5418 -0.0286 -0.8400 177 176 181
131.8178 -56.4988 307.6798 -0.5705 -0.0413 -0.8203 204 206 212
124.5736 -57.6502 313.9210 -0.6366 -0.0992 -0.7648 255 255 255
116.7176 -58.8120 322.8912 -0.5827 -0.2280 -0.7801 236 144 152
96.8905 -62.7212 342.3266 -0.3988 -0.6516 -0.6453 189 188 191
74.1136 -66.6918 364.1791 -0.8687 -0.0759 -0.4894 45 51 56
52.4373 -65.1195 357.2437 -0.0274 -0.5002 -0.8655 130 132 136
36.8355 -65.1606 355.8261 -0.1229 0.0268 -0.9921 78 77 82
-14.9609 -64.9859 351.9449 0.0187 -0.7121 -0.7019 255 239 217
-36.8971 -62.3357 338.5852 0.2098 -0.6453 -0.7345 244 205 184
-51.7700 -61.6278 336.9577 -0.1108 -0.5519 -0.8265 255 255 255
-53.7217 -59.7334 332.1251 -0.2792 -0.3822 -0.8809 255 255 255
-68.1229 -63.0180 339.0386 0.0814 -0.3346 -0.9388 255 255 243
-84.1105 -60.1625 328.5978 0.2662 -0.6940 -0.6690 236 210 198
-98.1684 -59.1615 327.5681 0.0954 -0.6507 -0.7533 255 254 233
-114.5354 -59.9191 328.4037 0.0718 -0.6903 -0.7200 255 255 239
-131.0801 -60.6797 331.2050 -0.1186 -0.6410 -0.7583 255 255 255
-147.2902 -59.8589 324.7697 0.3336 -0.4463 -0.8304 63 48 56
170.6301 -52.2308 286.2002 -0.1870 -0.1007 -0.9772 187 189 193
159.9789 -53.0726 289.9721 -0.4905 -0.1914 -0.8502 229 229 231
134.4071 -55.3151 305.3542 -0.5647 -0.1169 -0.8170 255 255 255
127.9359 -56.9642 313.3926 -0.5531 -0.0223 -0.8328 212 211 216
108.3475 -59.7554 329.4471 -0.6958 -0.1852 -0.6940 95 92 95
81.5609 -62.5254 343.9818 -0.4437 -0.5587 -0.7007 216 220 219
57.2872 -65.8244 358.1516 0.0502 -0.4825 -0.8745 145 142 145
-11.2447 -64.2786 351.9581 0.2102 -0.5860 -0.7826 255 255 238
-33.3305 -62.1842 339.6036 0.2752 -0.6633 -0.6959 255 252 225
-48.0948 -60.7989 335.9138 -0.0058 -0.5380 -0.8430 255 255 240
-64.4033 -62.0519 340.1334 0.0067 -0.3733 -0.9277 255 255 252
-80.9522 -59.9061 330.4705 0.3625 -0.6759 -0.6416 161 138 125
178.8954 -50.5146 280.2018 -0.0291 0.0055 -0.9996 134 128 136
161.9972 -51.8515 288.6627 -0.5234 -0.1269 -0.8426 175 174 179
151.6086 -52.9818 293.9009 -0.5251 -0.0522 -0.8494 246 245 248
144.4677 -53.5970 298.9341 -0.4604 -0.0270 -0.8873 209 200 201
138.3780 -55.0502 305.1917 -0.3947 -0.1266 -0.9100 207 208 212
118.7904 -57.0481 318.7824 -0.6903 -0.2446 -0.6809 185 185 187
98.6751 -60.1502 335.3040 -0.3315 -0.4510 -0.8287 163 161 164
84.9019 -61.5501 342.4391 -0.2939 -0.6089 -0.7368 119 125 127
76.5498 -64.7595 357.3010 -0.8563 -0.1982 -0.4769 217 219 221
40.3494 -64.0880 355.6143 -0.1248 -0.2376 -0.9633 97 101 102
29.0974 -66.6406 369.3029 -0.7879 0.5808 -0.2045 26 22 23
-29.8165 -61.5938 341.3955 0.3193 -0.6696 -0.6706 255 255 237
-60.6919 -61.2030 340.1678 -0.2184 -0.3707 -0.9027 255 255 253
-77.8674 -59.4621 332.4288 0.3653 -0.6524 -0.6640 217 192 180
-94.7713 -58.4411 327.2070 0.0358 -0.6516 -0.7577 255 255 244
-110.6871 -58.9741 328.2736 0.0616 -0.6835 -0.7273 255 255 235
-125.6534 -58.7096 327.3327 -0.1380 -0.6741 -0.7256 255 255 255
-142.2365 -59.4386 330.0127 0.4438 -0.5342 -0.7195 172 145 138
