ply
format ascii 1.0
element vertex 781
property float x
property float y
property float z
property float nx
property float ny
property float nz
property uchar red
property uchar green
property uchar blue
end_header
11.8308 54.7283 360.0052 0.3573 0.6450 -0.6755 155 138 119
-8.3625 53.9868 355.5312 -0.0230 0.6310 -0.7754 162 155 153
-24.9846 54.7750 361.3582 -0.0842 0.6759 -0.7322 234 213 202
-41.6461 55.3083 365.1879 -0.2890 0.6392 -0.7127 253 227 220
-858.5375 290.1194 1943.0094 0.0204 -0.0605 -0.9980 231 233 235
-894.9693 277.5502 1845.1805 0.0138 0.3434 -0.9391 229 231 232
-955.6929 264.4142 1742.2787 -0.3508 0.1288 -0.9276 231 233 235
-1009.8981 252.0703 1669.7128 0.1562 0.3013 -0.9407 222 224 226
180.4132 48.4610 315.6333 -0.6678 0.4035 -0.6254 80 70 75
172.4855 49.4977 326.2174 -0.4976 0.5750 -0.6494 146 144 144
166.1867 51.2379 333.2793 -0.2399 0.6590 -0.7129 81 75 86
154.5550 52.0455 341.0769 -0.6967 0.4606 -0.5500 190 192 194
149.3306 54.2861 356.9060 0.2744 0.5960 -0.7547 61 60 65
127.1980 53.2234 349.2191 -0.2675 -0.1355 -0.9540 108 104 110
121.0402 60.0423 396.1261 -0.4900 -0.6268 -0.6058 53 50 53
114.5086 63.2467 416.2155 0.1643 -0.0356 -0.9858 31 26 32
83.5285 55.0742 361.5725 0.1437 0.7275 -0.6709 239 209 198
67.0061 55.2053 359.5825 0.1288 0.5823 -0.8027 243 210 201
51.7173 55.9968 361.0587 -0.0124 0.5693 -0.8220 252 220 208
31.5909 55.3429 361.8808 -0.2697 0.5699 -0.7762 250 218 206
15.3397 55.9050 363.4283 0.3020 0.6714 -0.6767 138 127 108
-4.7454 54.9243 356.3921 0.1099 0.5924 -0.7981 178 167 162
-21.1975 55.6523 361.4011 -0.1111 0.7122 -0.6931 249 220 214
-37.8942 56.2501 364.9719 -0.2847 0.6371 -0.7163 255 231 227
-55.2281 57.0027 370.4178 0.1365 0.5434 -0.8283 202 191 192
-72.6062 57.5499 373.8774 -0.5062 0.6353 -0.5833 131 139 147
-856.4771 300.7797 1942.0363 0.1555 -0.0783 -0.9847 230 232 236
-917.0668 294.2010 1885.3700 0.4667 0.1873 -0.8644 228 230 231
-942.8743 270.2909 1771.8604 0.0138 0.0352 -0.9993 225 227 229
-997.6990 257.4965 1666.8749 0.2328 0.1490 -0.9610 222 224 226
189.9986 47.7031 307.5826 -0.4675 0.2038 -0.8602 181 165 177
175.9653 50.3235 324.7307 -0.4700 0.5788 -0.6664 255 255 255
170.0197 52.0766 333.9276 -0.2408 0.6988 -0.6736 89 83 92
157.7304 52.7761 339.1376 -0.6099 0.5332 -0.5863 2 0 4
153.1616 55.1250 355.3951 -0.3051 0.5604 -0.7699 39 35 43
131.3039 54.1119 349.4241 0.0058 0.1425 -0.9898 43 49 54
117.2681 64.0176 416.9205 -0.2450 -0.6133 -0.7509 3 0 3
92.7340 57.3755 365.3174 -0.0048 0.6905 -0.7234 210 184 175
87.8487 56.1643 363.8927 0.0615 0.7255 -0.6854 217 185 175
71.1366 56.2593 360.6420 0.1334 0.6612 -0.7382 223 189 178
54.8848 56.5474 359.2841 -0.1097 0.5270 -0.8427 242 209 202
35.8443 56.1137 360.3590 -0.1396 0.5665 -0.8121 252 221 213
19.6675 57.2350 367.8643 0.1620 0.7536 -0.6370 235 219 206
-0.9887 55.9364 359.2390 0.0673 0.5820 -0.8104 199 175 169
-17.1632 56.4920 361.8384 -0.1382 0.7289 -0.6705 255 227 221
-33.8718 57.0075 363.9358 -0.1908 0.6535 -0.7325 243 217 207
-51.4830 58.0922 372.8465 -0.0162 0.6390 -0.7690 215 198 192
-69.9116 58.9498 374.2154 -0.4086 0.5969 -0.6904 149 154 164
-817.8228 299.7272 1961.7350 0.1795 0.5808 -0.7940 230 232 234
-957.8027 283.6459 1822.2098 -0.5236 -0.0989 -0.8462 229 231 232
-982.2538 262.2284 1693.7158 -0.1149 0.2001 -0.9730 225 227 229
193.6563 48.4656 306.6421 -0.3831 0.0614 -0.9217 221 216 220
183.0489 49.1354 313.0889 -0.5826 0.3957 -0.7100 159 74 93
179.9762 51.1919 324.8379 -0.4893 0.5078 -0.7091 216 211 217
160.6049 53.5037 338.1012 -0.4734 0.6422 -0.6029 186 182 188
155.9855 55.8221 351.0402 -0.7362 0.2930 -0.6100 165 162 165
135.6093 55.0873 350.1125 0.0173 0.4657 -0.8848 30 31 37
121.7862 55.8160 356.0847 -0.6401 -0.3247 -0.6963 13 10 18
75.5339 57.4141 362.5877 0.1085 0.7313 -0.6734 238 207 197
39.6256 57.2462 361.7864 -0.0851 0.6148 -0.7840 249 216 204
23.6691 58.0881 368.5985 -0.1703 0.7148 -0.6783 245 226 218
2.9220 56.8734 359.9326 0.0096 0.6301 -0.7765 224 203 196
-13.4194 57.3986 361.6905 -0.1852 0.7237 -0.6648 245 231 222
-47.4375 59.0088 372.6794 -0.1981 0.7081 -0.6778 255 238 233
-823.3422 313.6572 1997.3033 0.1256 -0.1191 -0.9849 229 231 235
-950.3595 291.6320 1849.4844 -0.0152 -0.2076 -0.9781 228 230 231
-952.2971 263.4079 1679.3107 -0.0711 -0.1901 -0.9792 228 230 231
-1024.6809 256.2342 1616.1190 -0.4426 -0.0903 -0.8922 222 224 226
185.4381 49.7781 312.3314 -0.6519 0.3210 -0.6870 135 67 78
180.3149 51.4945 321.7953 -0.7322 0.4261 -0.5313 133 118 125
171.5338 52.5057 330.4115 -0.3639 0.7077 -0.6056 102 102 104
138.5609 55.7706 349.3179 0.1771 0.5450 -0.8195 2 1 8
119.6598 59.4324 377.1656 -0.4982 0.0353 -0.8664 63 57 65
118.3136 63.9838 401.5437 -0.5922 -0.2499 -0.7661 14 14 16
79.6139 58.4194 365.4524 0.1082 0.7875 -0.6067 237 204 195
59.5245 57.5074 359.2458 -0.0955 0.5242 -0.8462 240 208 196
43.2102 58.0848 362.3114 -0.0378 0.6193 -0.7842 249 219 209
27.3615 58.8674 367.8831 -0.3538 0.6544 -0.6683 231 200 190
6.6715 57.8769 360.7119 0.1440 0.6685 -0.7296 217 191 182
-29.8389 57.8270 364.1785 -0.0712 0.7113 -0.6993 245 219 210
-43.1941 59.7050 370.8036 -0.3368 0.6897 -0.6410 245 224 215
-64.1451 58.9803 369.5184 -0.0134 0.6245 -0.7809 150 151 159
-854.7762 296.9650 1927.4303 -0.0168 0.1128 -0.9935 228 229 233
-931.2101 266.6502 1691.2428 -0.3505 0.2782 -0.8943 222 224 226
-1018.6998 262.8180 1650.5571 0.2199 0.4212 -0.8799 220 222 223
188.1294 50.4501 309.9431 -0.7637 0.1060 -0.6368 169 159 165
175.0439 53.3926 331.3854 -0.4052 0.6708 -0.6212 169 166 170
163.3087 54.1810 336.7918 -0.3294 0.6888 -0.6458 101 100 109
156.2386 56.0390 346.4397 -0.7181 0.5123 -0.4711 90 89 92
152.2188 58.7765 361.1906 -0.0953 0.5241 -0.8463 95 95 97
144.0440 56.9750 353.9267 0.4348 0.6084 -0.6640 47 45 55
122.3228 55.9586 350.1392 -0.4619 -0.2179 -0.8598 5 9 14
121.9088 59.9658 371.2898 -0.1948 -0.2703 -0.9429 87 84 87
93.5105 57.4444 358.0646 0.3509 0.3950 -0.8490 22 22 22
83.9375 59.4737 367.1154 0.1275 0.7849 -0.6064 231 203 195
62.5865 58.1785 358.5072 -0.0564 0.5427 -0.8380 237 204 195
47.1434 58.9800 363.0758 0.0180 0.6464 -0.7628 243 210 203
31.0477 59.5464 365.4659 -0.3084 0.6386 -0.7050 255 245 235
15.2536 60.3692 369.3819 0.3311 0.7464 -0.5773 222 208 195
-5.5905 59.1925 361.6704 -0.0292 0.7022 -0.7114 145 136 136
-9.4167 58.0340 360.2746 -0.1456 0.7154 -0.6834 136 130 127
-26.0044 58.7788 364.8878 -0.0430 0.7374 -0.6740 237 209 200
-59.6572 59.8783 370.1339 0.1450 0.5814 -0.8006 157 158 164
-836.2247 301.7162 1917.0771 0.2446 0.2331 -0.9412 234 235 239
-935.2123 308.0315 1847.4637 0.0695 0.0384 -0.9968 227 229 230
-948.7901 280.2804 1728.0758 0.2017 0.3828 -0.9015 227 229 230
181.7117 51.9507 317.4351 -0.7289 0.4148 -0.5447 152 61 60
166.4010 54.8130 336.0678 -0.2353 0.7029 -0.6713 79 73 82
126.0025 56.7981 347.9636 -0.1442 -0.0791 -0.9864 95 95 107
111.9025 67.3994 413.9596 -0.7420 -0.5834 -0.3303 42 39 45
89.1528 60.8439 370.0787 0.0054 0.7789 -0.6272 217 213 212
66.8908 59.4526 361.1527 0.1375 0.6816 -0.7187 240 209 202
50.8228 59.8918 363.7118 0.0084 0.6965 -0.7176 233 202 195
34.9920 60.5460 367.0542 -0.1888 0.6548 -0.7318 250 220 212
18.9746 61.7225 374.3634 0.0732 0.7252 -0.6847 226 208 196
-1.8581 60.0939 362.5667 0.0544 0.7224 -0.6893 122 104 101
-22.0987 59.8196 365.9648 -0.0419 0.7656 -0.6420 237 211 202
-38.8924 60.2729 368.0584 -0.2977 0.6894 -0.6604 239 213 206
-56.4574 61.1582 373.6701 0.2216 0.6496 -0.7272 155 152 158
-865.8041 323.5391 1961.0898 0.2693 0.5900 -0.7612 228 229 233
-957.1921 291.8552 1750.8730 0.4978 0.2811 -0.8205 225 227 229
-1005.0501 276.3945 1689.2963 0.0823 0.3900 -0.9171 211 213 215
185.0143 52.7628 316.9291 -0.6436 0.4328 -0.6313 172 82 104
159.2240 56.7878 343.7165 -0.5592 0.6425 -0.5239 132 131 136
153.7225 59.1946 358.0445 -0.6094 0.4300 -0.6661 21 18 24
131.1519 57.8255 350.1338 0.2142 0.2929 -0.9318 126 128 134
117.0299 63.2828 384.4412 -0.9068 -0.3475 -0.2388 56 55 58
91.8507 61.4325 368.4884 -0.1175 0.7503 -0.6506 255 255 255
71.3061 60.5530 365.8077 0.1794 0.7774 -0.6029 228 198 190
55.2725 61.1053 364.6319 -0.0920 0.7420 -0.6640 237 206 198
22.7747 62.5246 374.2019 -0.1873 0.7079 -0.6810 245 226 216
2.1501 61.0118 363.3614 0.0630 0.7050 -0.7064 174 154 149
-18.2693 60.8086 367.0947 -0.0894 0.7856 -0.6122 242 218 211
-35.0565 61.2638 368.2820 -0.1679 0.7257 -0.6672 246 225 218
-52.8467 62.4139 375.9498 0.1654 0.6905 -0.7042 201 190 189
-1039.7474 294.0627 1722.5885 -0.4161 0.4665 -0.7806 223 225 229
191.5207 51.5310 305.8185 -0.3767 -0.0955 -0.9214 203 200 205
187.4352 53.4486 314.8461 -0.7238 0.3217 -0.6105 239 232 232
173.6797 56.5500 336.5061 -0.3644 0.6233 -0.6919 226 225 228
161.8085 57.4332 341.9873 -0.4031 0.6978 -0.5922 47 43 53
155.6330 59.6542 354.1257 -0.8234 0.3221 -0.4672 174 171 174
136.1032 59.0787 352.6979 0.1956 0.4741 -0.8585 38 39 46
120.6708 59.4698 354.9983 -0.7464 -0.0944 -0.6588 67 68 75
120.0590 63.8752 377.9514 -0.9010 -0.3356 -0.2748 97 92 96
114.3617 67.6399 405.6891 -0.7742 -0.5739 -0.2670 20 17 23
80.5612 63.0953 371.2671 0.0861 0.8110 -0.5786 240 214 209
75.7001 61.6814 369.4074 0.1658 0.8044 -0.5706 234 204 196
59.1280 61.9984 365.2451 -0.1096 0.7937 -0.5984 241 213 204
26.7868 63.3398 372.5957 -0.3813 0.6254 -0.6808 230 199 191
6.1102 62.2091 365.9924 0.2122 0.7797 -0.5891 196 175 164
-14.3305 61.6868 367.2243 -0.1637 0.7948 -0.5844 251 229 223
-31.1765 62.2901 369.2808 -0.0690 0.7593 -0.6470 221 197 192
-48.7853 63.3291 377.2236 -0.0966 0.7313 -0.6752 228 213 206
-66.2662 63.7357 372.2550 -0.2702 0.6235 -0.7336 171 171 173
-810.1932 328.3462 1979.1713 0.0863 0.5365 -0.8395 230 232 234
-901.1089 285.7365 1764.8749 0.1100 0.4588 -0.8817 229 231 232
-950.9570 279.9046 1685.1514 -0.0512 0.4140 -0.9088 222 224 226
-975.5284 261.0060 1567.2554 -0.6032 -0.0174 -0.7974 228 230 231
193.5436 52.1267 305.2031 -0.2426 -0.1242 -0.9621 135 127 136
181.6625 55.2189 324.1042 -0.8085 0.2785 -0.5184 194 128 139
176.4419 57.3073 334.6583 -0.5332 0.4240 -0.7321 255 255 255
165.4822 58.2772 342.0773 -0.3454 0.6882 -0.6380 106 105 112
146.2547 61.4256 361.6588 0.3562 0.5555 -0.7514 0 0 8
138.9886 59.7883 352.7099 0.2799 0.5450 -0.7903 74 70 78
123.1338 60.0408 350.5990 -0.4652 0.0519 -0.8837 104 106 110
109.2758 71.7713 415.0898 -0.4891 -0.4765 -0.7306 151 150 157
85.0725 64.1919 373.9718 0.1246 0.7838 -0.6084 255 255 255
63.1229 62.9496 366.1285 -0.0074 0.8259 -0.5638 226 197 191
42.6227 62.1575 366.7167 0.0017 0.7145 -0.6996 233 203 193
10.2826 63.3126 368.9069 0.2941 0.8034 -0.5178 215 206 204
-10.5345 62.5184 366.8458 -0.1705 0.7943 -0.5831 218 194 186
-27.3140 63.3788 370.4170 0.0027 0.7931 -0.6091 247 223 217
-44.7959 64.2614 377.3739 -0.2998 0.7302 -0.6140 237 220 215
-392.0070 335.7434 1991.1099 0.0000 0.0000 0.0000 255 255 255
-802.6926 338.3655 2056.4597 0.0000 0.0000 0.0000 230 232 234
-883.6010 324.9979 1922.7350 0.0320 -0.3357 -0.9414 230 232 236
-952.1279 321.1716 1843.0410 -0.1369 -0.3648 -0.9210 229 231 232
-909.0604 297.8157 1782.5228 0.0018 0.6346 -0.7728 232 234 236
-985.6713 298.3995 1729.9066 0.4655 0.4038 -0.7876 224 226 228
187.1886 53.6617 311.0688 -0.8289 0.0725 -0.5547 197 194 198
180.0228 58.1114 333.4075 -0.7115 0.0989 -0.6957 30 24 31
168.0155 58.8919 340.4245 -0.2994 0.6154 -0.7292 130 126 132
157.1135 60.0471 349.4495 -0.7167 0.5029 -0.4831 26 24 34
151.3595 62.6451 364.2393 -0.3703 0.4592 -0.8075 154 153 156
114.6272 67.2632 393.5308 -0.0516 0.0118 -0.9986 81 78 83
67.2298 63.9243 370.0301 0.1462 0.8471 -0.5109 231 200 192
46.7306 63.2093 367.4832 0.0561 0.7616 -0.6456 235 207 198
30.7131 64.0285 371.6380 -0.3356 0.6469 -0.6847 246 220 213
14.5146 64.6401 374.3512 0.2519 0.7792 -0.5739 222 208 195
-6.6723 63.4026 367.0265 -0.1347 0.8016 -0.5824 161 152 151
-23.4690 64.3577 372.1001 0.0187 0.8136 -0.5812 224 198 189
-40.5903 64.9712 375.1534 -0.3045 0.7546 -0.5812 234 215 210
-61.4466 64.3385 373.8022 0.1452 0.6981 -0.7012 162 161 166
-887.8307 338.4356 1953.1698 0.5174 0.3100 -0.7977 231 233 237
-969.4230 303.4683 1743.4468 0.2962 0.1678 -0.9403 227 229 230
-1014.7621 287.0792 1655.4717 0.1981 0.0545 -0.9787 225 227 231
182.5468 55.5941 321.0224 -0.7620 0.2594 -0.5934 126 31 52
172.5900 59.8767 340.1828 -0.3378 0.5288 -0.7787 255 255 255
159.8377 60.7205 348.0574 -0.5750 0.5927 -0.5639 77 74 80
125.8196 60.5875 349.7627 0.0403 0.2137 -0.9761 129 129 131
119.6528 63.4814 365.7809 -0.9385 -0.2543 0.2334 21 28 26
110.3586 71.3644 410.0348 -0.8362 -0.3696 -0.4051 149 149 151
72.2809 65.4366 374.0159 0.1969 0.8188 -0.5393 236 209 204
50.8988 64.3547 370.4000 0.0813 0.8118 -0.5783 234 206 197
34.0361 64.7373 369.6827 -0.1408 0.6899 -0.7101 245 217 211
18.4034 66.1126 377.3895 0.0532 0.7479 -0.6617 241 224 216
-2.5523 64.0819 366.3354 -0.0312 0.7837 -0.6204 188 178 172
-19.7164 65.4862 374.0946 -0.0339 0.8269 -0.5613 245 221 213
-36.6677 65.8817 374.8346 -0.1602 0.8104 -0.5635 248 229 224
-54.5830 66.9214 381.0962 0.2112 0.7556 -0.6201 163 162 167
-57.3186 65.1242 375.8140 0.2255 0.7168 -0.6599 156 155 162
-868.3007 343.8181 2002.9115 0.3110 0.5715 -0.7594 229 231 235
-894.1718 313.6028 1827.8213 0.1804 -0.2419 -0.9534 225 227 231
-997.8795 321.8507 1737.5341 -0.1625 0.1651 -0.9728 220 222 223
-1012.6339 295.3970 1685.1998 -0.0619 0.2625 -0.9629 230 232 234
188.5681 54.1253 306.7448 -0.7298 -0.0185 -0.6835 158 158 162
185.5191 56.3057 318.8339 -0.7276 0.1644 -0.6660 228 195 202
179.3142 58.1559 328.3054 -0.8522 -0.0152 -0.5230 180 163 167
176.3009 60.7517 339.1319 -0.5317 0.2528 -0.8084 255 255 255
153.0661 63.0168 360.0700 -0.6659 0.3645 -0.6509 159 161 163
130.2303 61.6211 351.5811 0.2770 0.3428 -0.8976 30 31 39
115.5883 67.1561 382.7694 -0.9225 -0.2500 -0.2942 46 42 50
76.9907 66.8487 377.4146 0.1334 0.8158 -0.5627 255 255 255
55.1322 65.4234 372.2417 0.0275 0.8486 -0.5283 232 206 199
38.2348 65.4138 368.9477 -0.0376 0.7380 -0.6737 249 220 214
22.4889 66.7736 376.2875 -0.2158 0.6828 -0.6980 231 210 201
1.2322 65.4442 369.3784 0.1441 0.8268 -0.5437 188 173 169
-15.4295 66.3768 374.8922 -0.1015 0.8316 -0.5460 249 225 218
-50.7630 68.1794 384.6054 0.0266 0.7557 -0.6543 177 165 165
-853.0027 351.0191 2021.7997 0.2499 0.4218 -0.8716 232 234 238
-908.1352 329.2391 1890.7572 0.4500 0.2775 -0.8488 229 231 232
-969.5400 323.6733 1781.1002 0.4087 0.5920 -0.6947 227 228 232
-1004.3644 302.3425 1699.4053 -0.2158 0.4481 -0.8676 229 231 232
190.9577 54.7725 305.6176 -0.4146 0.0673 -0.9075 208 205 208
186.7769 56.7329 315.6083 -0.8342 0.0300 -0.5506 248 246 249
162.8079 61.3814 345.3267 -0.3910 0.6577 -0.6439 113 111 121
156.8198 63.8543 357.6950 -0.7465 0.3565 -0.5619 72 71 78
135.5886 62.9007 354.5426 0.3430 0.4020 -0.8490 65 66 72
118.7958 62.9374 352.7438 -0.6841 -0.0201 -0.7291 24 26 30
112.4275 71.5293 402.5375 -0.9110 -0.2844 -0.2988 129 121 131
64.5116 68.1302 379.2603 -0.1032 0.8195 -0.5637 249 233 231
59.1118 66.3946 373.9962 -0.0322 0.8603 -0.5087 229 208 199
42.5180 66.6881 371.6683 0.0578 0.8076 -0.5869 235 211 204
26.3543 67.9554 377.5536 -0.3899 0.6351 -0.6667 246 225 218
5.2447 66.8891 375.0224 0.2101 0.8530 -0.4778 209 188 177
-11.6009 67.5087 376.0649 -0.1405 0.8365 -0.5297 231 205 196
-32.5052 66.6662 375.4771 -0.0642 0.8294 -0.5549 218 199 192
-46.6652 69.0613 384.3803 -0.1297 0.7416 -0.6582 213 201 194
-871.5692 328.1199 1882.0846 0.3531 -0.0128 -0.9355 223 225 229
-972.6506 335.4047 1824.7150 0.2992 -0.5822 -0.7560 228 229 233
-984.5186 306.1342 1702.0868 -0.0233 0.3188 -0.9475 222 224 226
-1006.0513 284.4821 1586.3685 -0.6999 0.1631 -0.6954 224 226 228
181.3580 58.6996 325.0894 -0.8473 -0.0176 -0.5308 113 28 59
166.0767 62.1644 345.4238 -0.4069 0.6178 -0.6728 100 99 104
147.9606 65.9385 366.4665 -0.0289 0.7223 -0.6910 119 118 123
138.9064 63.7905 358.4876 0.4381 0.4133 -0.7983 65 65 76
122.5623 63.8364 350.8208 -0.4423 0.1418 -0.8856 67 62 66
117.3075 67.3542 375.0384 -0.8095 -0.4374 -0.3917 144 140 150
46.9782 68.0495 375.4452 0.0935 0.8328 -0.5456 232 206 199
9.2925 68.2164 378.7744 0.1737 0.7955 -0.5806 208 185 175
-7.6854 68.4276 376.0912 -0.1455 0.8462 -0.5126 225 199 192
-28.6092 67.6990 376.6819 0.0030 0.8379 -0.5458 230 210 203
-63.2346 68.9197 379.3874 0.0907 0.7110 -0.6973 200 200 202
-890.5417 346.5070 1899.6152 0.1113 -0.1572 -0.9813 229 231 235
-1006.3546 322.1049 1740.0864 0.1521 0.3904 -0.9080 227 229 230
192.6303 55.3140 305.3117 -0.1975 0.0886 -0.9763 186 183 186
187.7714 57.1145 311.7640 -0.8395 0.0338 -0.5424 102 96 105
182.9085 59.1590 322.0671 -0.7933 -0.0680 -0.6051 224 136 145
168.8351 62.7092 343.4059 -0.4519 0.4955 -0.7418 88 84 94
157.2984 64.0006 353.1649 -0.6461 0.4420 -0.6222 171 172 178
150.6995 66.5487 365.7224 -0.3852 0.6480 -0.6570 113 110 116
113.9391 71.5061 394.6759 -0.9400 -0.2274 -0.2543 149 148 153
56.2060 70.8574 381.3263 0.0478 0.8180 -0.5732 226 207 200
51.0178 69.3407 377.9575 0.1395 0.8333 -0.5349 218 194 188
29.6631 68.0164 373.5341 -0.3994 0.6222 -0.6733 243 223 218
-24.9060 69.0986 379.1399 0.0068 0.8403 -0.5421 223 201 195
-42.3594 69.7308 382.5870 -0.2226 0.7720 -0.5954 229 212 204
-59.6295 70.1712 383.0360 0.2816 0.6959 -0.6607 176 178 182
-917.2531 328.1473 1819.5391 0.1260 0.0600 -0.9902 227 229 230
-953.5872 316.2096 1741.8260 0.2996 -0.1793 -0.9370 229 231 232
-1031.2106 308.4447 1650.5182 0.1045 -0.3920 -0.9140 224 226 230
175.9824 60.9564 331.2430 -0.7400 -0.1054 -0.6643 171 164 168
161.6497 64.9493 351.7070 -0.5772 0.5062 -0.6408 67 68 77
125.4075 64.4536 351.1006 0.0850 0.2443 -0.9660 95 93 106
117.5112 67.0196 363.6670 -0.6926 -0.5104 -0.5098 53 54 63
109.8952 75.6986 410.9451 -0.8898 -0.1626 -0.4263 255 255 255
62.0837 73.0000 381.8185 -0.0129 0.7814 -0.6239 251 253 255
0.4178 70.2525 378.2461 0.1252 0.8794 -0.4594 209 190 180
-3.5715 69.0444 375.2413 -0.0648 0.8673 -0.4935 238 219 211
-20.9391 70.2225 380.8157 -0.0403 0.8263 -0.5619 231 210 203
-38.3055 70.7540 383.0627 -0.1499 0.8242 -0.5461 220 204 200
-56.1349 71.6018 386.7944 0.2006 0.7177 -0.6668 173 175 179
-929.8208 343.7487 1849.8988 0.1660 0.0001 -0.9861 232 234 236
-990.4744 306.2196 1653.3473 0.1981 -0.2233 -0.9544 225 227 229
187.3432 57.2491 307.4702 -0.7308 0.1639 -0.6627 198 197 202
184.3204 59.6419 319.0456 -0.7959 -0.1020 -0.5967 224 221 224
179.6081 61.7874 328.9201 -0.8546 -0.2150 -0.4727 117 25 43
170.0166 63.1335 340.3151 -0.4362 0.4228 -0.7943 179 176 179
162.8873 65.2921 349.4881 -0.4273 0.5441 -0.7221 101 100 105
152.5594 66.8693 361.6704 -0.7424 0.3152 -0.5911 97 99 103
145.8432 69.5611 374.0602 0.0000 0.0000 0.0000 52 54 58
130.3268 65.6735 353.7220 0.2879 0.2680 -0.9194 84 80 91
115.3872 71.5117 383.6677 -0.9780 -0.0543 -0.2014 166 166 170
43.1126 72.1872 382.9008 -0.1242 0.8416 -0.5256 222 196 188
38.7643 70.4673 382.5652 -0.2073 0.8296 -0.5184 240 216 210
4.4798 71.8402 382.7643 0.0693 0.8466 -0.5278 227 205 199
-16.9417 71.2675 382.0111 -0.0618 0.8086 -0.5852 208 187 176
-34.2672 71.8784 383.7829 -0.0675 0.8420 -0.5352 207 197 191
-52.5424 72.7493 388.3840 0.1715 0.7058 -0.6873 144 145 152
-892.1152 341.9973 1874.2963 0.3380 0.3793 -0.8613 231 233 235
-937.5516 321.2357 1760.0542 0.5067 0.4430 -0.7396 228 229 233
-999.9233 318.1815 1699.7485 0.1165 0.3657 -0.9234 224 226 228
190.5015 57.9932 306.2508 -0.4730 0.2825 -0.8345 220 218 221
172.7351 63.8524 339.1092 -0.6001 0.0949 -0.7943 255 255 255
155.1477 67.4581 357.3684 -0.7038 0.3747 -0.6035 129 129 131
149.6832 70.4757 374.7137 -0.5364 0.6149 -0.5781 0 0 6
134.6667 66.6927 354.8011 0.3758 0.2049 -0.9038 87 88 97
119.0959 67.0266 354.9431 -0.6648 -0.0711 -0.7436 94 95 104
111.8678 75.9075 402.7219 -0.8343 -0.3570 -0.4201 105 109 114
8.5552 72.9188 385.0950 0.0428 0.8327 -0.5521 243 222 213
-8.8402 73.5906 383.4307 -0.0739 0.8352 -0.5450 218 197 190
-12.8600 72.3624 382.5743 -0.0472 0.8200 -0.5704 225 206 199
-30.3129 73.0912 385.4422 -0.0067 0.8445 -0.5355 189 174 170
-45.2010 76.0868 392.5471 -0.0548 0.7401 -0.6702 154 157 165
-48.1679 73.6517 388.4488 -0.0224 0.7336 -0.6792 159 160 167
-915.5594 362.3749 1902.9644 0.1267 0.1392 -0.9821 224 226 230
-952.4573 336.4022 1799.4222 0.0571 0.2808 -0.9581 229 231 235
-1000.3144 327.9291 1722.6227 -0.0009 0.0207 -0.9998 230 232 234
-1038.8079 309.3717 1631.7855 0.2423 -0.3986 -0.8846 221 223 224
192.9539 58.6426 306.1272 -0.2767 0.3089 -0.9100 217 214 219
184.8454 59.8736 314.7409 -0.8549 -0.0660 -0.5146 185 184 189
180.4634 62.0750 324.8635 -0.8177 -0.1585 -0.5534 190 105 123
166.6702 66.1212 348.5121 -0.4543 0.4878 -0.7455 125 124 129
158.2809 68.1492 355.8169 -0.6180 0.4373 -0.6534 121 122 128
12.7652 73.9490 385.1446 -0.0037 0.7544 -0.6564 223 212 209
-4.5562 74.5630 385.7604 0.0301 0.8949 -0.4453 232 213 206
-26.2408 74.1136 387.7825 -0.0529 0.8297 -0.5558 197 186 180
-811.9814 367.1414 2023.5016 0.0174 0.3964 -0.9179 227 228 232
-868.5939 356.9366 1887.6613 0.3231 0.4024 -0.8566 228 229 233
-938.1512 342.4352 1820.2988 0.1302 -0.0144 -0.9914 227 229 230
-1073.8584 328.1103 1621.4199 0.0000 0.0000 0.0000 0 0 0
195.4905 59.3367 306.4080 -0.1622 0.2880 -0.9438 186 185 190
186.5558 60.2531 311.4193 -0.8029 0.1104 -0.5857 206 205 210
170.2180 66.9262 347.3154 -0.6306 0.3996 -0.6653 35 32 40
151.2290 70.6573 369.5543 -0.5470 0.6293 -0.5521 175 172 175
121.5156 67.3834 351.9644 -0.3519 0.0067 -0.9360 122 123 127
113.2271 69.9437 370.0822 0.7190 0.2366 -0.6535 57 55 67
113.2581 75.8038 394.5851 -0.8682 -0.2309 -0.4393 165 166 173
-0.8417 76.0421 390.3723 0.0561 0.9087 -0.4137 238 219 211
-22.2010 75.1664 387.9774 -0.1135 0.8078 -0.5785 195 185 181
-40.0579 75.8586 391.2155 -0.0822 0.7835 -0.6159 213 208 208
-60.9176 74.5218 385.3893 0.2361 0.7129 -0.6603 229 229 229
-885.2042 375.9497 1933.4972 0.3701 0.3845 -0.8457 228 229 233
-920.5823 347.3525 1814.8541 0.1127 0.0708 -0.9911 231 233 235
-963.5261 336.4633 1732.4210 -0.1188 -0.1999 -0.9726 225 227 229
-955.7156 324.0823 1709.0216 0.1976 0.0656 -0.9781 223 225 227
-985.4634 312.1499 1621.4196 -0.1296 0.0358 -0.9909 230 232 236
188.9210 60.8902 310.3977 -0.7154 0.1935 -0.6714 220 219 224
180.6708 62.2581 321.1437 -0.7808 -0.1151 -0.6141 181 171 177
177.1050 64.8336 332.8556 -0.8566 -0.2029 -0.4745 156 148 153
170.5914 66.9936 341.9228 -0.6301 0.3437 -0.6963 90 92 94
160.4520 68.6810 352.7885 -0.6149 0.4535 -0.6452 53 54 63
153.9733 71.2736 368.4946 -0.4599 0.6572 -0.5972 117 118 125
130.0553 65.2890 354.5327 0.3598 0.1599 -0.9192 36 37 43
125.3364 68.3063 352.8589 0.1608 0.2754 -0.9478 43 42 51
115.6081 76.2186 390.3751 -0.9430 -0.1135 -0.3127 122 121 126
37.7886 75.5662 386.8551 -0.2661 0.6165 -0.7410 250 227 226
3.7395 77.3872 393.8512 -0.0887 0.8879 -0.4514 237 215 209
-18.1767 76.1375 388.2267 -0.0818 0.7939 -0.6025 203 195 191
-35.7838 76.6858 390.9062 -0.0653 0.8099 -0.5829 171 166 166
-57.3448 75.7834 387.4503 0.2011 0.6984 -0.6868 172 174 175
-903.0549 352.3434 1818.9614 0.0429 0.2082 -0.9771 231 233 235
-1013.7635 363.6695 1798.6002 0.5257 -0.0694 -0.8478 231 233 235
-1030.4053 305.9487 1562.4893 0.0000 0.0000 0.0000 0 0 0
182.9226 62.8476 318.8246 -0.8335 -0.0465 -0.5505 198 195 201
178.5217 65.2095 328.6134 -0.8493 -0.2450 -0.4677 168 76 96
174.3514 67.9436 341.4881 -0.7410 0.1160 -0.6614 255 255 255
163.7338 69.3342 351.5159 -0.5314 0.4503 -0.7176 42 39 47
129.6705 69.3565 354.0323 0.2674 0.3210 -0.9085 46 47 56
115.0850 70.1480 356.9779 -0.8124 -0.2900 -0.5059 34 33 38
7.9047 79.1314 396.0043 -0.1768 0.8789 -0.4430 241 228 224
-14.0146 77.1338 389.4840 0.0414 0.8431 -0.5362 182 175 173
-31.9128 77.9297 393.1253 0.0182 0.8464 -0.5323 175 173 173
-53.8932 77.2431 392.2108 0.1822 0.7192 -0.6705 173 175 179
-69.3964 80.3353 405.8456 0.0000 0.0000 0.0000 255 255 255
-872.0397 352.5791 1829.7164 0.4971 -0.3296 -0.8027 229 231 235
191.2853 61.4827 307.9589 -0.4965 0.1790 -0.8494 119 116 124
185.4482 63.5084 316.7003 -0.8824 -0.0151 -0.4703 217 214 217
166.7575 70.1178 350.5168 -0.5698 0.3392 -0.7485 149 146 152
154.9295 71.3699 363.9325 -0.6160 0.6207 -0.4851 133 135 137
150.5461 74.9209 376.0086 -0.4441 0.4364 -0.7825 87 87 91
133.4464 70.3906 354.7909 0.2292 0.3349 -0.9140 51 51 62
118.1285 70.6985 354.5177 -0.5020 -0.1182 -0.8568 86 88 87
-5.8736 80.6796 401.7009 0.1303 0.8207 -0.5563 154 147 147
-10.0609 78.7379 395.0833 0.1654 0.8775 -0.4502 195 185 181
-27.8703 79.0217 395.5785 -0.1084 0.8299 -0.5473 192 190 189
-49.7174 78.3311 394.7860 0.0480 0.7253 -0.6867 142 143 149
-899.5442 374.9142 1898.7943 0.4003 0.4633 -0.7906 228 229 233
-950.1762 353.2627 1789.6455 0.2721 0.1842 -0.9445 229 231 235
-1009.5129 348.0852 1718.4767 0.0814 -0.0155 -0.9966 228 229 233
-974.2659 327.2249 1714.2930 0.1875 0.0245 -0.9820 218 220 222
193.1334 62.0228 307.1408 -0.2286 0.0967 -0.9687 190 187 193
179.0312 65.3618 324.3945 -0.7951 -0.2055 -0.5706 204 121 142
176.6911 68.4077 338.0497 -0.8446 -0.0594 -0.5321 163 159 172
159.0565 72.3697 359.7450 -0.5632 0.5582 -0.6092 113 109 120
152.6605 75.4722 374.5782 -0.5196 0.4266 -0.7403 12 14 20
121.4199 71.4442 352.9691 -0.0618 0.1308 -0.9895 76 78 84
106.6871 78.3253 398.3931 -0.7273 -0.3326 -0.6003 255 255 255
-1.6079 82.1043 404.7231 0.0493 0.8083 -0.5867 182 182 180
-45.5670 79.3976 395.3586 0.0333 0.7474 -0.6635 152 153 160
-897.4975 386.8339 1909.7885 0.2056 0.5360 -0.8188 227 228 232
-956.6230 366.6502 1812.1586 0.2538 0.2639 -0.9306 228 233 234
-978.2279 317.0276 1621.4199 -0.3221 0.6206 -0.7149 229 231 235
195.8190 62.7358 307.1209 0.0407 -0.0649 -0.9971 220 220 222
186.3113 63.6196 313.0573 -0.7585 0.0048 -0.6517 178 178 180
181.3678 65.9541 322.6985 -0.7523 -0.1972 -0.6286 192 104 125
169.6937 70.6620 348.3111 -0.7561 0.1830 -0.6284 123 119 127
162.1290 73.0675 357.9655 -0.6310 0.4714 -0.6161 16 17 26
113.3164 73.9895 367.5675 0.6680 0.0220 -0.7438 116 115 124
2.5546 83.0857 404.0678 -0.0189 0.8363 -0.5480 154 154 154
-23.4622 79.9629 394.4920 -0.2089 0.7954 -0.5689 139 142 141
-41.6742 80.6300 396.4538 -0.0259 0.7727 -0.6342 127 132 140
-60.0296 81.6176 394.5182 0.1270 0.7744 -0.6199 255 255 255
-863.4801 386.0098 1920.1270 0.1129 0.5698 -0.8140 231 233 235
-926.2482 367.2159 1814.2441 0.2367 0.3761 -0.8958 224 226 228
-980.2750 348.9184 1704.1504 0.1072 0.0350 -0.9936 227 229 230
-1048.8260 347.4724 1672.3960 -0.4358 -0.4262 -0.7928 222 224 226
189.3854 64.3707 311.6303 -0.6401 -0.0511 -0.7666 254 253 255
176.2020 68.4195 332.7908 -0.9252 -0.1230 -0.3590 69 55 69
170.6933 70.8548 344.4845 -0.7749 -0.1047 -0.6234 166 163 168
153.6483 75.5367 373.2557 -0.4259 0.4482 -0.7860 24 25 32
149.5151 79.4539 388.4666 -0.5172 0.7127 -0.4739 31 25 34
130.0850 73.6344 357.6288 0.2107 0.4747 -0.8545 30 31 39
124.2119 72.0570 353.3362 0.1968 0.3719 -0.9072 54 55 66
-15.1093 82.6928 400.4782 0.2682 0.7998 -0.5370 212 210 211
-19.3090 80.8885 395.0460 0.0107 0.8139 -0.5809 208 205 206
-34.1004 84.7428 405.1679 0.0801 0.7994 -0.5954 211 213 217
-37.1993 81.8185 399.0597 0.0623 0.8073 -0.5868 199 203 207
-55.4988 82.2705 398.4718 0.1486 0.7198 -0.6781 242 244 243
-876.3079 404.7706 1989.3475 -0.0457 -0.5707 -0.8199 230 232 236
-952.7124 388.9839 1870.3107 -0.3002 0.3545 -0.8855 225 227 229
-958.6005 351.9633 1716.2622 0.2201 0.1789 -0.9589 230 232 234
191.1673 64.8955 309.7272 -0.5956 -0.2058 -0.7764 219 216 220
184.2598 66.6030 319.9792 -0.7681 -0.1661 -0.6185 201 198 201
163.6259 73.2662 352.9959 -0.5881 0.3787 -0.7147 18 19 28
160.2136 77.0431 372.8481 -0.5856 0.1326 -0.7997 72 73 79
152.1466 79.9080 379.3799 -0.7015 0.4697 -0.5359 164 164 166
6.8990 83.6791 405.3077 -0.0960 0.8382 -0.5369 166 166 166
-10.8804 83.9094 405.4212 0.2030 0.8076 -0.5537 219 216 220
-29.6856 85.4909 407.6317 -0.1122 0.5478 -0.8291 240 239 242
-51.6565 83.6619 399.6080 0.0530 0.7029 -0.7093 250 252 253
-70.2143 88.5923 426.2609 0.0000 0.0000 0.0000 255 255 255
-923.0748 389.9756 1852.2963 0.2531 0.5135 -0.8199 228 229 233
-985.3100 372.0566 1766.4818 0.0255 -0.1717 -0.9848 228 229 233
185.4473 66.8700 317.7117 -0.7750 -0.2039 -0.5981 255 254 255
175.8995 68.2213 326.9844 -0.8384 -0.2903 -0.4612 185 172 181
166.6905 73.9179 351.6781 -0.6896 0.2039 -0.6949 147 145 153
116.8985 74.3889 353.7643 -0.3604 0.2286 -0.9043 124 125 132
-6.9676 85.7790 409.5786 0.0972 0.7528 -0.6510 177 175 176
-47.1913 84.6037 399.9967 0.0008 0.7228 -0.6910 238 240 242
-865.9476 379.5711 1848.8109 -0.0029 0.7115 -0.7027 230 232 234
-981.1122 381.9141 1801.4906 0.1918 0.1451 -0.9707 225 227 231
-984.3211 346.8902 1662.3853 -0.0834 0.1820 -0.9797 228 229 233
191.5490 65.1179 306.3033 -0.4668 -0.3253 -0.8224 208 208 210
178.8372 68.8999 324.7623 -0.7245 -0.3335 -0.6033 163 68 93
169.4335 74.5277 349.0604 -0.8408 -0.0639 -0.5376 114 118 124
159.1315 76.4854 364.9557 -0.6024 0.5246 -0.6016 109 108 117
150.8606 79.1213 372.4377 -0.5871 0.1450 -0.7964 45 45 49
128.7807 72.8189 357.4926 0.0964 0.4502 -0.8877 2 4 8
114.4044 78.9154 370.6764 0.9300 -0.2112 -0.3008 115 116 122
-2.9024 86.9620 409.8247 0.0784 0.7512 -0.6554 247 247 247
-25.1882 85.7206 406.0440 -0.3574 0.6842 -0.6357 164 166 167
-43.4112 86.1996 406.4518 0.1551 0.7955 -0.5858 185 187 188
-841.9768 418.1112 2010.9786 0.0445 -0.6281 -0.7768 230 232 234
-913.0013 411.9612 1928.8007 0.3239 0.6830 -0.6547 227 228 232
-943.8209 379.7906 1792.1735 0.3121 -0.0970 -0.9451 230 232 234
-1003.2410 363.2337 1706.1035 0.0475 -0.0086 -0.9988 232 234 238
-1036.8333 350.8637 1658.2367 -0.1856 0.2649 -0.9462 225 227 229
-993.2224 328.2558 1548.1045 0.7170 -0.4591 -0.5245 223 225 227
185.7965 67.0274 313.1735 -0.6781 -0.2747 -0.6817 151 147 153
180.9752 69.3971 323.2465 -0.6068 -0.4326 -0.6668 178 84 104
156.4707 80.3494 372.1117 -0.5699 0.1452 -0.8088 155 154 159
125.2555 76.4275 357.3765 0.1855 0.5500 -0.8143 100 101 109
119.5796 74.8473 351.7709 0.0135 0.3446 -0.9387 81 83 94
6.5084 90.5588 420.6973 0.3630 0.8167 -0.4485 163 167 170
1.1523 88.6590 412.7954 0.1270 0.8381 -0.5306 163 167 170
-16.4843 88.8481 409.0923 0.3103 0.8020 -0.5104 255 255 255
-20.6119 86.2794 401.1266 0.0896 0.8129 -0.5755 248 248 248
-39.3705 87.5944 407.8384 0.1221 0.7376 -0.6641 222 224 226
-906.9929 423.1386 1960.8285 0.0346 0.3992 -0.9162 232 234 238
-931.3543 386.7895 1821.2393 -0.1402 0.2416 -0.9602 224 226 228
-975.5725 364.3117 1706.1315 0.2209 0.1123 -0.9688 229 231 232
-1077.8246 373.7505 1673.4282 -0.5055 -0.5208 -0.6879 224 226 228
193.3221 65.4394 303.1333 -0.2854 -0.3853 -0.8775 90 87 92
188.1902 67.6325 311.7738 -0.6274 -0.2459 -0.7389 246 243 248
175.8460 71.9177 333.4284 -0.6883 -0.2636 -0.6758 255 255 255
169.5509 74.3430 344.0319 -0.9339 -0.2143 -0.2861 85 79 86
159.1901 76.2291 359.4385 -0.7299 0.3852 -0.5647 80 81 88
148.9754 83.7158 391.7108 -0.7010 0.5423 -0.4632 19 18 23
-12.4875 90.6423 413.9935 0.0964 0.7757 -0.6237 190 192 194
-35.0332 88.4640 405.2361 0.0654 0.7548 -0.6527 218 220 222
-69.9787 98.2323 453.2156 0.0000 0.0000 0.0000 240 244 247
-955.4083 408.5487 1875.1289 -0.2248 0.2880 -0.9309 228 229 233
-972.5613 373.9387 1728.2025 0.3673 0.3235 -0.8720 229 231 235
-996.9819 357.4497 1652.3711 -0.2501 -0.2119 -0.9447 230 232 236
182.6605 69.7627 319.0421 -0.5992 -0.3745 -0.7076 245 240 246
177.4141 72.2776 328.5602 -0.7821 -0.3515 -0.5145 174 166 171
164.6306 77.4911 356.5672 -0.7362 0.1934 -0.6486 142 141 148
158.3636 80.6613 370.6873 -0.6162 0.0296 -0.7871 161 163 167
152.2013 84.3404 385.5043 -0.7579 0.4359 -0.4854 164 163 168
128.3973 77.1382 357.6969 0.1886 0.6055 -0.7732 92 89 97
114.0191 77.9551 360.1561 -0.8687 0.2116 -0.4479 232 231 234
-864.2897 418.2522 1957.0585 -0.3462 0.2515 -0.9038 229 231 235
-943.2631 416.4422 1883.1666 0.1262 0.5520 -0.8242 229 231 235
-961.6223 380.9215 1750.7574 0.5474 0.1586 -0.8217 232 234 238
188.4723 67.7809 307.6412 -0.6557 -0.2774 -0.7022 210 207 212
169.7586 74.2231 336.1084 -0.7881 -0.2676 -0.5543 106 104 107
166.5041 77.8564 353.6342 -0.7446 0.0008 -0.6675 105 107 113
150.9252 89.8060 405.5358 -0.9446 0.1026 -0.3118 160 162 166
116.3829 78.2602 355.8842 -0.5196 0.3872 -0.7616 123 124 131
-45.9390 93.1796 409.9325 0.0000 0.0000 0.0000 221 225 229
-835.7228 419.3733 1954.6923 0.3478 -0.5685 -0.7456 231 233 237
-918.7064 419.5275 1878.1959 -0.4481 0.2492 -0.8586 228 229 233
-960.8006 392.1124 1779.4486 0.2223 -0.2194 -0.9500 224 226 230
-965.4061 356.8287 1633.2500 -0.1394 -0.3013 -0.9433 225 227 229
-995.1621 335.3826 1539.2150 0.7170 -0.4591 -0.5245 224 226 228
190.3138 68.1929 304.7391 -0.5559 -0.2161 -0.8027 203 200 205
182.4224 69.7194 314.8369 -0.7056 -0.2825 -0.6498 236 233 236
176.7556 71.9728 322.8730 -0.6545 -0.5072 -0.5607 148 115 124
172.9044 75.0752 336.3078 -0.6779 -0.2013 -0.7071 255 255 255
159.1026 80.6295 366.6001 -0.7532 0.1521 -0.6399 57 57 66
153.4141 84.3090 377.8465 -0.7183 0.4079 -0.5636 127 124 132
121.0566 79.5114 358.3772 0.1759 0.5764 -0.7980 118 116 124
-844.9469 438.4557 1968.3491 0.5569 -0.4273 -0.7122 231 233 237
-980.9403 411.8326 1800.4062 -0.1753 -0.0221 -0.9843 228 229 233
-990.3138 375.6725 1682.1772 0.2031 0.1217 -0.9716 231 233 235
183.7947 70.0317 312.6404 -0.7154 -0.2412 -0.6558 217 212 218
168.0765 78.0914 348.7484 -0.8497 -0.2028 -0.4868 185 185 187
162.8624 81.4111 362.7015 -0.8452 0.1783 -0.5038 90 91 100
151.6397 89.2490 397.8379 -0.8867 0.2127 -0.4105 67 67 81
125.9597 81.0161 362.2719 0.1933 0.6778 -0.7094 57 60 71
-999.0219 431.6527 1818.6343 -0.0587 -0.2628 -0.9631 228 229 233
-982.2628 383.5055 1715.0865 0.4684 0.2214 -0.8553 225 227 231
192.3620 68.5710 302.9485 -0.1105 -0.0486 -0.9927 209 206 211
186.3294 70.6059 309.7070 -0.7360 -0.1261 -0.6652 211 208 212
178.0039 72.2185 318.9952 -0.5764 -0.4864 -0.6566 181 109 119
175.5291 75.5846 334.6848 -0.6016 -0.3092 -0.7365 255 255 255
169.2294 78.2145 343.8383 -0.9407 -0.2004 -0.2738 157 156 161
154.0090 83.9193 371.7439 -0.6232 0.2740 -0.7325 129 130 134
148.9382 94.4812 410.1564 -0.8940 -0.0469 -0.4455 32 33 40
-41.8948 86.4785 394.0872 -0.2965 -0.5764 -0.7615 220 222 221
-921.5541 448.7441 1974.8823 0.0042 0.4329 -0.9014 229 231 235
-917.0200 410.8708 1797.1058 0.1679 -0.0727 -0.9831 232 234 238
-947.7755 381.5800 1725.9222 0.5510 0.3058 -0.7765 231 233 235
-1001.0461 365.1654 1675.1190 -0.0915 -0.0467 -0.9947 234 235 239
180.7780 72.8667 317.9171 -0.5030 -0.3294 -0.7991 205 134 142
162.8911 81.0188 356.8255 -0.8166 0.0647 -0.5736 122 123 131
156.8114 84.4116 369.8896 -0.7430 0.1044 -0.6611 122 123 127
152.5312 88.9255 392.4513 -0.8593 0.3721 -0.3509 169 168 173
-968.0632 400.5384 1752.8002 0.3760 0.0615 -0.9246 232 234 238
-998.0109 374.1194 1650.1312 -0.2471 -0.0851 -0.9652 227 228 232
188.4520 71.0896 307.8504 -0.7507 -0.0719 -0.6567 247 244 248
182.4522 73.1830 315.9276 -0.6298 -0.1482 -0.7624 192 172 181
174.9742 75.2267 325.3270 -0.5195 -0.1312 -0.8444 177 175 178
169.8362 78.2136 338.8589 -0.8197 -0.2373 -0.5213 176 173 177
164.6891 81.1967 351.5472 -0.8310 -0.2578 -0.4929 163 162 167
160.0665 85.1263 368.5288 -0.7672 -0.0573 -0.6388 118 120 124
149.3744 93.6588 405.9550 -0.9437 -0.0466 -0.3276 77 73 88
116.2825 82.4256 358.9869 -0.2305 0.5387 -0.8104 193 192 197
-844.7480 441.9514 1932.1998 0.0359 -0.1189 -0.9923 232 234 238
-908.5640 420.0688 1819.9772 -0.1259 -0.0077 -0.9920 229 231 235
-954.5829 407.0080 1764.6820 -0.1128 0.2505 -0.9615 225 227 231
-986.9174 380.4754 1631.8643 -0.1562 0.0045 -0.9877 223 227 228
185.1792 73.8584 314.2075 -0.7738 -0.0431 -0.6320 179 176 179
175.9370 75.3609 321.5031 -0.6989 -0.1166 -0.7056 155 148 150
172.4024 78.5956 336.4894 -0.6507 -0.3304 -0.6837 194 191 194
163.5742 85.8953 365.9449 -0.7914 -0.0570 -0.6087 138 139 146
153.3476 88.5697 381.8367 -0.8337 0.3466 -0.4299 15 17 18
-45.2371 94.4592 394.0872 -0.7140 -0.3897 -0.5817 225 229 232
-847.2087 458.3618 1984.3365 0.5278 -0.1654 -0.8331 231 233 235
-929.8206 456.9588 1961.8646 0.2466 -0.3739 -0.8941 230 232 236
-895.8100 427.6072 1850.6693 -0.5564 -0.6524 -0.5145 229 231 232
-943.6100 414.5397 1768.2383 0.0147 0.0333 -0.9993 231 233 237
-959.2443 380.8630 1651.9847 -0.1067 0.1541 -0.9823 228 229 233
155.7469 88.8093 378.8244 -0.8293 0.3451 -0.4394 123 119 125
151.2991 93.6907 399.8185 -0.9199 -0.1297 -0.3700 86 89 100
-925.0021 469.4286 1972.6459 0.0831 -0.3586 -0.9298 229 231 235
-954.3749 431.5073 1794.6156 -0.3159 0.1972 -0.9281 230 232 236
-1029.4266 418.1029 1744.4352 -0.1340 0.5107 -0.8493 225 227 231
196.8573 73.0088 305.9064 0.3123 0.2129 -0.9258 0 0 0
191.5132 71.7268 303.4882 -0.1551 -0.0327 -0.9874 213 210 216
186.0753 73.9726 310.8560 -0.7552 -0.0683 -0.6519 243 238 242
176.4795 75.3910 318.6222 -0.6655 -0.1934 -0.7209 180 162 173
171.0277 78.0594 330.4159 -0.5640 -0.1085 -0.8186 221 221 223
169.1313 82.0308 344.4829 -0.8857 -0.2942 -0.3592 105 104 109
163.7540 85.5745 359.2962 -0.8970 -0.1478 -0.4165 140 139 142
153.4401 93.7479 393.8673 -0.9045 -0.1725 -0.3900 92 96 102
147.8702 98.8925 415.0117 -0.9403 0.1942 -0.2796 149 153 161
-980.5912 410.9206 1728.3594 0.0343 0.1183 -0.9924 228 229 233
-991.3001 377.6437 1689.9033 -0.4846 -0.0856 -0.8705 229 231 232
180.2271 76.2451 317.6881 -0.4721 -0.1292 -0.8720 228 145 164
157.7000 88.9401 371.8071 -0.8174 0.1053 -0.5663 59 61 65
-39.5747 92.1853 389.0940 -0.7140 -0.3897 -0.5817 221 225 229
-879.8146 462.5976 1959.1758 -0.4475 -0.0028 -0.8943 231 233 237
-924.2117 444.6621 1829.8818 0.4280 -0.1658 -0.8884 230 232 236
-905.0860 423.1614 1777.8063 0.2063 0.1880 -0.9603 228 229 233
-1008.0652 433.7061 1790.2845 0.2424 0.8426 -0.4809 229 231 235
-1078.8215 430.8832 1649.5514 0.3389 -0.7515 -0.5661 0 0 0
-987.2184 386.3113 1653.7809 -0.4277 0.0206 -0.9037 228 229 233
188.6678 74.4156 308.1947 -0.6935 -0.1681 -0.7006 108 107 114
182.3858 76.7147 316.6242 -0.5548 -0.1961 -0.8085 188 103 120
173.5090 78.5193 326.2972 -0.4074 0.2682 -0.8730 255 255 255
169.0688 81.7211 338.4968 -0.7859 -0.2345 -0.5722 76 74 84
163.8366 84.9171 351.3530 -0.8151 -0.2459 -0.5246 111 108 113
153.9985 93.2519 385.9751 -0.9503 0.0237 -0.3105 133 132 135
148.6300 98.2397 406.5098 -0.9490 -0.0383 -0.3130 36 37 43
-865.9500 470.9608 1942.6315 -0.3222 0.0108 -0.9466 232 234 238
-958.9598 474.6612 1915.7939 0.3919 -0.6207 -0.6791 230 232 236
-1003.5489 444.3809 1839.1471 0.2673 0.4484 -0.8529 231 233 237
190.0376 74.7509 306.6772 -0.5546 -0.1982 -0.8081 211 210 213
186.3488 77.5983 314.9984 -0.7356 -0.2177 -0.6415 200 190 195
175.9587 78.9938 324.7044 -0.4026 0.2505 -0.8805 185 178 182
157.6485 88.2541 366.4222 -0.7762 -0.1561 -0.6109 38 38 42
-936.9101 428.8827 1783.9762 0.2846 0.2910 -0.9134 229 231 235
-970.5578 401.1764 1676.2993 -0.4189 -0.0481 -0.9067 229 231 235
200.8578 77.3236 305.9702 0.4187 -0.2552 -0.8716 0 0 0
192.7640 75.4580 305.1623 0.0751 -0.2762 -0.9582 234 231 237
170.2323 81.7927 335.4949 -0.7325 -0.1213 -0.6699 91 88 92
165.1593 84.9948 347.8925 -0.8430 -0.1822 -0.5061 110 106 114
160.9022 89.0115 363.6951 -0.8170 -0.2839 -0.5019 64 70 73
154.5985 92.7029 378.4765 -0.9212 0.1148 -0.3717 0 0 4
148.6008 97.2752 397.6702 -0.9116 -0.2065 -0.3554 100 102 103
-929.6784 475.5668 1939.8525 0.2015 -0.2818 -0.9381 230 232 236
-922.6804 435.2449 1779.1786 0.2993 0.4027 -0.8650 229 231 235
-1018.4164 431.1172 1744.0156 0.0384 -0.0384 -0.9985 225 227 231
185.1245 77.1429 310.3050 -0.7810 -0.3294 -0.5306 229 226 229
176.3439 78.8012 318.5551 -0.6632 -0.1486 -0.7336 155 146 149
162.6670 89.1489 358.0247 -0.8934 -0.1972 -0.4038 192 190 193
152.7290 98.1295 393.4465 -0.9180 -0.2036 -0.3404 91 90 97
147.7377 103.7450 419.7201 -0.7634 0.4913 -0.4193 157 158 162
178.5854 79.2045 316.6434 -0.4050 -0.1996 -0.8923 186 118 130
174.2725 82.3814 327.4906 -0.5055 0.3542 -0.7868 255 255 255
169.0312 81.0205 329.1452 -0.6830 0.1490 -0.7151 128 125 133
165.8180 84.8776 342.0537 -0.8683 -0.0855 -0.4886 134 132 142
156.4168 92.7690 374.2441 -0.9303 0.0064 -0.3668 131 128 129
-916.0554 445.1627 1799.1664 0.3956 0.3454 -0.8510 229 231 232
-942.5804 423.8065 1712.6429 -0.3150 -0.0412 -0.9482 224 226 230
-1014.9547 412.6045 1680.0055 -0.3528 -0.3233 -0.8781 221 226 227
186.9422 77.4816 307.9018 -0.6663 -0.3726 -0.6459 167 164 169
181.2928 79.8502 315.9977 -0.4765 -0.2815 -0.8329 184 102 118
178.3562 83.3915 329.2983 -0.1825 0.3385 -0.9231 255 255 255
167.5661 85.0620 337.9070 -0.8066 -0.0347 -0.5901 179 176 179
162.4417 88.4919 350.4474 -0.8249 0.0177 -0.5651 81 83 87
158.0537 92.6537 366.2091 -0.8687 -0.0416 -0.4936 88 88 92
152.4726 97.0160 386.5359 -0.9501 -0.1179 -0.2887 98 97 102
148.5459 103.0740 410.7758 -0.9300 0.2869 -0.2298 178 177 182
-920.5291 460.7177 1828.6901 0.4400 -0.0446 -0.8969 228 229 233
-998.7482 460.1080 1841.3949 -0.1926 0.5376 -0.8209 230 232 236
-984.1381 411.5871 1650.1598 -0.2501 0.3002 -0.9205 229 231 235
188.6674 77.8605 305.9887 -0.4703 -0.3830 -0.7950 165 161 167
170.2299 85.5657 336.0905 -0.7781 0.1047 -0.6194 163 160 168
-907.1393 468.2803 1883.3251 0.1324 0.2106 -0.9686 228 229 233
-990.6378 469.7221 1841.1703 -0.2669 -0.0972 -0.9588 230 232 236
-981.0549 421.4063 1666.5366 0.0686 0.2242 -0.9721 228 229 233
190.9196 78.3591 303.3344 0.0026 -0.1834 -0.9830 224 221 224
182.9691 80.1969 313.6175 -0.6921 -0.2533 -0.6759 216 141 157
164.6445 88.8412 348.3556 -0.8185 0.0857 -0.5682 172 169 172
160.2083 92.9226 362.8531 -0.8177 0.0156 -0.5754 81 83 85
154.8347 97.1662 379.8269 -0.9269 -0.0162 -0.3750 123 126 132
148.8053 101.9674 399.1925 -0.8527 0.3512 -0.3868 74 74 77
149.7977 109.7689 429.9005 -0.4914 0.5535 -0.6724 155 159 162
-916.3794 487.3983 1932.8120 0.1172 0.5502 -0.8268 228 229 233
-976.2653 476.7755 1816.3184 -0.3773 0.3140 -0.8712 228 229 233
-996.7805 439.2951 1728.0717 -0.1957 0.0612 -0.9787 228 229 233
184.0262 80.2934 309.4768 -0.8024 -0.2490 -0.5423 173 164 164
174.2905 81.8545 320.6064 -0.4797 0.1521 -0.8641 255 255 255
172.4996 85.9011 332.4895 -0.7222 0.2092 -0.6593 56 53 61
166.0318 88.8248 344.3213 -0.8973 0.1331 -0.4209 166 166 170
157.8089 97.6604 375.9818 -0.8817 0.2005 -0.4272 137 139 143
-812.0424 508.9016 2034.8617 0.9554 0.1054 0.2757 241 242 246
-894.4964 491.3806 1966.4625 0.0541 0.3196 -0.9460 231 233 237
-992.5572 449.5260 1744.3202 0.0637 0.1418 -0.9878 227 228 232
-1017.7513 418.9453 1653.8861 -0.5252 -0.3873 -0.7577 227 228 232
179.1667 83.0556 315.9302 -0.4358 0.0524 -0.8985 173 118 123
173.5949 85.7806 329.6724 -0.5196 0.2858 -0.8052 148 145 153
160.2960 92.2666 358.0302 -0.8298 0.1196 -0.5451 129 128 133
150.1244 101.4511 392.8823 -0.8831 0.2036 -0.4227 184 184 186
151.5492 109.3871 423.9834 -0.6676 0.4455 -0.5965 158 158 162
-860.3199 488.6962 1952.7311 -0.6716 0.0428 -0.7397 230 232 236
-933.3527 470.4839 1807.6216 -0.0120 0.3929 -0.9195 230 232 234
-981.3157 457.0469 1742.4637 -0.1880 0.0823 -0.9787 230 232 236
-1052.1471 443.4144 1698.3802 -0.2706 -0.4104 -0.8709 224 226 230
187.5102 77.3753 298.3118 0.3120 -0.0216 -0.9498 216 213 216
184.7266 80.3101 306.3823 -0.7011 -0.1249 -0.7021 198 190 197
180.2083 83.0966 315.1373 -0.5206 0.0928 -0.8488 111 30 53
177.9307 86.9155 330.2694 -0.3821 0.1956 -0.9032 255 255 255
168.1824 89.0948 338.8057 -0.8444 0.1608 -0.5109 120 120 120
162.7674 92.6645 352.7084 -0.8638 0.2468 -0.4392 71 70 77
152.2440 101.4912 387.2721 -0.8629 0.2050 -0.4620 111 113 115
-879.7748 515.2446 1976.5316 -0.6378 -0.1963 -0.7448 230 232 236
-896.8372 466.6372 1804.6035 0.2736 0.2621 -0.9255 228 229 233
-1002.2642 479.2415 1773.8939 0.6888 0.4203 -0.5907 227 228 232
-998.4246 433.2455 1652.4518 -0.4591 -0.5138 -0.7247 227 228 232
186.6968 80.6884 304.4133 -0.5571 -0.0596 -0.8283 199 196 202
170.3865 89.3465 337.4119 -0.7629 0.1578 -0.6269 144 144 148
155.9091 96.0309 368.5179 -0.9126 0.1767 -0.3688 95 97 101
151.1622 107.8756 407.4943 -0.8739 0.4150 -0.2531 188 191 190
-930.9987 497.8474 1869.3995 -0.3444 -0.4381 -0.8303 224 226 228
181.5186 83.2381 313.1386 -0.7494 0.1019 -0.6542 118 35 40
165.0553 92.9335 349.6544 -0.7545 0.3582 -0.5499 101 100 107
158.6539 96.5032 362.9742 -0.7797 0.2659 -0.5668 156 160 166
153.8713 101.1992 381.2126 -0.8853 0.1969 -0.4213 142 147 148
151.7111 115.9763 434.0874 -0.9303 -0.0286 -0.3658 182 184 188
-916.1160 452.8691 1752.6842 0.0854 -0.8460 -0.5264 231 233 235
-975.8599 446.8923 1662.8595 0.6987 -0.5746 0.4262 221 222 226
189.5882 81.3178 303.4288 -0.2082 0.3200 -0.9243 180 177 180
184.1861 83.7957 310.9620 -0.8547 0.1170 -0.5057 156 46 81
174.3208 85.4332 321.3353 -0.4273 0.2525 -0.8681 255 255 255
171.6903 89.3091 333.6191 -0.7008 0.2446 -0.6701 179 179 181
167.0462 93.1143 347.4097 -0.7869 0.3895 -0.4785 179 178 187
162.5386 97.3387 361.9222 -0.7925 0.3464 -0.5020 201 203 205
152.7438 107.4192 400.3755 -0.8771 0.4472 -0.1753 83 81 89
-903.8434 459.9419 1764.8492 0.1128 0.3212 -0.9403 229 231 232
-978.9211 460.2650 1717.8134 -0.2896 0.0521 -0.9557 217 219 223
-1031.8276 440.1873 1632.6801 -0.5921 -0.2544 -0.7647 225 227 231
191.0490 81.5153 300.9036 0.0958 0.3959 -0.9133 255 255 255
177.4380 86.0835 317.2304 -0.5204 0.3450 -0.7811 146 137 147
173.4346 89.4862 330.3650 -0.6049 0.2783 -0.7461 75 66 76
164.8158 97.5784 357.0631 -0.8195 0.4153 -0.3950 150 149 154
155.4773 101.0500 377.1670 -0.8073 0.3361 -0.4851 126 125 128
151.7751 114.7279 425.1708 -0.9483 0.0923 -0.3037 167 169 173
-937.6298 489.8250 1809.6432 0.0690 0.0753 -0.9948 231 233 237
180.1620 86.6162 316.5695 -0.5413 0.4118 -0.7331 123 106 114
176.5836 90.1993 330.1206 -0.5886 0.2248 -0.7765 255 255 255
166.9686 92.5567 340.9196 -0.8235 0.3089 -0.4758 182 181 186
158.9085 101.7508 374.1539 -0.7297 0.4536 -0.5116 183 180 184
152.3292 106.0004 390.4497 -0.7859 0.5071 -0.3540 173 173 177
-864.2828 524.6783 1921.7822 -0.6528 -0.4628 -0.5998 231 233 235
-920.0616 495.2691 1806.6569 -0.1388 0.1422 -0.9801 231 233 235
-959.4783 463.9394 1720.0743 -0.5700 -0.3349 -0.7503 230 232 236
-973.2475 438.5893 1617.9257 -0.3724 -0.4034 -0.8358 229 231 235
187.3238 84.2311 305.7027 -0.5579 0.3073 -0.7709 224 221 224
168.9659 92.6817 337.1571 -0.7691 0.3226 -0.5517 158 158 160
151.4509 112.9574 412.2410 -0.9016 0.2769 -0.3323 132 131 136
-778.3872 542.0079 2002.4186 -0.4543 -0.1065 -0.8845 236 237 241
-921.4342 510.6642 1828.0731 -0.1589 0.1595 -0.9743 232 234 238
-898.4996 448.2598 1677.2255 0.4513 0.5234 -0.7227 227 228 232
190.4503 84.9615 305.4559 -0.2817 0.4039 -0.8704 250 247 248
182.1383 86.8965 314.3369 -0.7332 0.3166 -0.6018 143 124 130
176.6814 89.8782 324.2445 -0.5873 0.2949 -0.7538 255 255 255
172.0532 93.3739 335.2835 -0.7374 0.2614 -0.6228 181 178 179
168.2027 97.6299 350.0631 -0.6768 0.5506 -0.4886 161 159 167
163.9253 96.4818 350.8080 -0.6860 0.4815 -0.5455 155 152 158
159.1915 100.9537 366.8091 -0.7263 0.5309 -0.4366 178 177 182
154.9690 106.2480 386.2629 -0.7112 0.5675 -0.4148 158 154 162
-763.3915 551.2579 2002.8861 0.4970 -0.0958 -0.8625 232 236 239
-929.9457 530.5670 1975.4521 0.5348 -0.7714 0.3447 230 232 236
-933.4998 477.5018 1709.8496 -0.4747 -0.0574 -0.8782 228 229 233
201.9908 87.9823 303.8293 -0.2235 0.1092 -0.9686 0 0 0
193.8743 85.6903 304.9070 -0.1344 0.4304 -0.8926 102 97 103
184.2536 87.2910 312.2885 -0.8035 0.2977 -0.5155 160 71 85
178.8811 90.1787 320.9852 -0.5474 0.3287 -0.7696 255 255 255
161.8805 101.3190 363.6103 -0.6662 0.5337 -0.5210 197 196 199
156.6878 106.0644 380.6702 -0.7492 0.5014 -0.4327 127 126 133
154.1255 113.0331 406.0619 -0.8925 0.3716 -0.2558 151 153 157
-924.4205 543.7017 1996.2738 -0.3763 0.7931 -0.4790 231 233 237
-960.5887 504.3126 1789.6625 0.5454 0.4732 -0.6919 227 228 232
185.4049 87.3717 309.4311 -0.7140 0.3210 -0.6222 215 142 157
174.3656 93.7116 333.5468 -0.7225 0.2879 -0.6286 135 132 138
168.5009 97.0899 345.2409 -0.7473 0.5394 -0.3881 108 107 114
163.9812 101.4613 360.2167 -0.7244 0.5443 -0.4230 134 133 140
151.5004 119.5129 425.4283 -0.9523 0.0039 -0.3051 206 205 210
-864.2006 525.9430 1936.0172 -0.5046 -0.7636 -0.4028 232 234 238
-940.2590 508.3521 1838.2114 0.0848 0.3132 -0.9459 228 229 233
-952.7916 464.6504 1668.1910 0.3154 0.4020 -0.8596 230 232 236
-1032.8898 468.2463 1646.6846 -0.3484 0.2405 -0.9060 229 231 235
180.9628 90.4673 319.2632 -0.5659 0.3678 -0.7379 255 255 255
175.4425 93.5758 330.6781 -0.6624 0.3720 -0.6503 179 176 179
158.7187 106.0772 376.6975 -0.6821 0.5758 -0.4508 205 204 211
154.0370 111.5364 397.7486 -0.8001 0.4789 -0.3612 200 200 202
-957.2254 531.8881 1847.9423 -0.1739 -0.4036 -0.8983 223 225 229
