ply
format ascii 1.0
element vertex 779
property float x
property float y
property float z
property float nx
property float ny
property float nz
property uchar red
property uchar green
property uchar blue
end_header
176.1790 -37.1365 316.6613 -0.3036 -0.0087 -0.9528 65 67 87
165.1092 -38.1171 322.2077 -0.5676 0.1625 -0.8071 69 70 92
157.5581 -38.4743 328.7824 -0.5071 0.2721 -0.8178 64 65 90
147.0288 -40.1080 337.9808 -0.5878 0.1737 -0.7901 65 62 91
138.5789 -40.4785 345.3139 -0.4659 -0.0594 -0.8829 68 67 90
124.8558 -41.1379 350.0993 -0.4643 -0.2868 -0.8379 59 57 81
94.7080 -46.0119 389.8628 -0.6962 -0.1021 -0.7106 255 250 223
79.1713 -47.5755 399.6745 -0.2857 -0.3559 -0.8898 255 233 207
62.4872 -48.5154 405.8837 -0.0967 -0.5906 -0.8011 255 223 194
7.6371 -42.2895 355.6305 0.2652 -0.4834 -0.8343 239 205 187
-12.0398 -41.8267 349.9277 0.1002 -0.3655 -0.9254 255 219 198
-27.7648 -41.3011 348.5351 0.0433 -0.3578 -0.9328 255 229 210
-60.5177 -42.1859 355.8048 0.1359 -0.6961 -0.7050 245 220 206
-77.9334 -40.6545 344.8797 0.1963 -0.5594 -0.8053 205 195 185
-94.9367 -41.3806 349.7332 -0.1199 -0.6456 -0.7542 255 235 214
-111.5609 -41.5109 351.4328 -0.0742 -0.6018 -0.7952 255 234 217
-130.0964 -42.6895 358.3870 -0.1726 -0.6190 -0.7662 247 224 211
198.7365 -35.8964 309.0079 -0.0613 -0.3495 -0.9349 0 0 0
187.9495 -36.6110 313.3914 -0.3012 -0.1932 -0.9338 152 148 158
167.7575 -37.0388 320.8941 -0.5468 0.1700 -0.8198 33 33 58
149.8798 -38.9615 336.4246 -0.6184 0.2299 -0.7515 79 80 105
128.1099 -40.0843 349.1544 -0.3355 -0.3164 -0.8873 53 54 74
115.5868 -41.6628 358.9231 -0.6306 -0.3095 -0.7117 31 29 53
107.8386 -43.4745 374.8105 -0.7859 0.1773 -0.5924 255 255 232
98.0539 -44.4693 386.6877 -0.7148 -0.0577 -0.6969 255 255 229
82.9802 -46.2136 397.6801 -0.2659 -0.3176 -0.9102 255 236 207
66.3901 -47.1761 404.2047 -0.1348 -0.5589 -0.8182 255 226 194
48.4983 -47.2845 406.0593 -0.0931 -0.7167 -0.6912 238 204 174
33.3331 -45.4167 380.1752 0.4360 -0.7106 -0.5522 224 194 179
11.4740 -41.6779 357.0838 0.2556 -0.4770 -0.8409 241 208 187
-8.1388 -40.9346 349.7983 0.1747 -0.3249 -0.9295 248 213 193
-24.1060 -40.7630 350.2022 0.0474 -0.3907 -0.9193 255 233 216
-43.3650 -41.0241 348.4085 -0.2904 -0.2010 -0.9356 255 244 224
-56.5026 -41.1259 354.8707 0.0245 -0.5962 -0.8025 252 226 207
-74.6956 -40.1092 346.4972 0.1422 -0.5357 -0.8323 214 199 190
-107.3162 -40.3314 350.0014 -0.0825 -0.6135 -0.7854 255 227 210
-125.6184 -41.3740 356.3633 -0.2677 -0.6008 -0.7533 255 239 217
190.2652 -35.5528 312.1129 -0.4262 -0.2352 -0.8735 47 42 58
179.0993 -36.2255 316.1025 -0.3551 -0.0513 -0.9334 43 40 59
159.8648 -37.2006 326.5337 -0.6135 0.2565 -0.7469 91 92 116
152.2454 -37.6432 333.9551 -0.6615 0.2471 -0.7081 54 54 79
141.2538 -39.1985 343.1442 -0.5279 0.0192 -0.8491 64 64 92
118.3848 -40.2085 355.8885 -0.5649 -0.3658 -0.7396 64 62 83
110.2227 -41.5768 369.6048 -0.7869 0.3998 -0.4700 106 98 115
86.9474 -45.0333 396.6435 -0.4168 -0.2572 -0.8719 255 237 209
70.3560 -45.8456 402.4672 -0.1522 -0.5075 -0.8481 255 221 191
52.7439 -46.1164 405.2333 0.0300 -0.7082 -0.7054 255 221 194
15.3159 -40.8757 357.5786 0.2674 -0.4779 -0.8367 220 181 167
-4.5521 -40.0846 349.9522 0.2300 -0.2794 -0.9322 232 194 177
-20.4747 -39.7916 349.6838 0.0310 -0.3994 -0.9162 255 221 203
-39.6131 -40.0246 347.7457 -0.1745 -0.1729 -0.9694 255 236 218
-90.4373 -40.0508 347.4222 -0.2201 -0.6041 -0.7659 255 242 220
193.0066 -34.6184 311.2912 -0.4919 -0.3029 -0.8163 22 22 35
181.4468 -35.1181 314.5472 -0.3369 -0.0774 -0.9383 255 246 237
170.1460 -35.8747 319.0792 -0.5649 0.1330 -0.8144 61 61 86
162.6942 -36.1676 325.4601 -0.6510 0.2521 -0.7160 55 56 80
143.7675 -37.8579 340.5663 -0.6016 0.0726 -0.7955 89 90 112
131.6774 -39.1531 348.7433 -0.2904 -0.3515 -0.8900 58 59 84
100.9679 -42.7103 382.3233 -0.7327 -0.0459 -0.6790 255 253 227
74.2479 -44.5281 400.7507 -0.1796 -0.4522 -0.8737 255 233 205
19.2582 -40.2748 359.1418 0.3492 -0.4918 -0.7976 217 179 162
-0.7604 -39.4668 351.2982 0.2612 -0.2742 -0.9255 244 207 185
-36.0852 -39.2575 348.2705 -0.0669 -0.1446 -0.9872 255 247 228
-52.5817 -40.0940 354.0764 -0.1092 -0.4355 -0.8935 255 249 225
-86.3211 -38.7988 345.4321 -0.2759 -0.5254 -0.8049 214 204 196
-103.3713 -39.3348 349.4318 -0.0821 -0.6000 -0.7958 255 237 215
-120.2842 -39.6510 352.1040 -0.3106 -0.5727 -0.7587 255 247 227
172.6964 -34.7997 317.6884 -0.4733 0.1483 -0.8683 49 50 73
154.2407 -36.1822 330.6816 -0.5964 0.3096 -0.7406 58 58 88
134.6925 -37.9445 346.8095 -0.2747 -0.3477 -0.8965 84 85 105
121.1960 -38.8025 353.0138 -0.5161 -0.3889 -0.7632 22 20 45
111.8493 -39.2675 361.8472 -0.6965 -0.1030 -0.7101 71 67 91
104.1783 -41.2467 379.4398 -0.6770 0.0083 -0.7360 255 255 236
90.6660 -43.6656 394.4456 -0.5455 -0.2031 -0.8131 255 248 221
56.8349 -44.8548 403.8788 0.0396 -0.6259 -0.7789 244 210 180
23.1756 -39.8280 361.6058 0.3854 -0.5254 -0.7586 215 179 161
2.9917 -38.7236 352.0207 0.2367 -0.2829 -0.9295 229 191 172
-16.5162 -38.7303 348.6364 0.0761 -0.3440 -0.9359 248 206 186
-32.2396 -38.3266 347.8862 -0.0691 -0.1304 -0.9891 255 239 220
-48.4064 -38.6981 351.3188 -0.2611 -0.2438 -0.9340 255 251 230
-99.1903 -38.2015 348.1371 -0.1045 -0.5957 -0.7964 255 238 219
-115.1863 -38.0690 348.5074 -0.2046 -0.5294 -0.8233 255 242 221
-133.9509 -39.3204 356.1342 -0.1573 -0.5724 -0.8047 234 217 207
194.5742 -33.3223 308.5346 -0.2975 -0.3205 -0.8993 17 15 30
184.2497 -34.1992 313.9310 -0.2930 -0.0877 -0.9521 215 215 219
175.4466 -33.8232 316.7939 -0.3558 0.2035 -0.9121 69 68 93
165.0411 -34.9709 323.5144 -0.6016 0.2491 -0.7589 59 62 86
157.7006 -35.3648 330.7401 -0.5418 0.3485 -0.7649 54 54 81
146.6392 -36.7015 338.8932 -0.5633 0.0990 -0.8203 65 66 91
137.9197 -36.8886 345.7129 -0.2913 -0.2925 -0.9108 56 57 78
123.9521 -37.4249 350.2518 -0.4350 -0.4246 -0.7941 100 99 119
93.9908 -42.0543 390.8855 -0.6280 -0.1880 -0.7552 255 246 220
77.8890 -43.0297 397.9319 -0.1743 -0.3880 -0.9050 255 227 200
60.8099 -43.4258 401.4856 -0.0263 -0.5956 -0.8029 251 217 185
27.1966 -39.3748 364.0579 0.3998 -0.5666 -0.7206 207 174 155
6.7935 -38.0014 352.8654 0.2495 -0.2993 -0.9210 229 193 173
-12.6602 -37.8379 348.4823 0.1237 -0.2493 -0.9605 251 214 192
-28.5134 -37.4287 347.6881 -0.0504 -0.2026 -0.9780 255 238 222
-44.3607 -37.2504 348.2427 -0.2856 -0.0945 -0.9537 255 240 221
-81.5452 -37.1974 341.5851 -0.1240 -0.4578 -0.8804 214 206 199
-111.4274 -37.1809 348.5312 -0.1001 -0.5719 -0.8142 255 241 220
-129.5974 -38.1402 354.7202 -0.1985 -0.5533 -0.8090 255 235 215
197.1164 -32.3610 307.5309 -0.0589 -0.2875 -0.9560 26 26 40
187.1070 -33.2915 313.2891 -0.2779 -0.0965 -0.9558 209 207 205
167.8896 -33.9757 322.5706 -0.6046 0.2679 -0.7501 51 54 78
149.4922 -35.5702 337.3348 -0.5699 0.1578 -0.8065 75 76 98
113.9530 -37.4069 356.4829 -0.6651 -0.3990 -0.6312 89 88 109
107.3363 -39.7687 376.3787 -0.6721 0.0393 -0.7394 255 255 230
97.1868 -40.4529 387.2787 -0.6955 -0.1078 -0.7104 255 242 217
81.8805 -41.8773 397.0364 -0.1988 -0.3625 -0.9105 255 228 202
64.7513 -42.2204 400.3964 -0.0453 -0.5605 -0.8269 252 216 185
31.2946 -38.9221 366.6485 0.4851 -0.6522 -0.5825 213 178 160
-9.0300 -36.9657 348.4789 0.1967 -0.1428 -0.9700 249 214 196
-60.1222 -37.2182 349.4701 0.4334 -0.4579 -0.7762 221 201 185
-78.0687 -36.3789 341.7809 0.1991 -0.3917 -0.8983 215 205 197
-94.5680 -36.8031 345.3220 -0.1351 -0.5461 -0.8268 255 236 215
-125.1357 -36.8830 352.8141 -0.3087 -0.5108 -0.8024 255 241 220
189.4600 -32.2387 311.8917 -0.4406 -0.1416 -0.8865 50 47 64
178.3055 -32.8764 315.9807 -0.4162 0.1718 -0.8929 46 49 75
160.3516 -34.2409 329.1707 -0.6150 0.3084 -0.7257 60 59 89
152.0647 -34.3558 335.3333 -0.6023 0.2070 -0.7709 54 54 79
140.7219 -35.6800 343.7921 -0.3574 -0.2335 -0.9043 28 26 49
126.8250 -36.1570 347.9766 -0.3035 -0.4332 -0.8487 50 47 66
110.4161 -38.3330 373.4570 -0.7231 0.1491 -0.6744 255 251 230
85.8380 -40.7379 396.1560 -0.3427 -0.3373 -0.8768 255 233 207
35.8425 -39.1512 373.0974 0.4543 -0.6952 -0.5571 213 178 158
10.5572 -37.3389 354.0917 0.2525 -0.2978 -0.9207 235 200 182
-5.4544 -36.2036 349.1133 0.2513 -0.0746 -0.9650 246 210 193
-24.8130 -36.5392 347.5246 -0.0400 -0.2608 -0.9646 255 228 213
-40.4968 -36.2630 347.5022 -0.1791 0.0171 -0.9837 255 236 217
-56.8107 -36.7615 351.7611 0.2276 -0.4720 -0.8517 231 204 191
-74.6228 -35.6650 342.5573 0.1532 -0.3901 -0.9079 218 201 191
-90.3704 -35.6636 343.8798 -0.2211 -0.5006 -0.8370 255 236 217
-107.2392 -36.0571 347.2235 -0.0876 -0.5933 -0.8002 255 231 214
180.6348 -31.7958 314.5029 -0.4529 0.1278 -0.8824 44 42 68
170.1233 -32.7808 320.5382 -0.6004 0.2673 -0.7537 64 65 90
162.5987 -32.9920 326.8918 -0.6269 0.3353 -0.7033 86 87 112
143.3772 -34.4058 341.4254 -0.4854 -0.1573 -0.8600 58 56 82
130.2516 -35.1720 347.2083 -0.2308 -0.4509 -0.8622 47 43 63
117.0352 -36.1723 354.4767 -0.5801 -0.4247 -0.6951 73 72 93
100.2101 -38.7767 383.0754 -0.7145 -0.0900 -0.6938 255 250 225
68.9349 -41.1152 399.7606 -0.0808 -0.5308 -0.8436 253 217 186
40.1793 -38.9770 377.3488 0.4809 -0.6685 -0.5673 224 188 170
14.3154 -36.4811 354.2584 0.2358 -0.3108 -0.9207 231 193 174
-1.6515 -35.5965 350.5635 0.2351 -0.0484 -0.9708 248 215 194
-21.1933 -35.6556 347.4180 0.0328 -0.2682 -0.9628 251 214 199
-36.9833 -35.5488 348.3076 -0.0785 0.0265 -0.9966 255 248 227
-52.9885 -35.7599 350.9978 0.0530 -0.3936 -0.9178 255 232 211
-71.1432 -34.9352 343.2344 -0.0011 -0.3831 -0.9237 251 250 239
-86.2425 -34.3956 341.6383 -0.2309 -0.4312 -0.8722 216 206 198
-102.8642 -34.7963 345.1174 -0.0660 -0.5781 -0.8133 255 239 217
-119.9849 -35.2530 348.7888 -0.3302 -0.4940 -0.8043 255 246 225
191.5898 -31.1293 310.0688 -0.5887 -0.1640 -0.7916 40 36 56
172.4730 -31.6518 318.8327 -0.5108 0.2906 -0.8091 35 38 62
154.3032 -33.0134 332.5138 -0.5649 0.2710 -0.7794 53 53 80
146.1230 -33.2551 339.7888 -0.4561 -0.0881 -0.8855 52 52 77
133.1610 -33.9677 345.2043 -0.2135 -0.4673 -0.8580 53 54 74
119.9225 -34.8507 351.8862 -0.5069 -0.4779 -0.7174 67 70 94
111.8129 -35.9390 364.9607 -0.8203 0.2081 -0.5328 133 129 142
103.4950 -37.3581 380.2706 -0.6398 -0.0310 -0.7679 255 247 223
89.2172 -39.1455 392.5453 -0.4155 -0.3409 -0.8433 255 235 207
72.9121 -39.9346 398.6880 -0.0867 -0.4884 -0.8683 255 223 194
55.1932 -39.7404 398.8996 0.2794 -0.6244 -0.7295 228 191 165
50.8149 -40.4935 397.3932 0.3660 -0.7243 -0.5843 224 187 163
45.3032 -39.2931 384.8128 0.4624 -0.6440 -0.6094 220 181 165
18.1876 -35.8022 355.4432 0.2419 -0.3521 -0.9042 215 177 158
2.0865 -34.8174 351.1111 0.1952 -0.0653 -0.9786 242 204 185
-17.4855 -34.7452 347.1537 0.1390 -0.1966 -0.9706 249 213 198
-33.0570 -34.4800 347.1330 -0.1357 -0.0377 -0.9900 255 245 228
-49.2447 -34.9021 351.0815 -0.1037 -0.3041 -0.9470 255 242 222
192.9064 -29.7889 306.9790 -0.3972 -0.1302 -0.9084 47 47 61
183.1248 -30.7684 313.2001 -0.3988 0.0877 -0.9128 45 41 68
175.0966 -30.6222 317.5639 -0.3932 0.3048 -0.8675 85 83 108
164.7117 -31.7291 324.4998 -0.5946 0.3185 -0.7382 58 58 88
157.4609 -32.0853 331.9878 -0.5532 0.3023 -0.7762 76 77 97
92.8737 -37.8194 390.4075 -0.5116 -0.2894 -0.8090 255 240 216
76.7197 -38.6243 396.8472 -0.0885 -0.4678 -0.8794 255 221 192
59.3279 -38.7300 398.9120 0.1483 -0.5733 -0.8058 232 193 167
22.0119 -35.1407 356.7711 0.2507 -0.4412 -0.8617 215 177 158
5.9280 -34.0908 351.9702 0.2038 -0.0848 -0.9753 242 207 187
-13.7676 -33.9512 347.5544 0.1881 -0.0785 -0.9790 252 216 200
-29.3725 -33.5265 346.6030 -0.1484 -0.0648 -0.9868 255 227 210
-45.2654 -33.8710 350.1122 -0.1605 -0.1652 -0.9731 255 240 221
-67.0696 -33.8004 341.6404 0.3582 -0.0954 -0.9287 221 198 188
-82.0627 -33.1653 339.5693 -0.0758 -0.3423 -0.9365 194 185 181
-98.9791 -33.8202 344.5441 -0.0809 -0.5284 -0.8451 255 235 214
-115.1456 -33.8130 345.6771 -0.2563 -0.5085 -0.8221 255 247 225
186.3104 -29.9785 313.1985 -0.3151 0.0633 -0.9470 38 36 60
178.3084 -29.7940 317.3607 -0.4503 0.3073 -0.8383 70 70 100
167.5085 -30.7146 323.3925 -0.6411 0.2920 -0.7097 65 66 93
148.8327 -32.0558 337.7006 -0.4435 -0.0494 -0.8949 57 58 83
136.5307 -32.9721 344.3079 -0.1861 -0.4891 -0.8521 45 42 62
122.8629 -33.6167 349.7492 -0.4258 -0.5111 -0.7467 36 34 57
113.0928 -33.6475 356.7634 -0.7223 -0.2047 -0.6606 112 113 126
106.7314 -35.9414 377.3674 -0.6214 0.0237 -0.7832 255 250 228
96.3832 -36.4260 387.7586 -0.6155 -0.2126 -0.7589 255 245 222
80.9559 -37.6709 397.0468 -0.1696 -0.4547 -0.8743 255 219 193
25.8535 -34.3959 357.6622 0.2961 -0.5294 -0.7951 213 178 158
-9.9408 -33.1066 347.6482 0.2153 0.0296 -0.9761 250 217 198
-60.5317 -32.8861 346.1215 0.2491 0.0498 -0.9672 205 183 174
-78.3050 -32.2377 339.0947 0.2016 -0.2579 -0.9449 192 182 174
-94.7232 -32.6411 342.8026 -0.1351 -0.4929 -0.8595 255 252 229
-111.1677 -32.8056 344.9486 -0.1534 -0.5509 -0.8203 255 239 219
-129.2050 -33.6684 351.0263 -0.2385 -0.4559 -0.8574 255 237 217
188.6137 -28.9344 311.7787 -0.4579 0.0970 -0.8837 48 47 70
169.7891 -29.5536 321.4400 -0.6184 0.2803 -0.7342 82 82 107
159.7703 -30.8549 329.7342 -0.6184 0.2467 -0.7462 43 46 70
151.9529 -31.0564 336.7479 -0.4844 -0.0144 -0.8747 58 61 85
139.9167 -32.0527 343.9464 -0.2032 -0.4835 -0.8514 85 83 106
125.7847 -32.3787 347.5198 -0.3245 -0.5176 -0.7917 73 71 97
110.0623 -34.6300 375.0190 -0.6561 0.0419 -0.7535 255 252 229
63.2960 -37.4448 397.1238 -0.0000 -0.5496 -0.8355 246 210 181
29.9990 -34.1299 361.3839 0.3556 -0.6034 -0.7138 209 171 152
13.4419 -32.5797 353.5002 0.1889 -0.1571 -0.9693 226 191 171
9.6144 -33.2833 352.4118 0.1932 -0.1003 -0.9760 238 202 184
-6.2786 -32.4903 349.1255 0.2302 0.0452 -0.9721 251 215 195
-25.6361 -32.4312 345.2431 -0.1156 -0.0567 -0.9917 255 224 212
-41.2443 -32.6295 347.9381 -0.1273 -0.0344 -0.9913 255 231 215
-57.2316 -32.4878 348.7782 0.0043 -0.1257 -0.9921 234 206 195
-75.0499 -31.7380 341.0984 0.2478 -0.1703 -0.9537 225 205 193
-90.8900 -31.6968 342.3104 -0.1736 -0.4334 -0.8843 255 244 222
-107.0172 -31.7206 343.7390 -0.0814 -0.5396 -0.8380 255 237 218
-124.9011 -32.5074 349.4991 -0.3343 -0.4548 -0.8255 255 244 221
190.9059 -27.8946 310.3007 -0.6114 0.1149 -0.7829 44 41 60
180.4162 -28.6503 315.4364 -0.5241 0.2710 -0.8074 46 46 71
162.2752 -29.7032 327.8723 -0.6293 0.2594 -0.7326 25 25 50
142.7466 -30.9045 342.2101 -0.2466 -0.4952 -0.8331 61 61 86
128.7172 -31.2019 345.6299 -0.2357 -0.4871 -0.8409 46 47 67
115.6200 -32.1488 353.0190 -0.6533 -0.3713 -0.6598 102 102 118
99.4048 -34.8271 383.8284 -0.6530 -0.1661 -0.7389 255 244 221
84.7016 -36.3756 395.1100 -0.2471 -0.4369 -0.8649 255 222 198
67.3413 -36.2657 395.9458 -0.0414 -0.5140 -0.8568 246 210 179
34.2456 -33.8136 364.8213 0.3933 -0.6801 -0.6187 206 171 151
-2.5363 -31.8057 350.2155 0.1925 0.0341 -0.9807 237 201 183
-21.8147 -31.5035 344.7938 0.0331 0.0188 -0.9993 255 222 208
-37.8800 -31.8329 348.3417 -0.1045 0.0293 -0.9941 255 240 220
-53.5077 -31.5280 348.2282 0.0405 -0.2755 -0.9605 238 207 197
-71.3280 -30.9704 341.5237 0.1155 -0.1642 -0.9796 228 223 213
182.6832 -27.5493 313.6138 -0.4882 0.2535 -0.8351 48 47 70
172.4017 -28.5163 320.1116 -0.4989 0.3083 -0.8100 43 44 69
164.9292 -28.6262 326.3775 -0.5882 0.2920 -0.7542 68 68 93
154.5269 -29.8778 334.7791 -0.4814 0.0294 -0.8760 53 53 78
118.2949 -30.7151 349.5041 -0.5192 -0.4569 -0.7223 69 69 87
113.0766 -33.2306 372.0931 -0.7437 0.0708 -0.6648 255 250 228
88.2260 -34.9579 392.3967 -0.3005 -0.4171 -0.8577 255 235 209
71.3000 -35.1534 395.2246 -0.0301 -0.4879 -0.8724 252 216 187
42.5515 -32.9826 371.0937 0.5201 -0.6362 -0.5699 198 158 135
38.1550 -33.1781 366.6183 0.4682 -0.6886 -0.5537 214 176 155
17.2505 -31.7641 353.8898 0.1575 -0.2363 -0.9588 224 186 169
1.1971 -30.9598 350.3911 0.1841 0.0349 -0.9823 234 198 181
-18.1204 -30.7018 345.1125 0.1712 0.1067 -0.9794 255 222 208
-33.9834 -30.7858 347.2205 -0.1875 -0.0394 -0.9815 255 249 232
-50.0077 -30.9703 350.0228 0.0628 -0.2645 -0.9623 255 233 214
-86.7972 -30.5541 340.6396 -0.1755 -0.4079 -0.8960 218 206 196
-102.7820 -30.5727 342.1105 -0.0470 -0.5041 -0.8623 255 239 219
-120.2233 -31.1994 347.0349 -0.3425 -0.4535 -0.8228 255 251 226
-134.0684 -30.8469 351.4400 -0.1248 -0.4239 -0.8971 250 225 206
192.3479 -26.6110 307.2545 -0.5173 0.2396 -0.8216 62 58 80
175.0363 -27.5043 318.9135 -0.3788 0.3505 -0.8565 49 49 77
157.3002 -28.8071 333.3978 -0.4997 0.0551 -0.8644 62 63 87
145.6136 -29.7933 340.6465 -0.2174 -0.4475 -0.8674 54 54 79
131.5989 -30.0033 343.4583 -0.2019 -0.5074 -0.8377 47 43 65
113.9825 -30.8143 362.7853 -0.7604 0.2175 -0.6120 83 83 97
102.6223 -33.3629 380.5269 -0.6041 -0.0695 -0.7939 255 245 222
91.9715 -33.7160 390.6454 -0.4114 -0.3389 -0.8461 255 240 214
75.4913 -34.1485 395.0726 -0.0492 -0.4991 -0.8652 248 212 180
53.3532 -34.3516 391.5101 0.4981 -0.6692 -0.5513 207 164 146
47.8389 -33.7265 381.4304 0.5154 -0.6224 -0.5891 211 174 152
21.0964 -31.0035 354.6498 0.1236 -0.3746 -0.9189 223 185 168
-14.5054 -30.1306 346.8435 0.1934 0.1703 -0.9662 247 212 199
-82.8238 -29.4611 339.1821 -0.0242 -0.3240 -0.9458 180 176 173
-98.9843 -29.6604 341.8287 -0.0528 -0.4844 -0.8733 255 233 213
-115.5379 -29.8646 344.3447 -0.2912 -0.4781 -0.8286 255 246 224
195.4826 -25.8456 307.2542 -0.2434 0.3427 -0.9074 40 36 58
185.8018 -26.7431 313.4779 -0.3735 0.2644 -0.8892 72 70 96
178.0763 -26.6328 318.4733 -0.4532 0.3509 -0.8194 73 76 100
167.6202 -27.5886 325.0670 -0.6304 0.3102 -0.7116 49 50 75
159.8772 -27.6702 331.5740 -0.5741 0.0422 -0.8177 62 63 87
148.3368 -28.6006 338.4653 -0.2430 -0.4430 -0.8629 46 44 70
135.0179 -29.0419 342.6680 -0.1943 -0.5502 -0.8121 51 48 69
120.8127 -29.3320 346.3139 -0.4557 -0.4664 -0.7582 75 74 97
105.9295 -32.0440 378.1218 -0.5629 -0.0111 -0.8265 255 247 223
79.3767 -32.9986 393.9799 -0.1296 -0.4898 -0.8622 253 217 188
57.8284 -33.9431 395.3295 0.3333 -0.5790 -0.7441 223 181 161
24.8790 -30.1172 354.6646 0.1177 -0.4907 -0.8633 216 179 157
5.0717 -30.2248 351.2066 0.1882 0.0319 -0.9816 232 196 179
-10.7690 -29.3539 347.3550 0.1992 0.1751 -0.9642 244 211 195
-30.3149 -29.9922 347.6033 -0.1746 -0.0156 -0.9845 255 231 217
-46.2192 -30.0472 349.6346 -0.0062 -0.1942 -0.9810 255 233 216
-61.6578 -29.3123 347.0045 0.0579 0.1094 -0.9923 204 196 192
-79.0907 -28.4559 338.2641 0.2390 -0.2033 -0.9495 189 182 180
-95.0988 -28.7027 341.2327 -0.1051 -0.4705 -0.8761 255 250 228
-129.5194 -29.5854 349.2279 -0.2458 -0.4258 -0.8708 255 249 225
188.0160 -25.6750 311.7925 -0.4228 0.2661 -0.8663 51 49 73
169.7538 -26.3858 322.7294 -0.5967 0.3394 -0.7272 38 38 61
151.4278 -27.6000 337.4560 -0.2491 -0.4097 -0.8776 47 46 69
138.2265 -28.0633 341.8391 -0.1879 -0.5865 -0.7879 23 20 39
123.7134 -28.1408 344.1380 -0.3562 -0.4588 -0.8140 69 70 90
109.4801 -30.8439 376.3055 -0.6254 -0.0062 -0.7802 255 255 235
95.2886 -32.2490 387.3769 -0.5361 -0.2541 -0.8050 255 242 218
61.9847 -32.9015 394.9841 0.1605 -0.5484 -0.8206 232 192 169
28.7995 -29.5592 356.7356 0.1487 -0.5862 -0.7964 216 180 160
8.7889 -29.4548 351.8949 0.1209 -0.0384 -0.9919 224 186 169
-7.1529 -28.7901 349.2366 0.1629 0.0923 -0.9823 246 210 193
-26.5800 -29.0161 346.8878 -0.0801 0.0719 -0.9942 255 233 220
-42.5896 -29.0279 348.6972 -0.0494 -0.1135 -0.9923 255 233 215
-58.2329 -28.6823 348.3716 -0.0661 -0.0104 -0.9978 212 186 181
-75.6550 -27.8892 339.9282 0.3415 -0.0840 -0.9361 228 207 196
-110.8511 -28.5223 341.4643 -0.1784 -0.4425 -0.8788 255 255 236
-125.1562 -28.4509 347.7256 -0.3420 -0.4152 -0.8430 255 255 230
190.9845 -24.8500 311.5781 -0.5807 0.2753 -0.7662 17 16 35
180.5601 -25.5981 317.0551 -0.5489 0.3334 -0.7665 21 22 47
162.4571 -26.5522 329.7543 -0.5383 0.0583 -0.8408 60 58 84
114.2138 -28.1280 351.2513 -0.7029 -0.3929 -0.5929 82 83 103
98.4015 -30.7332 383.7047 -0.5750 -0.1854 -0.7969 255 240 216
83.0493 -31.6352 391.4215 -0.1714 -0.4612 -0.8706 252 216 187
65.9415 -31.7535 393.9462 -0.0025 -0.5071 -0.8619 231 195 168
12.6037 -28.8525 353.6277 0.0811 -0.1355 -0.9875 218 182 165
-3.4217 -28.0833 350.2563 0.1115 -0.0026 -0.9938 229 196 177
-22.7385 -27.9136 345.3641 0.0783 0.2167 -0.9731 255 226 213
-38.9712 -28.2349 349.1155 -0.1077 -0.0567 -0.9926 255 233 215
-90.9184 -27.5620 339.4628 -0.1175 -0.4433 -0.8886 255 246 226
-106.9031 -27.5417 340.7764 -0.0926 -0.4376 -0.8944 255 244 222
182.7975 -24.5173 315.3202 -0.5474 0.3444 -0.7627 54 54 79
172.2856 -25.3236 321.1595 -0.4853 0.3831 -0.7859 62 61 86
165.3326 -25.5566 328.6942 -0.4853 0.0784 -0.8708 57 55 80
154.1114 -26.4868 335.7534 -0.2271 -0.3949 -0.8902 33 35 52
140.9164 -26.8901 339.7813 -0.1638 -0.6199 -0.7674 36 38 56
127.0380 -27.1605 343.2226 -0.2709 -0.4544 -0.8486 23 20 39
112.2654 -29.3348 372.4504 -0.6977 0.0611 -0.7138 255 255 235
101.7300 -29.3254 380.5087 -0.5733 -0.0995 -0.8133 255 242 219
69.9616 -30.6945 393.4611 0.0192 -0.4758 -0.8793 231 195 164
32.5435 -28.6094 356.3681 0.1898 -0.6692 -0.7184 201 168 150
16.4161 -27.9373 353.4523 0.0397 -0.2730 -0.9612 222 184 167
-19.0196 -27.2064 346.3021 0.1693 0.3006 -0.9386 251 217 206
-34.8969 -27.1787 347.8622 -0.1930 -0.0869 -0.9774 255 243 225
-54.3773 -27.7227 347.6928 -0.0148 -0.0407 -0.9991 227 199 188
-86.9047 -26.4957 338.1078 -0.1102 -0.3769 -0.9197 224 210 199
-102.8986 -26.5307 339.8359 -0.0495 -0.4310 -0.9010 255 240 220
-120.0549 -26.9985 344.1374 -0.3568 -0.4193 -0.8348 255 255 235
192.1977 -23.5419 308.2883 -0.4800 0.3359 -0.8104 37 36 55
175.1039 -24.3884 320.4194 -0.4057 0.4072 -0.8183 47 47 72
156.8626 -25.4077 334.2260 -0.3044 -0.3722 -0.8768 47 46 69
144.1352 -25.9316 339.0269 -0.1446 -0.6188 -0.7721 22 21 39
130.0840 -26.0690 341.6208 -0.2361 -0.5076 -0.8286 63 59 83
117.0124 -26.8317 348.4376 -0.6102 -0.4034 -0.6818 58 60 80
114.5166 -27.6410 367.2548 -0.7437 0.0800 -0.6637 253 232 225
86.8373 -30.4281 389.8338 -0.2051 -0.3800 -0.9020 255 229 200
40.7455 -27.6930 362.1165 0.5364 -0.6393 -0.5510 199 159 139
36.3954 -27.9415 357.8719 0.2924 -0.6938 -0.6581 208 172 150
20.2029 -27.1057 353.8007 -0.0171 -0.4100 -0.9119 234 198 181
0.3272 -27.3169 350.9485 0.1725 -0.0207 -0.9848 206 167 151
-15.3628 -26.6490 348.2228 0.1728 0.2937 -0.9401 237 200 189
-50.6188 -26.9561 348.2757 0.0617 -0.0474 -0.9970 237 209 198
-63.8571 -26.8018 354.9291 -0.2259 -0.0743 -0.9713 134 143 145
-83.2455 -25.5415 337.4228 0.0275 -0.3176 -0.9478 165 163 157
-99.1295 -25.6498 339.6719 -0.0550 -0.4332 -0.8996 255 235 214
-115.5033 -25.7630 341.8152 -0.2931 -0.3793 -0.8776 255 255 231
-134.3474 -26.8208 349.9552 -0.1020 -0.4408 -0.8918 253 229 212
195.2295 -22.7463 308.1010 -0.2248 0.4132 -0.8825 49 46 65
185.2706 -23.5206 314.0198 -0.4098 0.3961 -0.8217 33 31 57
177.7572 -23.4061 319.2978 -0.4714 0.3798 -0.7959 33 33 58
167.4638 -24.3617 326.3867 -0.5694 0.1316 -0.8115 67 66 89
159.6282 -24.3530 332.7991 -0.4004 -0.3397 -0.8510 62 61 84
147.0915 -24.8911 337.7148 -0.1549 -0.6160 -0.7724 52 53 73
133.0226 -24.9727 339.9019 -0.2935 -0.5399 -0.7889 45 43 67
119.6999 -25.5310 345.4697 -0.5092 -0.4249 -0.7484 53 54 74
105.0597 -28.0674 378.3599 -0.5379 -0.0631 -0.8406 255 243 218
90.6502 -29.2606 388.4275 -0.3540 -0.3371 -0.8724 255 229 203
77.7478 -28.4406 391.4237 -0.1141 -0.4253 -0.8978 251 217 187
74.1525 -29.6410 392.8531 -0.0416 -0.4570 -0.8885 243 207 176
45.0205 -27.2731 365.3686 0.6067 -0.5635 -0.5607 204 164 143
23.8952 -26.0406 352.6246 -0.0052 -0.5008 -0.8655 238 202 173
4.1384 -26.5946 351.9475 0.2279 -0.0409 -0.9728 222 188 175
-11.7070 -25.8488 348.6609 0.1198 0.1349 -0.9836 241 207 193
-31.0721 -26.0565 346.1288 -0.1375 -0.0480 -0.9893 255 238 224
-46.9535 -26.0701 348.0986 0.0478 -0.0324 -0.9983 253 228 214
-129.8242 -25.6081 347.8480 -0.2365 -0.4203 -0.8760 255 254 231
187.8230 -22.5643 312.9853 -0.4082 0.3809 -0.8296 39 38 61
169.6557 -23.1757 323.9733 -0.5547 0.2094 -0.8053 70 71 94
122.4599 -24.3193 343.0814 -0.4089 -0.4233 -0.8085 93 95 113
108.6215 -26.9270 376.8893 -0.5984 -0.0556 -0.7993 255 254 231
94.0518 -27.9529 386.0652 -0.4349 -0.2626 -0.8614 255 233 207
60.4938 -28.2378 391.6362 0.3799 -0.5194 -0.7655 217 176 158
55.7554 -28.6195 387.4331 0.6740 -0.5691 -0.4710 212 170 148
50.2627 -27.9062 375.8433 0.5479 -0.5305 -0.6468 201 159 136
8.0039 -25.7557 352.2021 0.0627 -0.1475 -0.9871 214 176 159
-8.0535 -25.1438 349.7502 0.0053 -0.0904 -0.9959 234 198 183
-27.3165 -25.2226 346.2726 0.0340 0.0519 -0.9981 255 236 223
-43.3591 -25.2474 348.3408 -0.0065 -0.0559 -0.9984 255 241 229
-59.1904 -24.9852 348.5623 -0.0363 -0.2822 -0.9587 193 177 176
-76.3708 -24.2566 339.9727 0.4763 -0.1344 -0.8690 225 205 193
-79.8481 -24.7893 337.9633 0.3024 -0.2385 -0.9229 167 163 160
-95.3135 -24.7077 339.0802 -0.0881 -0.4187 -0.9038 255 242 219
-110.8932 -24.4760 339.0936 -0.1804 -0.3465 -0.9206 255 255 238
191.2375 -21.8436 313.3230 -0.5542 0.3595 -0.7507 25 26 44
180.3930 -22.4255 318.1087 -0.5643 0.3400 -0.7523 36 37 62
172.3582 -22.1718 322.6705 -0.4520 0.2169 -0.8652 58 56 80
161.7002 -23.0863 329.8964 -0.3640 -0.3272 -0.8720 65 63 87
149.8606 -23.7960 335.9858 -0.1416 -0.6037 -0.7845 57 54 75
135.7677 -23.8215 337.7741 -0.2506 -0.5770 -0.7774 39 37 63
113.6831 -24.5198 352.0418 -0.4712 -0.4572 -0.7543 58 57 76
97.5543 -26.7044 383.9922 -0.4807 -0.1763 -0.8590 255 234 209
81.4095 -27.2340 389.8215 -0.1352 -0.3752 -0.9170 252 218 188
64.5999 -27.2373 391.4845 0.0427 -0.4879 -0.8719 222 180 157
27.5931 -25.1121 352.3264 0.0246 -0.5716 -0.8202 232 196 167
11.6777 -24.8713 352.1914 -0.0292 -0.2532 -0.9670 222 184 167
-4.2766 -24.3313 350.1318 -0.0073 -0.2784 -0.9604 223 192 175
-23.7048 -24.4743 347.0275 0.1821 0.1580 -0.9705 252 215 202
-39.5155 -24.4291 348.5856 -0.1237 -0.0603 -0.9905 255 226 211
-73.2662 -23.6090 341.3284 0.3424 -0.1385 -0.9293 241 216 206
-91.1611 -23.6023 337.3945 -0.0971 -0.3643 -0.9262 255 250 230
-107.1322 -23.6127 339.0307 -0.1079 -0.3088 -0.9450 255 242 221
-125.0309 -24.3244 345.1800 -0.3677 -0.3978 -0.8406 255 255 246
182.8929 -21.4236 316.7605 -0.5400 0.3574 -0.7620 53 53 78
164.5107 -22.0782 328.6364 -0.3531 -0.2679 -0.8964 78 76 99
152.5325 -22.6934 334.1954 -0.1307 -0.5878 -0.7984 56 52 74
138.5099 -22.7126 335.9572 -0.1956 -0.5922 -0.7817 41 42 62
125.3770 -23.1735 340.9380 -0.2941 -0.4508 -0.8428 58 59 82
111.4736 -25.4528 372.9550 -0.5890 -0.0061 -0.8081 255 251 228
31.2432 -24.0492 351.1163 0.0527 -0.6081 -0.7921 234 196 173
15.5068 -23.9811 352.0876 -0.0334 -0.3720 -0.9276 224 186 167
-19.9782 -23.7629 348.0207 0.1978 0.2143 -0.9565 248 211 201
-35.7374 -23.4676 347.8887 -0.2203 -0.0826 -0.9719 255 232 215
-54.8950 -23.7429 345.9821 -0.0347 -0.0443 -0.9984 223 195 184
-87.4334 -22.6935 336.9650 -0.0761 -0.3218 -0.9437 236 215 204
-103.3767 -22.7005 338.6469 -0.0929 -0.3189 -0.9432 255 247 225
-120.1372 -22.9613 341.9035 -0.3844 -0.3707 -0.8455 255 255 238
192.5365 -20.5755 310.0735 -0.4972 0.3498 -0.7940 67 68 88
185.3442 -20.4243 315.3467 -0.3959 0.3719 -0.8396 48 49 73
175.2634 -21.2606 322.0212 -0.3837 0.2309 -0.8941 58 56 80
155.7798 -21.7896 333.6711 -0.1693 -0.5705 -0.8036 43 40 61
141.7622 -21.8018 335.3847 -0.1500 -0.6006 -0.7853 38 39 59
128.8170 -22.3064 340.7507 -0.2960 -0.4549 -0.8399 38 35 55
115.6446 -22.9361 347.1394 -0.5203 -0.4751 -0.7096 88 90 105
114.8754 -24.3022 371.2616 -0.4468 0.0872 -0.8904 255 254 232
100.8849 -25.3734 381.1740 -0.5543 -0.1247 -0.8229 255 245 222
85.5255 -26.1958 389.2285 -0.1950 -0.3360 -0.9214 250 214 183
68.5603 -26.1280 390.5104 0.0368 -0.4519 -0.8913 229 190 167
34.9154 -23.2451 351.7039 0.1827 -0.6121 -0.7694 210 173 151
19.2565 -23.0635 351.8257 -0.0723 -0.4457 -0.8923 234 196 177
-0.5307 -23.4512 350.0610 0.2228 -0.3242 -0.9194 208 176 162
-16.2365 -23.0100 348.7444 0.1306 0.1636 -0.9778 237 200 187
-51.4162 -23.1323 347.6385 0.0425 0.0331 -0.9985 237 209 198
-134.2435 -22.6908 347.4647 -0.0058 -0.4232 -0.9060 250 228 213
195.5793 -19.7845 309.9922 -0.2919 0.3799 -0.8778 14 13 31
178.1477 -20.3565 321.4214 -0.4357 0.1638 -0.8851 42 43 68
167.2001 -21.0632 327.3825 -0.3721 -0.2378 -0.8972 48 49 71
118.5300 -21.7504 344.7460 -0.4633 -0.4450 -0.7663 99 101 119
104.3039 -24.1395 378.9888 -0.5411 -0.1349 -0.8301 255 239 218
89.5309 -25.0744 387.9305 -0.2927 -0.3081 -0.9052 255 225 198
72.5592 -25.0744 389.9505 -0.0012 -0.4066 -0.9136 239 203 174
38.9447 -22.7401 354.3344 0.3781 -0.6172 -0.6901 194 156 137
3.1885 -22.8310 351.8510 0.2902 -0.3365 -0.8959 188 150 131
-12.5952 -22.2449 349.4672 -0.0217 -0.0727 -0.9971 240 204 187
-31.8854 -22.3084 345.8077 -0.1166 -0.0407 -0.9923 255 235 220
-47.7610 -22.2964 347.7729 0.0235 -0.0206 -0.9995 237 206 198
-83.7467 -21.7807 336.4533 0.0624 -0.2757 -0.9592 204 197 188
-99.3457 -21.6564 337.3081 -0.0847 -0.3077 -0.9477 255 244 223
-115.6811 -21.8079 339.9032 -0.2618 -0.3077 -0.9148 255 255 231
188.1548 -19.5369 314.6910 -0.4149 0.3636 -0.8340 28 30 50
180.6503 -19.3436 319.9563 -0.5029 0.1334 -0.8540 39 40 62
169.8198 -20.0369 325.9391 -0.3554 -0.2211 -0.9082 20 21 43
158.3286 -20.6875 331.7579 -0.2309 -0.5860 -0.7767 38 35 57
144.5016 -20.7155 333.5478 -0.1597 -0.6158 -0.7716 34 31 50
131.4272 -21.1122 338.2285 -0.3571 -0.4678 -0.8085 68 69 91
114.6013 -21.6125 358.3108 -0.9215 0.3155 0.2264 94 93 112
107.8943 -23.0329 377.6717 -0.5588 -0.1479 -0.8160 255 246 224
92.7813 -23.7211 385.0626 -0.3220 -0.2421 -0.9153 255 229 203
76.2320 -23.9613 388.9775 -0.0711 -0.3704 -0.9262 245 209 180
47.6581 -22.2199 363.6030 0.6546 -0.5039 -0.5635 205 165 144
43.2728 -22.4258 358.4341 0.6387 -0.5585 -0.5293 197 157 136
22.9385 -21.9378 350.0640 -0.1229 -0.4753 -0.8712 244 208 179
7.0877 -22.1055 352.8927 0.0235 -0.3558 -0.9343 213 178 160
-8.8945 -21.5152 350.4538 -0.1419 -0.2643 -0.9540 228 196 182
-28.2055 -21.5331 346.3623 0.1521 0.0890 -0.9844 255 219 209
-44.2539 -21.5651 348.6719 -0.0516 -0.1164 -0.9919 245 218 204
-60.0359 -21.2461 348.5481 0.0623 -0.4764 -0.8770 127 132 130
-79.9436 -20.8184 335.5796 0.3474 -0.2112 -0.9136 165 161 160
-95.4315 -20.6739 336.3585 -0.0978 -0.2863 -0.9531 255 245 224
-111.4664 -20.7423 338.4875 -0.1493 -0.2684 -0.9517 255 252 231
-130.0496 -21.6178 346.1544 -0.2456 -0.3650 -0.8980 255 255 244
191.0536 -18.6777 314.1490 -0.5539 0.3432 -0.7585 34 35 57
172.5834 -19.0648 324.8335 -0.3511 -0.2198 -0.9102 51 49 73
160.6342 -19.5233 329.3873 -0.2214 -0.5846 -0.7805 38 39 59
147.4738 -19.7349 332.4646 -0.1249 -0.6086 -0.7836 37 34 53
134.1006 -19.9443 335.7427 -0.3513 -0.4655 -0.8123 77 78 100
121.1797 -20.5211 341.9287 -0.4075 -0.4413 -0.7995 72 69 90
96.5327 -22.6202 383.9108 -0.3785 -0.1507 -0.9133 255 237 213
80.3877 -22.9274 388.3411 -0.1015 -0.3444 -0.9333 246 210 183
58.4257 -23.0692 383.8474 0.7045 -0.4696 -0.5322 205 159 136
52.6901 -22.4682 372.1725 0.5923 -0.4443 -0.6722 200 158 135
26.5373 -20.9710 349.4686 -0.1051 -0.5123 -0.8523 255 217 186
10.7734 -21.0051 351.3010 -0.0882 -0.4561 -0.8855 220 182 163
-24.5825 -20.8528 347.6039 0.2927 0.1983 -0.9354 255 221 208
-40.2737 -20.6392 348.1252 -0.1354 -0.1480 -0.9797 255 225 207
-76.8889 -20.4302 338.6999 0.5339 -0.0777 -0.8419 222 202 195
-91.8056 -19.8194 336.2678 -0.0981 -0.2694 -0.9580 255 251 231
-107.4260 -19.7441 337.4492 -0.1206 -0.2270 -0.9664 255 255 233
-125.4749 -20.4598 344.1626 -0.3704 -0.3388 -0.8649 255 255 255
182.9460 -18.2947 318.1737 -0.4238 0.1875 -0.8861 79 80 103
163.6397 -18.5866 328.5302 -0.1759 -0.5339 -0.8270 62 61 84
150.4416 -18.7590 331.3468 -0.1103 -0.6140 -0.7816 40 37 54
136.8946 -18.8873 334.0853 -0.3291 -0.4648 -0.8220 72 73 96
124.1775 -19.4618 340.3756 -0.3377 -0.4358 -0.8343 76 77 97
110.7463 -21.6018 373.8034 -0.5038 -0.0946 -0.8586 255 248 227
84.4887 -21.9041 387.7754 -0.1636 -0.3239 -0.9318 253 217 188
63.1846 -22.7087 388.5655 0.4277 -0.4453 -0.7866 207 168 145
30.1749 -19.9715 348.5610 -0.0314 -0.5337 -0.8451 244 208 177
14.4708 -20.0067 350.4355 -0.0175 -0.4825 -0.8757 236 198 170
-5.1039 -20.5245 349.5165 -0.1128 -0.4628 -0.8793 190 161 143
-20.9082 -20.1933 349.0672 0.2053 0.2115 -0.9556 239 203 188
-36.5573 -19.6915 347.4677 -0.1265 -0.1351 -0.9827 250 212 193
-73.8466 -19.8755 340.7510 0.4413 -0.0312 -0.8968 232 208 200
192.4819 -17.4753 311.1684 -0.4977 0.2963 -0.8152 33 34 54
185.7335 -17.3842 317.3436 -0.3335 0.1920 -0.9230 19 20 40
175.2222 -18.0653 323.4488 -0.2752 -0.2621 -0.9250 43 41 64
114.1122 -18.9877 345.1688 -0.4758 -0.4743 -0.7407 92 89 108
114.2194 -20.4798 372.1869 -0.2629 0.0497 -0.9635 255 249 229
100.0058 -21.3751 381.5399 -0.5188 -0.1193 -0.8465 255 235 214
67.1863 -21.6829 388.1394 0.2196 -0.4009 -0.8894 218 176 154
-1.4136 -19.4974 348.3919 0.1211 -0.5631 -0.8175 202 169 151
-17.1324 -19.3357 349.1036 0.0074 0.0972 -0.9952 235 199 184
-52.6240 -19.5717 348.8063 0.0211 0.0865 -0.9960 235 207 198
-70.0614 -18.9825 340.3521 0.1858 0.0437 -0.9816 255 252 240
-87.9903 -18.9288 335.8560 -0.0589 -0.2323 -0.9709 254 229 215
-103.5496 -18.7497 336.3815 -0.1122 -0.1675 -0.9795 255 248 225
-120.4942 -19.0932 340.5229 -0.3809 -0.2718 -0.8838 255 255 246
195.7815 -16.7376 311.4405 -0.3654 0.2698 -0.8909 54 53 76
188.6000 -16.5104 316.7449 -0.4221 0.2013 -0.8839 49 50 73
178.1148 -17.1558 322.7429 -0.2760 -0.3177 -0.9071 48 49 71
166.3772 -17.6038 327.3403 -0.1328 -0.5629 -0.8157 50 51 74
153.5058 -17.8217 330.4252 -0.1532 -0.6339 -0.7581 35 32 51
139.6526 -17.8377 332.4146 -0.2802 -0.4821 -0.8301 47 48 68
126.9719 -18.3504 338.2401 -0.3230 -0.3903 -0.8622 52 47 64
103.2920 -20.0924 378.7291 -0.5541 -0.0975 -0.8267 255 232 211
88.1109 -20.7332 386.1287 -0.2101 -0.2877 -0.9344 255 228 201
71.3392 -20.7606 388.4994 0.0611 -0.3481 -0.9355 231 194 172
33.7321 -18.9784 347.6768 0.0739 -0.5382 -0.8396 239 203 174
18.1431 -19.0554 349.8878 -0.0516 -0.4553 -0.8889 234 194 164
2.3806 -18.8964 350.4147 0.2739 -0.5545 -0.7858 175 138 130
-13.4634 -18.5933 350.0490 -0.2144 -0.1725 -0.9614 237 201 183
-32.7520 -18.6480 346.0711 -0.0179 -0.0380 -0.9991 252 216 198
-48.6873 -18.5879 347.8537 -0.0104 -0.0167 -0.9998 234 204 194
-66.5226 -18.2861 341.3943 0.2762 0.1541 -0.9487 185 198 173
-84.1561 -18.0013 335.1838 0.0548 -0.1888 -0.9805 225 211 200
-99.7720 -17.8362 335.8841 -0.1111 -0.1505 -0.9823 255 240 216
-116.1135 -17.9783 338.6561 -0.2516 -0.2493 -0.9352 255 255 245
-134.0969 -18.5779 344.7297 0.0210 -0.2583 -0.9658 233 215 199
198.7840 -15.9247 311.0562 -0.2742 0.2375 -0.9319 50 48 71
180.5458 -16.1347 321.1116 -0.3153 -0.3203 -0.8933 40 39 60
168.9219 -16.5726 325.7673 -0.1718 -0.5491 -0.8179 46 45 68
156.2950 -16.8247 329.1474 -0.2020 -0.6546 -0.7285 40 37 54
142.4658 -16.7993 330.7331 -0.2396 -0.5113 -0.8253 53 54 74
129.9093 -17.2793 336.3665 -0.3342 -0.3949 -0.8558 76 77 99
116.9652 -17.8357 342.7893 -0.4516 -0.4039 -0.7956 74 75 97
106.6537 -18.8896 376.4910 -0.5663 -0.0973 -0.8184 255 240 218
91.5935 -19.5421 384.3205 -0.2177 -0.1934 -0.9567 255 220 194
75.3196 -19.7974 388.6115 -0.0512 -0.3387 -0.9395 238 201 177
37.4741 -18.1418 347.9404 0.3147 -0.5319 -0.7861 211 175 158
21.9435 -17.8952 347.6244 -0.1341 -0.4413 -0.8873 246 206 174
6.2900 -18.1860 351.6310 0.1033 -0.6210 -0.7770 222 182 166
-29.1265 -17.8685 346.6359 0.2018 0.1073 -0.9735 248 214 200
-45.3287 -17.9681 349.7035 -0.1079 -0.1111 -0.9879 242 210 195
-80.7932 -17.1981 335.4427 0.3239 -0.1343 -0.9365 185 180 180
-96.1168 -16.9959 335.8867 -0.1322 -0.1408 -0.9812 255 247 223
-112.2617 -17.0772 338.2946 -0.1547 -0.2142 -0.9645 255 255 237
-130.1586 -17.6537 344.3899 -0.2368 -0.2557 -0.9373 255 255 247
191.0452 -15.5447 315.3810 -0.5429 0.1675 -0.8230 22 24 44
171.6329 -15.5992 324.5323 -0.2177 -0.5713 -0.7913 34 35 55
132.7217 -16.2136 334.4880 -0.4141 -0.3404 -0.8442 64 65 88
119.7550 -16.6782 340.3212 -0.4353 -0.4104 -0.8013 72 71 87
95.5813 -18.5578 383.9750 -0.2976 -0.1043 -0.9490 255 232 205
79.2168 -18.7482 387.9174 -0.0928 -0.3414 -0.9353 243 207 178
46.2099 -17.7129 358.3422 0.7344 -0.4435 -0.5138 193 154 131
41.4366 -17.5925 350.4501 0.4925 -0.4815 -0.7250 196 158 139
25.5379 -16.9640 347.1880 -0.1633 -0.4422 -0.8819 246 208 175
-9.7344 -17.5362 348.5554 -0.3439 -0.3546 -0.8695 225 194 177
-25.4443 -17.1312 347.5739 0.2072 -0.0848 -0.9746 238 200 185
-74.6243 -16.2242 340.7944 0.5475 0.0866 -0.8323 220 198 192
-77.5229 -16.5904 337.1046 0.5553 -0.0232 -0.8313 184 172 162
-125.7040 -16.5381 342.4883 -0.3864 -0.2114 -0.8978 255 255 255
192.9043 -14.4529 312.9951 -0.4851 0.1113 -0.8673 38 39 59
182.6419 -15.0450 318.8522 -0.2159 -0.2799 -0.9354 40 39 62
158.9579 -15.8091 327.6025 -0.1928 -0.6605 -0.7256 30 28 44
145.6709 -15.9103 330.1360 -0.1708 -0.5121 -0.8418 39 40 58
122.8198 -15.6855 339.0677 -0.4099 -0.3449 -0.8444 50 52 72
109.8042 -17.6239 373.6263 -0.4611 -0.0886 -0.8829 255 244 223
61.5429 -18.0399 383.9054 0.6042 -0.3209 -0.7294 208 165 148
50.6453 -17.4160 363.2309 0.6865 -0.4223 -0.5919 201 159 136
9.8331 -16.9365 348.7286 0.0199 -0.6270 -0.7788 223 181 159
-5.8780 -16.2686 345.3713 -0.2456 -0.4795 -0.8425 226 195 178
-21.7715 -16.4820 349.2371 0.1757 -0.0197 -0.9843 228 187 176
-41.0855 -16.8399 347.4944 -0.1406 -0.4330 -0.8904 243 212 193
-92.2828 -16.0646 335.1533 -0.1305 -0.1311 -0.9827 255 244 223
-108.3003 -16.1067 337.3686 -0.1149 -0.1489 -0.9822 255 255 238
185.7262 -14.2227 318.7165 -0.1779 -0.2534 -0.9509 32 31 54
173.8626 -14.5163 322.3553 -0.1672 -0.5902 -0.7898 43 45 63
161.5719 -14.7935 326.0157 -0.1214 -0.6518 -0.7486 24 22 39
148.3863 -14.8943 328.5672 -0.1651 -0.5144 -0.8415 52 49 69
135.3543 -15.1180 332.3196 -0.4459 -0.3200 -0.8359 84 85 107
112.9487 -15.1702 343.8260 -0.4650 -0.2435 -0.8512 123 121 138
113.4865 -16.6197 372.8936 -0.2391 -0.0463 -0.9699 255 249 229
99.1001 -17.3581 381.7510 -0.4899 -0.0430 -0.8707 255 226 205
83.0995 -17.6594 386.7790 -0.1075 -0.3088 -0.9450 248 211 183
65.9935 -17.3617 386.3468 0.2897 -0.3142 -0.9041 202 160 138
55.5920 -17.5118 371.5439 0.7321 -0.3486 -0.5852 198 156 134
29.1405 -15.9076 345.6531 -0.1185 -0.4475 -0.8864 255 217 186
13.5306 -15.9975 348.1982 0.0782 -0.5489 -0.8322 245 204 177
-2.1293 -15.3171 344.6043 -0.0565 -0.5226 -0.8507 226 192 176
-17.9989 -15.6712 349.6564 0.0219 -0.2268 -0.9737 239 202 190
-37.3766 -15.9676 347.4025 0.0275 -0.3751 -0.9266 253 219 201
-88.2813 -15.0931 334.0550 -0.0390 -0.1183 -0.9922 255 234 216
-104.3287 -15.1091 336.1983 -0.0951 -0.1017 -0.9903 255 251 233
-120.6484 -15.1914 338.6970 -0.3926 -0.1842 -0.9011 255 255 255
195.8507 -13.6350 312.7025 -0.4059 0.0751 -0.9108 31 30 49
188.1731 -13.2592 317.3554 -0.2621 -0.2896 -0.9205 32 31 54
176.7536 -13.6236 321.6741 -0.1553 -0.5722 -0.8053 41 40 61
164.2810 -13.8195 324.7660 -0.0928 -0.6444 -0.7590 34 34 52
151.2167 -13.9145 327.2137 -0.1973 -0.5451 -0.8148 48 45 62
138.2042 -14.1096 330.7625 -0.3781 -0.3191 -0.8690 60 58 84
125.4909 -14.5242 336.3223 -0.2798 -0.2905 -0.9150 19 19 35
102.2314 -16.0212 378.2493 -0.5750 0.0221 -0.8179 255 237 215
86.8832 -16.5365 385.2843 -0.1508 -0.2631 -0.9529 253 216 192
70.0898 -16.4109 386.4157 0.0865 -0.3322 -0.9392 218 176 156
32.7700 -14.9056 344.5404 0.0129 -0.4563 -0.8897 253 217 186
17.2239 -15.1297 348.2398 0.0511 -0.4546 -0.8892 246 207 179
-14.3011 -14.7879 349.4924 -0.2292 -0.3461 -0.9098 253 218 196
-33.5444 -14.9347 345.9613 0.0913 -0.3318 -0.9389 253 219 203
-49.5827 -14.8835 348.0588 -0.0911 -0.0212 -0.9956 230 212 197
-84.7388 -14.2828 334.2199 0.0844 -0.0582 -0.9947 238 217 208
-100.6158 -14.2622 336.1672 -0.1216 -0.1061 -0.9869 255 254 232
-116.4756 -14.1741 337.3668 -0.2579 -0.1383 -0.9562 255 255 238
198.1082 -12.6726 311.1407 -0.3304 0.0327 -0.9433 28 27 43
141.0113 -13.0998 329.0977 -0.3312 -0.3262 -0.8854 62 63 87
128.8446 -13.6278 335.6594 -0.3227 -0.2243 -0.9195 62 64 89
115.6392 -14.0134 341.2494 -0.4848 -0.2931 -0.8241 107 106 124
105.5846 -14.8336 375.9247 -0.5951 0.0458 -0.8023 255 234 212
90.6120 -15.4294 383.8838 -0.1509 -0.2109 -0.9658 255 222 197
74.1755 -15.4824 386.7169 -0.0267 -0.3246 -0.9455 232 195 173
36.4668 -14.1465 345.4265 0.1525 -0.4295 -0.8901 211 177 159
20.9402 -14.0810 346.7251 -0.0928 -0.4052 -0.9095 247 208 178
-29.9631 -14.1601 346.6394 0.0908 -0.3327 -0.9387 245 206 194
-45.7471 -14.0203 347.8848 -0.3310 -0.4677 -0.8196 238 206 192
-81.5302 -13.5713 335.1813 0.2884 -0.0282 -0.9571 207 197 187
-96.8402 -13.3581 335.6235 -0.1639 -0.1114 -0.9802 255 253 231
-130.6687 -13.8387 343.5249 -0.2628 -0.1509 -0.9530 255 255 240
190.7194 -12.3175 316.0820 -0.3146 -0.3259 -0.8915 15 17 35
179.1862 -12.6244 320.0332 -0.1536 -0.5395 -0.8278 55 54 77
167.1675 -12.8973 323.7845 -0.1192 -0.6497 -0.7508 36 33 52
153.9281 -12.9342 325.8176 -0.2576 -0.5611 -0.7866 33 33 49
131.6462 -12.5939 333.8850 -0.4685 -0.1682 -0.8673 85 87 107
118.9203 -13.0687 340.3370 -0.5307 -0.2635 -0.8055 111 113 130
94.4700 -14.4255 383.4111 -0.2169 -0.1644 -0.9623 255 223 199
40.0180 -13.2874 345.5281 0.3385 -0.3976 -0.8528 204 173 156
-10.5311 -13.5684 346.5016 -0.3746 -0.4064 -0.8334 225 195 180
-26.3851 -13.5568 348.7654 0.1749 -0.3990 -0.9001 226 185 171
-78.2032 -12.8899 336.4333 0.5057 -0.0506 -0.8612 164 158 153
-112.4476 -13.1932 336.2610 -0.1602 -0.1293 -0.9786 255 246 226
193.1569 -11.3710 314.6910 -0.3229 -0.3134 -0.8930 54 54 70
181.6362 -11.6338 318.3477 -0.1269 -0.5233 -0.8427 20 22 39
169.6720 -11.9002 322.1807 -0.1801 -0.6476 -0.7404 41 38 57
156.1168 -11.8224 323.2984 -0.2764 -0.5911 -0.7578 37 34 53
143.8012 -12.1155 327.6450 -0.2843 -0.2971 -0.9115 58 60 80
108.9008 -13.6586 373.5916 -0.5186 0.0347 -0.8543 255 242 222
77.8445 -14.3459 385.1131 -0.0301 -0.3103 -0.9502 230 193 169
49.1557 -12.9629 357.9214 0.7579 -0.3480 -0.5518 198 158 135
44.2798 -12.9599 350.1740 0.6937 -0.3700 -0.6180 162 122 101
24.5141 -13.0764 345.5620 -0.2094 -0.3562 -0.9106 251 210 180
8.9386 -12.7928 345.0538 0.0752 -0.6495 -0.7567 223 178 161
-6.7628 -12.4301 344.0987 -0.3563 -0.4270 -0.8311 235 203 186
-22.8736 -13.2064 353.2038 0.1245 -0.6571 -0.7435 228 189 177
-75.3226 -12.5350 340.3908 0.6349 -0.0291 -0.7721 203 183 169
-92.9867 -12.4094 334.6726 -0.1159 -0.1215 -0.9858 255 252 231
-108.8461 -12.3704 336.4767 -0.0658 -0.1025 -0.9926 255 255 237
-126.2784 -12.7630 341.7489 -0.3675 -0.1279 -0.9212 255 255 255
185.0391 -10.8916 318.8885 -0.1293 -0.5197 -0.8445 15 14 30
158.6603 -10.8324 321.7111 -0.1553 -0.5503 -0.8204 41 38 57
146.4378 -11.1174 326.0910 -0.2612 -0.3065 -0.9153 46 47 67
134.3468 -11.5400 331.8687 -0.4922 -0.1546 -0.8566 60 60 85
121.4036 -11.8875 337.2588 -0.4006 -0.2233 -0.8886 55 56 80
112.4221 -12.6147 372.3824 -0.3067 -0.0089 -0.9518 255 244 223
98.2846 -13.3728 382.3597 -0.3432 -0.1069 -0.9331 255 230 206
81.8211 -13.3372 384.5865 -0.0670 -0.2427 -0.9678 249 212 186
64.8664 -13.1118 384.8244 0.4877 -0.3123 -0.8152 204 162 142
53.5530 -12.6158 362.9644 0.7313 -0.3441 -0.5888 200 156 134
28.0912 -12.0088 343.7763 -0.1888 -0.3591 -0.9140 253 214 184
12.5886 -11.9253 345.0231 0.2386 -0.5124 -0.8250 221 176 159
-37.9006 -12.1293 346.2591 0.2347 -0.5451 -0.8049 242 209 190
-41.0126 -12.6087 342.9272 0.1486 -0.6068 -0.7809 246 212 192
-72.1475 -11.9143 342.3644 0.4935 -0.0863 -0.8654 217 196 187
-89.2719 -11.5287 334.2557 -0.0071 -0.0602 -0.9982 255 230 211
-105.0738 -11.4751 336.0146 -0.0425 -0.0827 -0.9957 255 240 220
-121.7147 -11.6259 339.3766 -0.3790 -0.1051 -0.9194 255 255 255
195.6149 -10.4576 313.6222 -0.3073 -0.3030 -0.9021 43 42 58
171.7675 -10.8204 319.8098 -0.1208 -0.6087 -0.7842 21 18 35
149.5439 -10.2424 325.4834 -0.3471 -0.2939 -0.8906 50 47 66
137.1048 -10.5185 329.9887 -0.4275 -0.1012 -0.8983 78 80 100
124.4020 -10.8803 335.6478 -0.2247 -0.1570 -0.9617 88 89 107
115.0760 -10.4756 342.0024 -0.4420 -0.2481 -0.8620 112 112 128
111.8693 -11.4259 342.8356 -0.3474 -0.2223 -0.9110 76 75 96
116.7585 -11.8056 373.1700 -0.1692 -0.0681 -0.9832 255 238 219
101.7874 -12.1891 379.8773 -0.4728 -0.0193 -0.8810 255 236 214
85.7703 -12.3769 384.5406 -0.0971 -0.1944 -0.9761 247 212 188
69.0583 -12.2614 385.9213 0.1568 -0.3307 -0.9306 207 165 142
59.3104 -13.0420 375.1361 0.8607 -0.3090 -0.4047 201 157 135
31.7356 -11.1023 343.3467 -0.0512 -0.3679 -0.9284 244 208 177
16.3256 -11.1564 345.8516 0.1940 -0.4235 -0.8849 241 200 173
-3.0539 -11.4375 342.8769 -0.1806 -0.4456 -0.8768 249 213 180
-15.1979 -11.0722 349.6578 -0.2038 -0.4843 -0.8508 249 214 194
-19.0264 -12.1672 351.6026 0.2392 -0.6661 -0.7064 228 189 175
-34.4784 -11.2970 346.5411 0.1408 -0.5629 -0.8145 249 214 196
-85.6421 -10.6932 334.1867 0.1037 -0.0041 -0.9946 252 225 213
-101.6953 -10.7148 336.7163 -0.1352 -0.0844 -0.9872 255 255 237
-135.5235 -10.9999 343.5034 -0.0010 -0.0590 -0.9983 217 205 191
197.6609 -9.4578 311.5948 -0.3275 -0.2932 -0.8982 0 0 12
187.1893 -9.8779 316.9454 -0.1626 -0.5435 -0.8235 24 24 40
174.5651 -9.9302 319.0420 -0.1165 -0.5708 -0.8128 42 39 58
161.4687 -9.9228 320.7515 -0.1332 -0.5390 -0.8317 28 25 42
139.7997 -9.5099 328.2387 -0.4371 -0.0463 -0.8982 58 59 84
127.7709 -10.0226 335.3235 -0.3277 -0.0793 -0.9414 59 57 81
105.1874 -11.0438 377.7648 -0.5777 0.0377 -0.8154 255 239 216
89.6845 -11.3670 383.9361 -0.0987 -0.1770 -0.9793 246 211 187
35.3300 -10.2305 343.2298 0.1318 -0.3600 -0.9236 218 183 163
19.9850 -10.2488 345.4680 0.0165 -0.3697 -0.9290 244 203 176
0.8225 -10.4972 341.9888 0.0037 -0.4912 -0.8710 197 149 138
-31.0723 -10.8148 349.9739 0.0457 -0.6147 -0.7875 228 189 175
-82.0726 -9.9089 334.5722 0.2459 0.0036 -0.9693 233 214 205
-117.3676 -10.5714 337.5843 -0.3005 -0.0798 -0.9504 255 255 241
-131.6385 -10.1718 343.8380 -0.2728 -0.0805 -0.9587 255 251 234
189.9078 -8.9948 316.1079 -0.1781 -0.5391 -0.8232 38 38 54
176.9728 -8.9593 317.4845 -0.1194 -0.5448 -0.8300 30 28 42
164.3816 -9.0310 319.8682 -0.1595 -0.5617 -0.8118 15 14 30
151.8848 -9.1847 323.1823 -0.4574 -0.3097 -0.8336 50 47 68
130.6367 -9.0061 333.4742 -0.4630 -0.0828 -0.8825 74 75 97
117.8412 -9.3937 339.6206 -0.4822 -0.1755 -0.8583 95 96 114
72.7791 -11.1409 384.2451 0.0457 -0.2619 -0.9640 225 185 164
-11.3363 -9.7841 345.7521 -0.3587 -0.4757 -0.8032 226 197 182
-78.9751 -9.2296 335.9399 0.4207 -0.0793 -0.9037 197 187 176
-97.5701 -9.7164 335.2370 -0.1931 -0.1067 -0.9754 255 255 239
-113.3111 -9.6126 336.6018 -0.1896 -0.0579 -0.9802 255 253 232
191.8499 -7.9699 313.8326 -0.2140 -0.5017 -0.8382 23 23 39
179.7075 -8.0672 316.5580 -0.1274 -0.5611 -0.8179 25 25 41
166.9638 -8.0822 318.4425 -0.1876 -0.5172 -0.8351 30 30 46
154.4799 -8.2100 321.5793 -0.4725 -0.3441 -0.8114 48 44 66
142.5552 -8.5272 326.5772 -0.3879 -0.0062 -0.9217 52 52 77
108.4020 -9.8608 375.1608 -0.5736 0.0387 -0.8182 255 237 217
93.6378 -10.4014 383.7045 -0.1622 -0.1533 -0.9748 255 230 207
76.7602 -10.1674 384.1255 0.0279 -0.1725 -0.9846 228 188 168
43.0412 -8.9109 347.0571 0.5772 -0.2738 -0.7693 182 147 125
39.0305 -9.3911 343.3997 0.3180 -0.3706 -0.8726 197 167 145
23.5583 -9.2803 344.4918 -0.1918 -0.2840 -0.9395 254 213 186
-45.9098 -9.7847 343.0014 0.0164 -0.5818 -0.8132 237 205 191
-75.9183 -8.6409 338.1793 0.5775 -0.1358 -0.8050 195 177 162
-93.5968 -8.7534 334.0684 -0.1293 -0.1260 -0.9836 255 251 227
-109.5760 -8.7560 336.4406 -0.0373 -0.0322 -0.9988 255 238 219
-126.9657 -9.0309 341.2714 -0.3477 -0.0677 -0.9352 255 255 255
145.5242 -7.6301 325.7767 -0.3752 -0.0068 -0.9269 23 21 45
133.3386 -7.9779 331.4456 -0.4963 -0.0393 -0.8673 85 87 107
120.1746 -8.1805 335.9989 -0.3665 -0.0953 -0.9255 76 77 99
111.6820 -8.7156 372.7842 -0.3785 -0.0304 -0.9251 255 243 223
97.3543 -9.3345 382.3768 -0.2632 -0.1023 -0.9593 255 226 202
80.7430 -9.2093 384.0386 -0.0359 -0.0791 -0.9962 235 197 176
63.3835 -8.7154 381.5797 0.5831 -0.3348 -0.7402 190 144 121
52.0868 -8.3867 359.1970 0.7556 -0.2835 -0.5905 204 164 143
47.4915 -8.6828 353.2418 0.7861 -0.2775 -0.5522 180 141 118
27.1383 -8.2348 342.6844 -0.2159 -0.2705 -0.9382 255 220 192
7.9681 -8.7208 341.3384 0.0977 -0.5745 -0.8126 251 202 182
-7.5381 -8.5097 341.7304 -0.3955 -0.4775 -0.7846 242 213 196
-38.2440 -8.0144 342.2388 0.1415 -0.6230 -0.7693 244 208 188
-73.0398 -8.2119 342.0453 0.5224 -0.1474 -0.8399 212 189 178
-90.0073 -7.9351 334.1806 -0.0059 -0.1135 -0.9935 255 232 212
-105.8327 -7.8653 336.0127 -0.0308 -0.0351 -0.9989 255 250 232
-122.5129 -7.9679 339.3354 -0.3755 -0.0456 -0.9257 255 255 255
194.2932 -7.0572 312.5667 -0.2441 -0.4667 -0.8501 21 21 34
182.4952 -7.2072 315.8745 -0.1415 -0.5801 -0.8021 28 25 42
169.3164 -7.1005 316.6564 -0.1315 -0.4457 -0.8855 34 31 50
157.1105 -7.2638 320.1559 -0.3427 -0.3054 -0.8884 36 33 52
136.2322 -7.0107 329.9244 -0.4327 0.0391 -0.9007 78 79 102
