ply
format ascii 1.0
element vertex 766
property float x
property float y
property float z
property float nx
property float ny
property float nz
property uchar red
property uchar green
property uchar blue
end_header
-44.2417 -56.3708 387.3480 0.0684 -0.7810 -0.6208 255 255 235
-62.5429 -57.0528 390.8272 -0.0222 -0.7888 -0.6142 255 246 225
-99.6189 -57.7567 394.8178 -0.0470 -0.6447 -0.7630 159 144 136
-102.0465 -57.1981 395.9265 -0.0082 -0.7016 -0.7125 178 163 156
-1093.3146 -289.7129 1969.4023 -0.0578 -0.1696 -0.9838 226 226 226
-1154.9023 -279.4660 1902.3470 -0.2983 0.0141 -0.9544 228 228 228
194.1083 -44.9226 310.6123 -0.7686 0.2375 -0.5940 200 190 195
183.0023 -45.8143 316.5961 -0.5596 0.1078 -0.8217 198 126 137
176.1577 -46.4037 322.1216 -0.4159 0.0272 -0.9090 204 203 208
159.1989 -49.1853 339.9572 -0.5735 -0.1447 -0.8063 250 247 250
151.0641 -49.8614 347.4420 -0.6502 -0.1669 -0.7412 186 78 101
122.6041 -54.5367 379.5344 -0.6176 -0.4552 -0.6414 184 184 186
84.3358 -54.9291 382.8470 -0.4104 -0.1223 -0.9037 109 109 109
34.4606 -57.1026 394.0531 0.1892 -0.8326 -0.5206 255 243 223
12.5006 -56.5974 389.4033 0.0330 -0.8110 -0.5841 255 255 233
-5.2047 -55.4997 384.0099 0.0986 -0.6597 -0.7450 255 252 231
-19.1770 -59.0302 394.2511 0.0000 0.0000 0.0000 255 255 250
-79.8319 -56.5367 391.9415 -0.1041 -0.7459 -0.6579 255 229 213
-1154.1871 -279.2246 1914.1024 -0.2834 -0.2030 -0.9373 232 232 232
185.9306 -44.9152 315.4756 -0.4800 0.1696 -0.8607 161 74 92
168.2777 -46.7396 328.5626 -0.4290 -0.2325 -0.8729 219 219 219
161.9567 -47.9290 337.6055 -0.5624 -0.3186 -0.7630 243 240 243
141.5444 -49.9378 353.0868 -0.3411 -0.6240 -0.7031 255 255 255
129.2908 -51.7307 362.3687 -0.3784 -0.4337 -0.8178 138 139 146
104.5690 -53.6708 379.8644 0.1611 -0.4265 -0.8900 142 147 148
16.4399 -55.1389 388.1162 0.0784 -0.7865 -0.6125 255 238 219
-40.4760 -55.7587 387.3307 0.1490 -0.7664 -0.6248 255 240 222
-57.9547 -55.5049 388.8770 -0.0687 -0.7977 -0.5992 255 244 221
-75.4354 -55.0942 388.5227 -0.0290 -0.7419 -0.6699 255 246 226
-94.1716 -55.8574 392.4038 -0.0632 -0.6893 -0.7217 220 199 188
-1007.3771 -266.8036 1928.3148 0.7368 -0.6388 -0.2215 228 228 228
-1145.5448 -278.4178 1927.1654 -0.1819 -0.0386 -0.9826 235 235 235
193.4726 -42.7823 306.0990 -0.6666 0.2819 -0.6901 152 58 78
188.3004 -43.8339 314.4709 -0.4947 0.1944 -0.8470 167 70 89
177.8330 -44.9542 320.4854 -0.5474 0.1430 -0.8245 171 166 170
171.6366 -45.9370 327.5638 0.0000 0.0000 0.0000 224 222 222
153.8256 -48.5385 345.1023 -0.5824 -0.2536 -0.7723 253 251 251
132.1333 -50.3076 359.8055 -0.3587 -0.5538 -0.7514 196 195 198
123.4463 -51.6398 370.7308 -0.8378 -0.1635 -0.5209 140 139 144
109.8957 -53.4473 381.6487 0.0735 -0.5682 -0.8196 43 49 56
87.2206 -52.9322 380.8461 -0.1460 -0.2249 -0.9634 156 155 160
38.1901 -54.9997 391.0840 0.0546 -0.7988 -0.5991 255 228 218
-1.1569 -54.2763 383.9879 0.1682 -0.6635 -0.7290 255 236 216
-71.7785 -54.2881 388.3192 -0.0253 -0.7444 -0.6672 255 243 224
-89.5354 -54.5520 391.1469 -0.1016 -0.7041 -0.7028 255 239 220
-108.2354 -52.7970 383.8447 0.3172 -0.5613 -0.7644 97 90 90
180.3138 -43.8108 319.2063 -0.5128 0.2976 -0.8053 255 238 245
162.7353 -45.8696 333.4211 -0.5076 -0.2839 -0.8135 209 211 215
155.5724 -46.7359 342.1352 -0.5739 -0.2692 -0.7734 227 225 228
149.9268 -48.6821 351.2671 -0.5160 -0.3760 -0.7697 183 89 105
143.8202 -48.2889 350.1974 -0.3330 -0.4066 -0.8508 146 138 145
134.4799 -48.6663 357.0161 -0.3085 -0.6598 -0.6852 158 160 159
113.8074 -52.7223 381.3300 -0.1498 -0.6210 -0.7694 133 132 135
97.1437 -52.2527 382.1524 -0.0280 -0.3231 -0.9460 74 76 78
91.7520 -52.4890 380.1497 -0.0329 -0.3169 -0.9479 64 65 69
81.7851 -54.1684 389.4843 -0.3854 0.1093 -0.9163 27 24 28
42.1340 -53.9562 390.6533 -0.0143 -0.8016 -0.5977 255 241 222
24.4974 -53.2100 386.4932 0.1158 -0.7153 -0.6891 255 237 219
20.2779 -53.3536 386.2340 0.1046 -0.7244 -0.6814 255 254 232
3.0885 -53.7594 384.9181 0.1877 -0.6891 -0.7000 255 242 221
-13.6982 -52.5991 380.1849 -0.1894 -0.6478 -0.7379 255 255 248
-52.8750 -53.2477 384.1559 -0.1416 -0.7762 -0.6143 255 255 237
191.2679 -42.9150 313.4852 -0.4460 0.2848 -0.8485 183 158 159
171.2967 -43.5248 323.2439 -0.2953 -0.0936 -0.9508 189 188 191
163.5693 -42.5317 325.2812 -0.1785 -0.3145 -0.9323 206 206 208
166.3191 -45.0730 333.2080 -0.3495 -0.3502 -0.8690 241 241 243
124.5725 -48.7505 363.2550 -0.7335 -0.2311 -0.6392 166 166 170
86.2623 -53.4720 385.5511 -0.6159 0.2692 -0.7404 133 130 136
66.3129 -59.0636 433.0102 0.4817 -0.6278 -0.6114 249 218 196
58.9506 -58.1966 427.7860 0.3930 -0.6682 -0.6317 240 212 199
7.0910 -52.4037 383.8619 0.0752 -0.7250 -0.6846 255 255 243
-17.3883 -49.6186 373.5880 -0.2665 -0.0823 -0.9603 255 255 252
-24.0060 -54.5071 392.3463 -0.3563 -0.4338 -0.8276 255 255 233
-48.6763 -52.0129 382.7473 -0.0377 -0.7649 -0.6430 255 244 229
-66.4786 -52.3237 384.2437 -0.0719 -0.7614 -0.6442 255 243 222
-84.6780 -52.7632 387.6946 -0.1567 -0.7160 -0.6803 255 255 239
-103.3004 -51.2023 385.4816 0.5174 -0.3813 -0.7661 145 129 128
-1059.5203 -256.5994 1976.5649 0.7068 -0.4410 -0.5531 235 235 235
-1150.1334 -256.0249 1907.8184 -0.0152 0.0932 -0.9955 227 227 227
193.9882 -41.9612 312.2852 -0.7270 0.1820 -0.6621 193 130 140
181.7359 -42.2919 317.5626 -0.5899 0.1826 -0.7865 181 111 121
175.8116 -43.1966 323.3462 -0.4135 0.0025 -0.9105 209 206 209
170.1378 -44.3682 332.1313 -0.5165 -0.2553 -0.8173 206 206 208
157.8353 -45.3483 339.2570 -0.5496 -0.3982 -0.7344 208 205 208
149.4374 -45.7538 346.0951 -0.4596 -0.4418 -0.7705 211 120 133
137.3903 -47.3614 354.9083 -0.2550 -0.6440 -0.7213 161 160 163
116.1761 -50.5034 378.3000 -0.4275 -0.6005 -0.6758 123 123 127
100.1955 -50.7849 379.0890 -0.0894 -0.3504 -0.9323 113 117 120
69.8754 -57.7224 435.1935 0.3086 -0.6879 -0.6570 254 224 202
28.7982 -52.0018 385.9097 0.1345 -0.6953 -0.7060 255 235 216
11.0604 -50.8621 382.0416 0.0885 -0.6766 -0.7310 255 255 235
-10.0302 -51.2541 379.0197 -0.0947 -0.6152 -0.7826 255 255 238
-44.3811 -50.6468 380.5265 0.1020 -0.7283 -0.6776 218 193 181
-62.1130 -50.8992 382.5911 -0.0436 -0.7430 -0.6679 255 249 231
-80.1637 -51.3853 385.0848 -0.1091 -0.7087 -0.6970 255 255 233
-98.2692 -51.8543 390.2663 -0.0474 -0.6266 -0.7779 210 186 176
185.8995 -41.8405 315.8331 -0.4850 0.1528 -0.8611 179 90 109
179.3338 -42.4157 322.0358 -0.4672 0.1517 -0.8710 167 164 167
161.5278 -44.6899 337.1776 -0.5849 -0.4012 -0.7049 211 210 215
140.3486 -46.0474 352.1707 -0.2636 -0.6091 -0.7480 255 255 255
128.1672 -47.8425 362.0018 -0.6117 -0.3354 -0.7165 170 170 170
119.6572 -49.1066 374.6423 -0.5294 -0.5114 -0.6769 158 160 161
103.5832 -49.5199 378.7061 -0.0016 -0.3203 -0.9473 147 147 147
88.1156 -50.5458 384.0112 -0.2974 -0.0141 -0.9546 45 45 47
86.0148 -55.4058 433.2494 -0.3028 -0.6069 -0.7348 255 243 218
32.8117 -51.2269 387.0977 0.0749 -0.7168 -0.6932 255 254 232
-5.9978 -50.2945 379.3494 0.0792 -0.6207 -0.7800 255 248 229
-40.6696 -50.1918 381.6669 -0.1489 -0.6106 -0.7778 212 188 171
-467.9755 -95.1953 717.8206 0.0000 0.0000 0.0000 0 0 0
194.2518 -40.0908 308.5602 -0.6254 0.1784 -0.7597 158 53 77
188.2257 -40.6972 315.2152 -0.4067 0.0434 -0.9125 163 79 94
151.8754 -44.3720 343.6193 -0.4801 -0.4207 -0.7698 205 123 135
143.9696 -45.3055 352.4543 -0.2636 -0.5374 -0.8011 255 255 255
129.8485 -45.7157 357.1672 -0.5132 -0.4850 -0.7081 145 145 148
122.8854 -47.7568 372.0344 -0.6967 -0.3844 -0.6056 100 102 103
108.4593 -49.0470 380.3407 -0.0137 -0.3318 -0.9433 122 124 125
74.5882 -56.7909 434.7864 0.0830 -0.7615 -0.6428 243 211 187
36.7166 -49.9404 385.2026 0.0138 -0.7219 -0.6919 255 252 229
15.1784 -50.0574 381.5586 0.1107 -0.6527 -0.7495 255 249 232
-2.0100 -49.2156 379.1400 0.1398 -0.6154 -0.7757 255 247 228
-19.0353 -50.3502 385.7118 -0.5943 -0.4138 -0.6896 255 255 255
-58.0725 -50.1223 381.7833 -0.0992 -0.7340 -0.6719 255 255 233
-74.9144 -49.5560 383.0225 -0.0739 -0.7078 -0.7026 255 255 238
-93.5909 -50.3739 387.7002 -0.1655 -0.6010 -0.7819 255 247 232
-109.9546 -49.3256 383.3872 0.2948 -0.5135 -0.8059 77 68 69
196.9414 -39.1821 307.2414 -0.1876 0.2541 -0.9488 163 46 79
181.7005 -41.2413 320.9825 -0.4340 0.1595 -0.8867 213 180 187
169.0090 -41.6901 324.6161 -0.3609 -0.1384 -0.9223 208 208 212
161.5989 -42.2081 332.4390 -0.4046 -0.3682 -0.8371 204 201 205
154.7603 -43.1997 341.0928 -0.5125 -0.3820 -0.7690 228 185 195
112.0746 -47.7812 378.8802 -0.2531 -0.4547 -0.8539 128 128 130
91.3412 -48.8431 380.6654 -0.0540 -0.1983 -0.9787 110 112 116
79.4130 -55.9076 433.6805 0.0935 -0.7109 -0.6970 255 248 225
19.4200 -49.5792 382.3566 0.1277 -0.6434 -0.7548 255 234 218
1.9962 -48.1148 378.7531 0.0843 -0.6064 -0.7907 255 250 230
-36.1447 -48.7488 379.6615 -0.0925 -0.4905 -0.8665 145 147 137
-53.3303 -48.2361 378.7218 -0.1430 -0.7122 -0.6873 255 255 240
-71.3334 -48.9890 381.8783 -0.1008 -0.7014 -0.7056 255 255 235
-89.0091 -48.9619 384.7998 -0.2375 -0.6274 -0.7416 255 255 255
-1054.3108 -233.4476 1851.0283 -0.0899 -0.9278 -0.3620 229 229 229
190.0770 -39.4372 313.9074 -0.4344 0.0118 -0.9006 179 85 105
184.5398 -40.2488 320.3554 -0.5811 0.0461 -0.8125 186 176 179
172.4673 -40.9329 324.8459 -0.2906 -0.0474 -0.9557 185 184 189
165.2460 -41.4433 332.0928 -0.2463 -0.2743 -0.9296 225 222 226
147.0408 -44.1180 346.7137 -0.3572 -0.5869 -0.7266 169 162 164
132.0661 -44.0735 354.1923 -0.4599 -0.5217 -0.7186 169 168 175
123.7770 -45.1836 364.5812 -0.7753 -0.1714 -0.6079 149 148 153
94.6925 -47.3115 379.9232 -0.0736 -0.0786 -0.9942 97 99 105
83.4490 -54.3534 432.2291 -0.1667 -0.6502 -0.7412 255 233 209
40.5389 -48.6057 383.8369 0.0263 -0.6641 -0.7472 255 245 224
23.4524 -48.3374 381.9679 0.1039 -0.6321 -0.7679 255 251 233
-14.5793 -47.8657 376.9412 -0.4957 -0.3030 -0.8139 255 255 243
-28.9369 -48.6834 386.2547 0.5125 -0.5523 -0.6575 255 233 217
-49.3192 -46.9764 374.7265 0.0011 -0.6548 -0.7558 214 198 187
-103.7462 -48.6741 387.8217 0.3623 -0.4542 -0.8139 172 150 144
193.5275 -38.7120 312.4541 -0.6792 -0.0588 -0.7316 170 113 127
176.1020 -40.2298 324.6991 -0.3684 -0.0927 -0.9250 218 217 220
157.6540 -42.0167 339.2995 -0.5698 -0.3885 -0.7241 255 255 255
114.8579 -46.1078 375.4499 -0.4122 -0.5205 -0.7477 88 90 92
98.7995 -46.5169 379.3026 -0.1242 -0.2041 -0.9710 108 110 111
87.9437 -53.2306 431.8944 -0.2110 -0.6157 -0.7592 255 245 220
44.7197 -47.6837 384.6528 0.0851 -0.5924 -0.8011 255 240 220
27.3966 -47.1160 381.5310 0.1343 -0.6396 -0.7569 255 236 216
6.0758 -47.0837 378.2758 0.0734 -0.6141 -0.7858 255 253 234
-24.8664 -48.0463 388.9464 -0.1240 -0.5730 -0.8101 255 255 248
-66.2852 -46.9135 378.6808 -0.0811 -0.6851 -0.7239 255 255 237
-83.8210 -47.1139 381.9074 -0.2308 -0.6458 -0.7278 255 255 255
-99.3814 -47.5846 387.4566 -0.0338 -0.5405 -0.8407 219 200 191
-1082.4548 -219.3536 1821.2451 -0.4871 -0.0573 -0.8715 230 230 230
195.8350 -37.6071 310.2621 -0.5910 -0.0400 -0.8057 172 74 89
184.5670 -38.2579 316.2904 -0.4783 0.0128 -0.8781 211 176 183
167.7663 -40.2878 329.6171 -0.5275 -0.2843 -0.8006 227 227 229
148.7436 -42.1311 345.3620 -0.3607 -0.5711 -0.7374 177 164 171
134.1600 -42.2727 350.1499 -0.2939 -0.4080 -0.8644 145 147 149
125.8391 -43.0966 359.4109 -0.7668 -0.1932 -0.6122 163 163 165
103.5804 -46.0738 379.2943 -0.0678 -0.2457 -0.9670 170 172 173
60.5748 -49.2175 404.2645 0.5295 -0.7639 -0.3689 207 173 157
48.7949 -46.6312 385.1244 0.2423 -0.4398 -0.8648 252 221 200
31.1948 -46.0044 381.5043 0.1095 -0.6191 -0.7776 255 242 222
10.1729 -46.2089 378.3760 0.0883 -0.5931 -0.8003 255 251 233
-6.9546 -45.5378 375.3326 0.0001 -0.4296 -0.9030 255 245 226
-10.9517 -45.5837 374.8793 -0.1991 -0.3621 -0.9106 255 255 255
-44.9574 -45.7612 375.0373 0.1560 -0.6347 -0.7569 192 171 160
-62.3611 -46.0375 378.0112 -0.0610 -0.6702 -0.7397 255 255 241
-79.9420 -46.2220 380.5359 -0.1258 -0.6647 -0.7365 255 255 250
-1089.5298 -242.7522 1970.0551 0.4464 -0.4699 -0.7615 229 229 229
187.7588 -37.4316 315.3701 -0.3410 -0.0111 -0.9400 152 53 75
177.8177 -38.7424 321.7938 -0.3393 -0.0816 -0.9371 218 215 221
169.3450 -38.6649 326.5893 -0.4323 -0.2541 -0.8652 217 216 221
157.5475 -39.6577 333.9314 -0.6092 -0.3617 -0.7057 210 209 212
150.8047 -40.6224 343.0823 -0.4134 -0.4523 -0.7903 175 136 149
137.5352 -41.3074 348.9363 -0.2297 -0.3951 -0.8895 149 149 149
115.9088 -43.6335 371.2791 -0.4077 -0.3447 -0.8456 148 147 152
106.9562 -44.7138 379.2542 -0.1506 -0.2859 -0.9464 93 95 96
90.5007 -50.5385 425.0824 -0.1564 -0.5783 -0.8007 224 193 185
72.6312 -50.3831 417.9281 0.2751 -0.7334 -0.6216 236 203 182
52.3985 -45.5492 385.0603 0.5222 -0.3514 -0.7770 235 201 185
14.1198 -45.1600 378.2965 0.1280 -0.5658 -0.8145 255 255 243
-20.6664 -46.4393 386.0403 -0.5362 -0.4070 -0.7395 255 255 255
-41.5708 -45.4958 377.5312 0.1352 -0.6206 -0.7724 193 168 153
-58.2720 -45.0162 376.4203 -0.1287 -0.6499 -0.7490 255 255 253
-75.5158 -44.9163 378.8898 -0.0831 -0.6607 -0.7460 255 248 225
-93.9777 -45.8436 384.7694 -0.2510 -0.5668 -0.7847 255 253 235
-111.6787 -45.6358 380.9053 0.3343 -0.4958 -0.8015 81 70 69
-1074.8015 -217.2791 1819.2012 0.0386 0.1555 -0.9871 226 226 226
-1175.8872 -218.7616 1845.1587 0.2555 0.5976 -0.7600 227 227 227
196.9149 -36.1712 307.8959 -0.1802 0.0310 -0.9831 154 78 92
180.6707 -37.7227 321.3831 -0.2247 -0.2324 -0.9463 210 207 212
160.9201 -38.8253 332.4995 -0.3839 -0.2826 -0.8791 203 200 203
141.0375 -40.3320 346.4701 -0.3799 -0.3940 -0.8369 172 169 170
128.1963 -41.5605 355.8731 -0.7075 -0.2822 -0.6479 150 150 150
121.3985 -43.5051 371.0659 -0.6237 -0.1826 -0.7600 110 113 112
76.8043 -49.7729 421.6597 0.2808 -0.7840 -0.5536 241 206 184
63.5908 -47.1331 407.1497 0.5159 -0.7856 -0.3417 207 173 157
35.2623 -44.8583 379.7830 0.0679 -0.5942 -0.8014 255 240 220
18.1492 -44.3506 378.6360 0.1166 -0.5722 -0.8118 255 251 233
-3.0130 -44.3828 375.3835 0.1112 -0.4390 -0.8916 255 238 219
-16.6643 -44.7287 381.9881 -0.5928 -0.2493 -0.7658 255 255 255
-36.9245 -44.1929 376.1561 0.1836 -0.5905 -0.7859 255 255 255
-89.7677 -44.6902 382.8015 -0.3063 -0.5782 -0.7562 255 255 255
-109.5060 -42.3942 367.9886 0.9854 0.0392 -0.1654 63 57 61
-1105.7531 -224.6795 1912.0016 -0.3317 -0.4559 -0.8259 228 228 228
-1155.2025 -213.8840 1869.6908 -0.1963 0.5330 -0.8230 229 229 229
200.7623 -35.6048 308.9602 0.1447 0.1856 -0.9719 0 0 0
183.8308 -36.9124 320.1139 -0.5741 -0.2432 -0.7819 218 211 211
172.4885 -37.7585 325.7771 -0.3751 -0.1734 -0.9106 212 209 215
163.9783 -37.7160 331.5197 -0.3588 -0.2254 -0.9058 206 203 209
152.8195 -39.0971 339.6492 -0.3946 -0.4269 -0.8137 215 129 140
131.9627 -40.5629 352.5219 -0.6540 -0.2148 -0.7254 154 153 158
123.9747 -41.7810 367.0555 -0.8356 -0.0827 -0.5431 100 100 102
110.0724 -43.2176 377.3436 -0.2538 -0.3616 -0.8971 149 150 154
92.3690 -47.5783 423.5492 -0.3676 -0.4489 -0.8145 255 223 197
39.1225 -43.7148 378.9283 0.0711 -0.5465 -0.8344 255 240 220
1.2201 -43.6171 375.6676 0.0267 -0.4691 -0.8828 255 255 237
-33.1355 -43.4281 377.7833 0.3969 -0.5792 -0.7121 255 235 217
-53.5316 -43.0100 373.0372 -0.1190 -0.5718 -0.8117 248 229 224
-70.9966 -43.6751 376.9694 -0.1103 -0.6249 -0.7729 255 255 255
-105.0168 -43.0314 379.5821 0.4970 -0.4777 -0.7244 136 123 123
-1104.9960 -224.0610 1964.7894 0.4398 -0.0135 -0.8980 234 234 234
191.7926 -35.0473 312.1552 -0.6608 -0.2017 -0.7229 215 194 196
174.1593 -36.3251 323.6545 -0.3487 -0.2201 -0.9110 210 209 212
155.4174 -37.8430 337.5900 -0.6052 -0.3240 -0.7272 184 102 114
142.3020 -38.3995 342.1494 -0.4810 -0.4335 -0.7621 255 255 255
134.5703 -39.1864 350.8968 -0.4020 -0.2151 -0.8900 130 127 130
113.6522 -42.1351 374.7704 -0.3820 -0.2677 -0.8845 170 168 171
98.7876 -43.0201 380.7824 -0.3305 0.4391 -0.8355 99 99 101
80.7364 -48.2167 425.6810 0.1240 -0.6706 -0.7314 235 197 176
43.4966 -42.9121 379.6788 0.1024 -0.5104 -0.8538 255 229 209
22.1502 -43.2615 377.8485 0.0943 -0.5751 -0.8126 255 255 239
5.2060 -42.5581 375.2779 0.0054 -0.4789 -0.8779 255 255 240
-12.0259 -42.5467 375.7402 -0.4212 -0.1214 -0.8988 255 255 244
-29.0142 -42.5564 378.5981 0.4412 -0.5764 -0.6878 189 145 137
-49.3597 -42.1166 372.1592 0.0407 -0.5283 -0.8481 167 146 135
-66.7307 -42.3614 374.7198 -0.0809 -0.5930 -0.8012 255 255 237
-84.6043 -42.8041 378.3615 -0.2615 -0.6055 -0.7517 255 255 255
-103.5666 -43.4972 383.0945 0.4042 -0.4871 -0.7742 178 160 148
-1065.3033 -214.9490 1944.1315 -0.3114 -0.2999 -0.9017 229 229 229
-1118.7594 -206.4839 1824.2069 -0.6588 0.1145 -0.7436 228 228 228
183.5771 -34.9079 315.7043 -0.2876 -0.2315 -0.9293 195 99 111
166.3064 -36.4854 329.0885 -0.6336 -0.2626 -0.7277 255 255 255
158.8494 -36.9939 335.1999 -0.6021 -0.2790 -0.7481 206 204 207
146.1489 -37.6780 343.4380 -0.3777 -0.5241 -0.7633 255 255 255
126.8655 -40.2587 361.2994 -0.8934 -0.0601 -0.4452 161 160 165
102.1149 -41.6683 379.0763 -0.2799 -0.1545 -0.9475 102 106 107
85.3080 -47.2056 424.5795 -0.1387 -0.5806 -0.8023 255 225 201
47.6078 -42.1750 380.4983 0.2456 -0.4675 -0.8492 255 231 210
26.1184 -42.1601 377.3678 0.1217 -0.5606 -0.8191 255 238 219
9.2160 -41.6767 374.9571 0.0811 -0.4880 -0.8690 255 250 235
-25.4090 -42.6546 382.7497 0.2509 -0.6502 -0.7171 255 240 221
-45.7018 -41.4793 372.6736 0.1953 -0.4915 -0.8487 191 172 163
-62.3570 -41.1244 373.4967 -0.0826 -0.5823 -0.8088 255 255 237
-79.7530 -41.2224 375.6759 -0.1547 -0.6131 -0.7747 255 255 252
-99.3356 -42.6897 384.1047 -0.0157 -0.5615 -0.8274 243 217 207
-1043.8552 -210.3407 1923.5751 -0.0878 -0.5634 -0.8215 229 229 229
-1105.5457 -203.9653 1831.0045 -0.5450 0.1398 -0.8267 232 232 232
193.4573 -33.8211 309.7943 -0.5319 -0.1923 -0.8247 215 210 212
186.6186 -34.0914 315.8572 -0.3234 -0.1406 -0.9358 234 213 218
176.1837 -35.0418 321.2781 -0.2704 -0.2504 -0.9296 227 227 227
148.6976 -36.3933 341.7500 -0.3118 -0.5536 -0.7722 137 131 138
138.0423 -38.2305 349.8313 -0.3710 -0.1900 -0.9090 148 145 149
128.5990 -38.3565 357.3372 -0.7957 -0.0092 -0.6056 123 123 125
116.2281 -40.2941 372.9121 -0.3541 -0.1200 -0.9275 154 156 158
90.0150 -46.3083 424.4955 -0.1203 -0.5465 -0.8288 255 223 197
51.6997 -41.5786 383.0909 0.3787 -0.4340 -0.8175 228 189 175
30.1985 -41.2652 377.4774 0.0935 -0.5421 -0.8351 246 209 189
13.1842 -40.8499 375.4789 0.1274 -0.4913 -0.8616 255 249 232
-7.6524 -41.1547 373.8384 -0.1642 -0.1443 -0.9758 255 247 231
-21.5301 -41.9841 383.4336 -0.1714 -0.6153 -0.7694 255 255 243
-41.7481 -40.4717 372.7157 0.0280 -0.5631 -0.8259 214 189 174
-94.5566 -41.1874 382.0315 -0.2876 -0.5595 -0.7774 255 255 254
-1028.6641 -208.0687 1949.0020 0.7203 -0.6355 -0.2780 230 230 230
195.6416 -32.7820 308.2285 -0.1744 -0.1442 -0.9741 210 203 203
180.0936 -34.4664 321.2777 -0.1716 -0.3050 -0.9368 202 199 202
167.3387 -34.7850 325.6814 -0.5690 -0.3320 -0.7523 227 224 230
141.6067 -37.4523 349.5316 -0.5281 -0.1445 -0.8368 205 205 205
120.3894 -39.5105 370.6052 -0.4910 0.0171 -0.8710 94 96 97
104.8213 -39.9606 376.7240 -0.2234 -0.3302 -0.9171 76 78 84
94.6910 -45.3085 424.5767 -0.2892 -0.5047 -0.8134 254 221 198
56.1812 -40.9028 384.4061 0.5388 -0.4684 -0.7002 219 183 166
34.3070 -40.5150 378.1156 0.0674 -0.5176 -0.8529 255 236 217
-3.8553 -40.5265 374.9263 0.0125 -0.1693 -0.9855 255 240 222
-58.2966 -40.1975 373.1864 -0.1696 -0.5821 -0.7952 255 255 255
-75.5077 -40.0944 374.7029 -0.0740 -0.5901 -0.8039 255 255 237
-1109.0676 -202.9088 1910.5903 -0.1813 -0.0658 -0.9812 229 229 229
199.9248 -32.4253 309.2151 0.1364 0.0497 -0.9894 0 0 0
189.7477 -33.3296 314.7509 -0.4785 -0.2214 -0.8497 236 229 232
182.4764 -33.3639 318.7551 -0.3506 -0.3043 -0.8857 199 130 144
170.4913 -33.9275 324.6753 -0.4726 -0.3155 -0.8228 198 197 200
164.0511 -34.5798 332.7654 -0.4101 -0.1730 -0.8955 253 250 253
157.6326 -34.2996 332.1173 -0.4221 -0.1680 -0.8908 218 202 207
152.4756 -35.6659 339.7785 -0.2612 -0.5198 -0.8134 184 144 153
130.0369 -36.3836 352.1452 -0.6820 0.0158 -0.7312 154 153 156
123.9376 -38.3973 368.7876 -0.7779 -0.0029 -0.6284 80 76 84
109.8055 -39.5865 376.5671 -0.2035 -0.3372 -0.9192 59 61 65
99.9663 -40.3926 389.5891 -0.4695 0.7703 -0.4316 46 48 52
66.5392 -41.3003 396.3480 0.5129 -0.6676 -0.5396 209 176 160
60.3399 -40.4381 388.3318 0.5387 -0.6126 -0.5784 192 157 139
38.2180 -39.4947 377.8665 0.0604 -0.4850 -0.8724 255 221 198
17.1960 -39.5980 374.1663 0.1277 -0.4769 -0.8696 255 229 211
0.0581 -39.4607 374.8241 -0.0335 -0.2209 -0.9747 255 246 232
-17.3671 -40.2435 379.6324 -0.3860 -0.3963 -0.8331 255 255 255
-33.6652 -39.0562 374.7326 0.3463 -0.4660 -0.8142 188 154 141
-36.5372 -38.4310 369.4716 0.1385 -0.5547 -0.8205 130 125 116
-54.2599 -38.9371 370.7072 -0.1003 -0.5175 -0.8498 228 206 200
-71.5482 -39.1670 373.6649 -0.0902 -0.5511 -0.8295 255 255 242
-89.3259 -39.4587 377.6587 -0.3355 -0.5762 -0.7453 255 255 255
-105.8079 -38.8137 377.1515 0.4231 -0.3107 -0.8512 113 104 105
-1081.5140 -196.8656 1906.8893 -0.0695 0.0365 -0.9969 229 229 229
192.0876 -32.1845 313.0981 -0.6799 -0.3281 -0.6558 210 144 157
173.6311 -33.0074 322.8062 -0.3655 -0.2922 -0.8837 197 194 198
154.6808 -34.3195 337.6890 -0.3456 -0.4296 -0.8343 192 103 117
142.9493 -35.3661 345.1850 -0.4957 -0.4657 -0.7331 203 201 201
113.9649 -38.6880 376.1539 -0.2692 -0.2538 -0.9290 63 68 76
97.6412 -43.2572 418.1945 -0.1797 -0.4960 -0.8495 217 176 158
79.3673 -43.0507 412.2260 0.5120 -0.6283 -0.5857 224 188 170
42.2077 -38.4112 376.9442 0.1255 -0.4646 -0.8766 255 240 220
21.1727 -38.7827 374.6688 0.0792 -0.4581 -0.8854 255 252 234
4.1962 -38.2516 373.2436 -0.0952 -0.2785 -0.9557 255 246 232
-13.2355 -38.8509 377.4162 -0.4164 -0.1628 -0.8945 255 255 253
-50.2113 -37.8168 370.6848 0.1204 -0.4290 -0.8953 169 151 137
-67.2368 -37.9248 372.6801 -0.0819 -0.5118 -0.8552 255 255 237
-84.9332 -38.1834 374.7978 -0.2464 -0.5591 -0.7916 255 255 255
-103.2219 -38.7574 379.8075 0.3834 -0.4053 -0.8299 159 133 124
-120.5855 -39.7618 384.1086 -0.6581 -0.0426 -0.7517 56 53 61
-1052.0544 -190.7899 1888.9664 -0.2208 -0.5288 -0.8195 227 227 227
-1184.7955 -198.4677 1882.5382 -0.1771 0.2276 -0.9575 227 227 227
-1133.5737 -188.1916 1870.8300 -0.4559 0.5024 -0.7347 226 226 226
182.9946 -31.6345 315.5476 -0.2680 -0.2897 -0.9188 180 175 179
165.6719 -33.0144 328.7473 -0.6264 -0.2859 -0.7252 216 213 216
133.1494 -35.1955 350.3950 -0.5385 0.0263 -0.8422 172 168 174
125.1219 -35.9384 361.4809 -0.8840 0.0808 -0.4605 126 125 128
117.6471 -37.6471 376.0192 -0.2277 -0.1216 -0.9661 94 96 97
83.5123 -42.0926 421.7111 0.3021 -0.6595 -0.6883 221 183 164
70.2425 -39.9898 397.4534 0.4154 -0.6667 -0.6189 209 178 159
24.9757 -37.6244 374.4369 0.0905 -0.4245 -0.9009 255 240 223
-29.9081 -37.8842 376.0216 0.4690 -0.4520 -0.7588 155 144 139
-46.3717 -36.9687 370.8432 0.1739 -0.3804 -0.9083 160 139 130
-99.2957 -37.9566 381.2259 -0.0930 -0.5109 -0.8546 244 217 203
-1090.9594 -198.1091 1951.2061 -0.1708 -0.1096 -0.9792 226 226 226
192.7409 -30.6077 309.3128 -0.4349 -0.3132 -0.8442 231 216 223
185.9051 -30.7505 315.7330 -0.3294 -0.3125 -0.8910 228 223 227
175.2744 -31.5989 320.9900 -0.2449 -0.2700 -0.9312 189 186 191
168.4664 -31.9941 326.5120 -0.5594 -0.3349 -0.7582 224 221 224
157.2777 -33.1146 334.6625 -0.4764 -0.3184 -0.8196 184 94 113
143.8385 -34.8987 352.7206 0.0000 0.0000 0.0000 153 148 152
136.7270 -34.3184 349.6018 -0.4956 -0.1102 -0.8616 186 186 188
108.3748 -41.9617 422.8266 0.2681 -0.5431 -0.7957 80 77 78
98.0723 -39.6958 411.3893 0.0119 -0.2281 -0.9736 220 182 163
87.9980 -41.0443 421.6964 0.0179 -0.6750 -0.7376 251 219 196
46.1815 -37.2508 376.6387 0.2334 -0.4699 -0.8513 255 234 211
29.0546 -36.7538 374.6055 0.1029 -0.4190 -0.9021 255 226 204
8.2505 -37.2230 372.7286 -0.0213 -0.3195 -0.9473 255 244 228
-9.0470 -37.0121 374.1291 -0.2396 -0.0204 -0.9707 255 255 255
-25.8625 -37.4773 376.2589 0.3040 -0.4665 -0.8306 255 249 234
-63.0491 -36.7854 371.2675 -0.1141 -0.4965 -0.8605 255 255 254
-80.0417 -36.6776 372.4507 -0.1378 -0.5373 -0.8321 255 255 254
-1023.3732 -184.6340 1968.6930 -0.4117 -0.0874 -0.9071 229 229 229
195.2179 -29.6460 308.7320 -0.1294 -0.2386 -0.9625 196 188 193
178.5579 -30.7821 320.6062 -0.3718 -0.2720 -0.8876 187 184 187
158.9831 -31.5687 332.4907 -0.4127 -0.2998 -0.8601 205 120 142
146.4452 -32.2809 337.0947 -0.2199 -0.4847 -0.8466 255 255 255
126.8761 -34.2146 356.7189 -0.8115 0.1560 -0.5631 169 166 170
119.9261 -35.7097 371.8401 -0.3308 0.0255 -0.9434 109 110 119
104.2533 -36.0208 374.7940 -0.3563 -0.1601 -0.9206 110 107 112
50.2384 -36.6803 378.1768 0.3174 -0.4781 -0.8189 245 210 187
33.2249 -36.1578 375.5774 0.0939 -0.4140 -0.9054 255 233 212
12.0473 -36.1526 372.5468 0.0658 -0.3104 -0.9483 255 247 233
-4.7888 -36.2039 374.0277 -0.0495 0.0049 -0.9988 255 237 221
-21.8710 -36.6635 377.9322 0.1132 -0.5353 -0.8370 249 214 196
-42.3689 -36.1537 370.5809 -0.0259 -0.3878 -0.9214 231 201 186
-58.9462 -35.6477 369.8390 -0.1625 -0.4832 -0.8603 255 255 255
-75.8391 -35.5472 371.4837 -0.0665 -0.4941 -0.8668 255 255 255
-94.1633 -36.3447 377.6469 -0.3435 -0.5453 -0.7646 255 255 255
-740.0333 -186.9451 2213.3564 0.0000 0.0000 0.0000 53 56 64
-1106.6459 -180.8395 1907.2041 -0.2226 0.1388 -0.9650 230 230 230
198.5759 -28.9519 308.7993 0.1392 -0.1068 -0.9845 0 0 0
188.3498 -29.7222 314.7602 -0.4701 -0.3827 -0.7954 199 197 200
181.6511 -29.9237 318.5049 -0.5603 -0.2992 -0.7723 213 211 212
168.8519 -30.1954 323.2868 -0.4869 -0.2883 -0.8245 206 204 207
162.7218 -30.8619 331.1823 -0.4397 -0.3418 -0.8306 215 210 214
149.6071 -31.3134 335.5213 0.0819 -0.2816 -0.9560 189 186 189
136.7849 -31.9210 346.0933 -0.5323 -0.2616 -0.8051 157 157 159
130.9290 -33.4445 355.5653 -0.7489 0.2034 -0.6307 168 165 168
122.6083 -34.1885 369.1139 -0.6742 0.0941 -0.7325 112 111 116
106.8291 -34.3908 372.6055 -0.1885 -0.1186 -0.9749 151 151 153
92.0975 -39.7976 418.9619 -0.1786 -0.6270 -0.7583 254 221 198
54.4760 -35.9960 379.8920 0.3914 -0.5123 -0.7645 234 198 183
16.0944 -35.4501 373.0652 0.1211 -0.2748 -0.9539 255 233 218
-0.9360 -35.4593 374.1617 -0.0893 -0.0257 -0.9957 255 236 223
-17.8033 -35.5767 377.3688 -0.1303 -0.4412 -0.8879 255 255 237
-54.4450 -34.2130 367.5400 -0.0566 -0.4512 -0.8906 239 222 214
-71.7904 -34.5337 370.7939 -0.0732 -0.4765 -0.8761 255 255 236
-89.5874 -35.0136 375.1272 -0.3403 -0.5381 -0.7711 255 255 255
-106.6949 -34.8577 375.6841 0.5538 -0.1772 -0.8136 94 88 88
-1083.2648 -175.7378 1918.9745 -0.0742 0.1649 -0.9835 228 228 228
-1230.4835 -184.7039 1889.5093 -0.0856 0.2034 -0.9753 0 0 0
190.2808 -28.5725 310.9557 -0.5387 -0.4176 -0.7317 247 239 244
110.8950 -33.6309 373.2049 -0.1984 -0.1131 -0.9736 135 135 137
96.0793 -38.4581 417.2460 -0.0677 -0.5512 -0.8316 231 195 175
58.8678 -35.4177 382.2571 0.4389 -0.5465 -0.7133 237 201 183
37.2076 -34.7306 374.5571 0.0620 -0.4031 -0.9130 255 222 200
20.2233 -34.6009 373.5693 0.0787 -0.2188 -0.9726 255 228 213
3.1948 -34.1743 373.2294 -0.1747 -0.0458 -0.9836 255 242 229
-13.7059 -34.7485 377.2229 -0.2149 -0.2273 -0.9498 255 255 249
-104.3989 -34.7380 379.9488 0.3436 -0.3400 -0.8754 154 130 122
-1085.6984 -175.9552 1935.0337 0.2564 0.4845 -0.8364 227 227 227
182.1846 -28.2753 315.4375 -0.4451 -0.2830 -0.8496 195 192 195
171.8474 -29.2879 321.7954 -0.3831 -0.2450 -0.8906 219 216 220
164.6877 -29.4943 327.5498 -0.5886 -0.3859 -0.7104 205 202 206
152.4257 -30.1768 334.7911 -0.1789 -0.2805 -0.9430 150 136 143
138.5525 -30.3915 339.9849 -0.4649 -0.0867 -0.8811 139 139 139
132.7280 -31.5964 352.0279 -0.6558 0.1591 -0.7380 120 118 121
124.6924 -32.4902 364.2812 -0.8634 0.1893 -0.4677 142 142 144
100.5409 -37.4160 416.6125 0.2012 -0.4820 -0.8527 220 187 166
63.6254 -35.1327 384.8859 0.5190 -0.6014 -0.6074 187 149 130
41.1334 -34.2362 374.8266 0.1087 -0.3717 -0.9220 255 235 215
24.0702 -33.5768 373.1362 0.0535 -0.2088 -0.9765 255 235 217
-31.0012 -33.8975 374.7631 0.4639 -0.2274 -0.8562 192 181 176
-50.5780 -33.3457 367.9456 0.1861 -0.3446 -0.9201 165 150 142
-67.6561 -33.4249 369.5222 -0.0754 -0.4618 -0.8838 255 255 236
-84.5109 -33.2790 371.1670 -0.2390 -0.4730 -0.8480 255 255 255
-100.3710 -33.7263 379.6706 -0.1457 -0.4323 -0.8899 241 216 206
-679.7365 -172.3472 2169.7490 0.0000 0.0000 0.0000 97 94 97
-1079.6138 -174.1713 1974.6754 0.3524 -0.0700 -0.9332 229 229 229
-1126.3090 -166.2533 1891.5016 -0.2340 -0.1034 -0.9667 233 233 233
190.3339 -26.8555 307.4751 -0.3709 -0.3772 -0.8486 208 201 206
185.4810 -27.5095 315.5002 -0.3835 -0.3614 -0.8499 226 223 227
174.3261 -28.1759 321.2984 -0.2841 -0.2897 -0.9140 196 193 198
156.2557 -29.5094 334.0363 -0.4938 -0.2269 -0.8395 175 90 109
135.7705 -30.6216 349.2692 -0.5607 0.1020 -0.8217 157 157 157
127.7657 -31.2388 360.7393 -0.8295 0.2572 -0.4957 155 152 156
113.9770 -32.3511 372.4625 -0.1679 -0.2032 -0.9646 125 124 127
107.1191 -34.2526 387.9246 0.7479 -0.1499 -0.6467 39 36 39
105.4505 -36.6544 417.5736 0.1631 -0.4919 -0.8552 235 200 180
73.4298 -34.6511 394.5702 0.6596 -0.5564 -0.5053 206 174 157
67.7092 -34.4384 390.8814 0.5276 -0.6514 -0.5452 183 149 131
44.8765 -33.1118 374.4307 0.1482 -0.3295 -0.9324 255 225 203
28.2715 -32.8206 373.7713 0.0358 -0.2562 -0.9660 255 233 213
7.4540 -32.9060 371.5943 -0.1390 -0.0241 -0.9900 255 249 236
-9.6126 -33.4011 375.2216 -0.1824 -0.1042 -0.9777 255 255 255
-26.6756 -32.9054 374.5652 0.2132 -0.2670 -0.9398 201 180 171
-46.9832 -32.6820 368.7351 0.2222 -0.2704 -0.9368 156 137 132
-63.7392 -32.5277 369.2080 -0.1332 -0.4477 -0.8842 255 255 240
-80.4974 -32.3690 370.8920 -0.1562 -0.4328 -0.8879 255 255 250
-1184.5593 -174.4955 1905.8693 -0.0224 0.3710 -0.9283 227 227 227
194.2674 -26.3573 307.6597 -0.2237 -0.3193 -0.9209 217 214 217
177.2179 -27.3288 320.8148 -0.4076 -0.2942 -0.8644 252 249 252
165.8782 -27.8841 325.1271 -0.5359 -0.3701 -0.7589 240 237 243
158.4739 -28.1594 332.6299 -0.5189 -0.2136 -0.8278 191 96 119
144.9969 -28.3334 334.7034 -0.3826 0.3583 -0.8516 255 255 255
138.6678 -29.4230 346.4645 -0.5154 0.0380 -0.8561 134 134 134
120.2746 -32.3743 373.0984 -0.2622 -0.1668 -0.9505 112 114 118
86.3824 -35.9128 412.6886 0.2398 -0.7462 -0.6211 190 148 128
77.5314 -33.6769 405.1947 0.6914 -0.5013 -0.5203 199 167 148
48.8793 -32.1797 375.2411 0.2210 -0.3655 -0.9042 245 210 187
11.2746 -32.0789 371.6476 -0.0188 -0.0217 -0.9996 255 232 217
-5.6475 -32.5740 374.6019 -0.0684 0.0151 -0.9975 255 242 224
-22.5852 -32.1967 375.2759 0.1076 -0.3130 -0.9436 240 209 194
-43.0306 -32.0504 369.5884 0.0328 -0.1662 -0.9855 242 214 203
-59.4184 -31.3009 367.6302 -0.1597 -0.4196 -0.8936 255 255 255
-76.1461 -31.1590 369.3933 -0.0777 -0.4046 -0.9112 255 255 246
-94.3006 -31.6988 374.4286 -0.3706 -0.4515 -0.8117 255 255 255
185.6774 -25.8412 311.6039 -0.5339 -0.4218 -0.7329 218 215 219
169.1883 -27.1179 323.8438 -0.4530 -0.3262 -0.8297 209 206 209
148.6409 -27.6911 335.3925 0.0355 0.1447 -0.9888 255 255 255
130.1724 -29.7414 356.9405 -0.7865 0.2370 -0.5703 155 154 157
122.9649 -30.8864 371.3343 -0.4037 -0.2857 -0.8691 102 104 104
108.3195 -31.7660 375.3197 -0.0708 0.2589 -0.9633 71 68 74
107.7883 -34.5671 411.3921 -0.2688 -0.4965 -0.8254 247 214 191
90.1483 -34.5501 411.5248 -0.0028 -0.7833 -0.6216 236 203 184
53.0311 -31.3637 375.9373 0.2622 -0.4542 -0.8515 241 206 184
32.0282 -31.6091 373.3874 0.0702 -0.2522 -0.9651 254 219 197
15.2781 -31.2768 372.2690 0.1014 -0.0234 -0.9946 255 233 216
-1.6983 -31.4250 373.9474 -0.1134 0.0394 -0.9928 255 229 214
-18.7166 -31.5457 376.2362 -0.0498 -0.3480 -0.9362 255 233 218
-111.3465 -31.4940 373.3757 0.1829 -0.3139 -0.9317 85 83 84
-1144.6154 -165.3795 1925.0015 -0.0207 0.4706 -0.8821 227 227 227
-1051.1515 -150.5768 1876.9757 -0.2596 -0.0331 -0.9651 232 232 232
189.0303 -25.1251 309.8155 -0.5087 -0.4104 -0.7568 209 204 210
179.2421 -26.0913 317.3434 -0.4596 -0.2884 -0.8400 224 221 224
160.3598 -26.8488 329.9560 -0.5636 -0.2764 -0.7784 155 67 78
153.5343 -27.3839 337.6580 -0.0098 0.1282 -0.9917 101 95 104
140.4756 -27.8368 343.0779 -0.4717 0.3117 -0.8248 88 90 90
133.6507 -28.7730 354.7303 -0.8023 0.1644 -0.5739 171 171 173
126.2342 -29.8532 368.9518 -0.6180 -0.2091 -0.7579 159 161 165
112.0638 -30.7027 375.3880 -0.2310 0.0681 -0.9706 146 143 148
94.4033 -33.5078 411.2614 0.2139 -0.6690 -0.7119 237 204 184
57.1415 -30.7060 377.0050 0.3030 -0.5256 -0.7950 231 194 170
35.9365 -30.6868 373.2511 0.0930 -0.2430 -0.9656 255 219 198
19.0043 -30.6056 373.1937 0.0673 -0.0411 -0.9969 255 228 213
2.3886 -30.5521 373.9063 -0.1849 0.0595 -0.9810 255 243 229
-14.7732 -30.5826 375.3393 -0.0463 -0.2644 -0.9633 255 255 235
-55.1215 -30.1342 365.9573 -0.0470 -0.3770 -0.9250 248 223 213
-72.4445 -30.4094 368.7883 -0.0798 -0.4171 -0.9054 255 255 249
-89.6217 -30.3315 371.1695 -0.3360 -0.3982 -0.8536 255 255 255
-107.0115 -30.3601 373.7137 0.3710 -0.3033 -0.8777 119 112 114
-143.9527 -33.4145 402.8693 0.1062 0.2848 -0.9527 132 131 134
-1034.7535 -162.8414 2037.1099 -0.0534 0.2183 -0.9744 223 223 223
-1091.4645 -155.2459 1927.8187 0.0958 0.0724 -0.9928 223 223 223
-1193.7023 -156.0995 1892.4287 -0.0941 -0.1653 -0.9817 228 228 228
181.4148 -24.9719 315.6593 -0.4302 -0.3260 -0.8418 232 232 232
170.5272 -25.7100 321.1132 -0.3491 -0.2709 -0.8971 204 201 205
162.7733 -25.6902 326.5273 -0.6344 -0.2957 -0.7142 218 197 188
143.6648 -26.7731 342.4437 -0.5423 0.3456 -0.7658 137 137 139
108.7393 -31.7945 403.9209 -0.2710 0.2192 -0.9373 251 219 196
98.4730 -32.3189 413.3416 0.1771 -0.5609 -0.8087 240 207 186
61.5907 -30.0936 379.7848 0.3144 -0.6055 -0.7311 239 199 178
39.9648 -29.8625 373.6971 0.0927 -0.1963 -0.9761 255 226 204
23.1148 -29.5234 373.3411 -0.0045 -0.0935 -0.9956 255 220 201
6.3887 -29.5699 373.6396 -0.1603 0.1032 -0.9817 255 236 223
-51.4738 -29.3915 366.8614 0.1869 -0.3308 -0.9250 177 165 156
-68.3231 -29.2839 368.2039 -0.0879 -0.4122 -0.9069 255 255 237
-85.3998 -29.3210 370.3551 -0.2543 -0.3797 -0.8894 255 255 255
-104.2032 -30.1345 376.6046 0.1422 -0.3015 -0.9428 138 122 114
-1008.0953 -158.0425 2036.3807 -0.1104 0.1415 -0.9838 230 230 230
-1090.0735 -153.8835 1976.3739 0.6466 0.1265 -0.7523 229 229 229
191.4146 -24.1195 308.7248 -0.3659 -0.3455 -0.8641 187 182 188
173.9930 -24.9534 321.2121 -0.2786 -0.3141 -0.9076 248 246 249
154.1691 -25.4682 332.4095 -0.4612 -0.0853 -0.8832 150 138 142
135.2203 -26.9873 350.3811 -0.6916 0.1925 -0.6962 164 164 166
128.7247 -28.2531 364.4135 -0.7056 -0.0411 -0.7075 105 109 114
113.1935 -28.2875 371.5380 -0.1288 -0.2911 -0.9480 156 156 156
65.0876 -28.9806 379.9881 0.3775 -0.6470 -0.6625 234 198 181
43.8601 -28.9675 373.8344 0.0776 -0.1913 -0.9785 225 190 166
27.2404 -28.6400 373.2302 -0.0744 -0.1333 -0.9883 255 220 198
-10.3784 -29.3181 374.4464 -0.0256 -0.1265 -0.9916 255 254 237
-27.4512 -29.0063 374.0451 0.1435 -0.0501 -0.9884 103 106 101
-47.7290 -28.6857 368.4479 0.3352 -0.1980 -0.9211 116 105 102
-64.1284 -28.1311 366.7121 -0.1254 -0.3821 -0.9156 255 255 245
-81.4666 -28.2933 369.2743 -0.1645 -0.3437 -0.9246 255 255 241
-99.9242 -29.0555 375.7447 -0.2445 -0.3690 -0.8967 228 200 189
-635.2098 -135.8770 2169.7488 0.0000 0.0000 0.0000 121 110 105
-1137.0947 -145.6331 1889.9906 -0.3014 -0.1749 -0.9373 225 225 225
-1072.8976 -137.0493 1848.0446 -0.1043 -0.9645 -0.2426 228 228 228
192.4214 -22.8048 306.9811 -0.3180 -0.2514 -0.9142 208 205 208
184.2081 -24.0378 314.3434 -0.5595 -0.2777 -0.7809 231 228 231
176.1796 -23.8459 319.1070 -0.3861 -0.3025 -0.8715 248 246 249
164.8381 -24.4585 324.8592 -0.5490 -0.3359 -0.7653 197 194 198
157.6211 -24.6484 331.7915 -0.5041 -0.2248 -0.8339 177 146 152
138.7004 -26.0395 349.2423 -0.6593 0.2074 -0.7228 137 137 139
117.3966 -27.5306 368.2116 -0.1560 -0.3073 -0.9387 108 105 108
102.6303 -31.2258 412.3605 0.0855 -0.5320 -0.8424 252 223 203
71.2770 -29.4686 385.6051 0.6013 -0.5782 -0.5515 189 153 134
47.9856 -28.1666 374.3211 0.1023 -0.2733 -0.9565 249 215 190
10.3660 -28.3749 372.7600 -0.0665 0.1244 -0.9900 255 240 226
-6.5825 -28.4661 375.1544 -0.0567 0.0033 -0.9984 255 241 223
-23.5192 -28.1430 374.7746 -0.0234 -0.1080 -0.9939 227 197 189
-43.8440 -28.0114 369.2932 0.3188 -0.1665 -0.9331 218 186 174
-60.3757 -27.4018 366.2933 -0.1321 -0.3641 -0.9219 255 255 243
-131.9033 -28.7978 391.6854 0.0027 0.0901 -0.9959 57 57 68
-1150.3086 -145.0743 1930.4619 -0.1348 0.3724 -0.9182 227 227 227
184.2606 -22.4374 310.9286 -0.6199 -0.3339 -0.7101 233 230 234
168.2198 -23.6737 323.9083 -0.4107 -0.3027 -0.8601 239 236 239
148.4143 -24.2147 337.1996 -0.0966 0.4489 -0.8884 255 255 255
142.2621 -25.1452 347.5998 -0.5491 0.2602 -0.7942 69 68 71
129.3797 -25.9251 359.2877 -0.7274 0.0967 -0.6794 106 106 106
106.6224 -30.0077 410.7583 -0.2452 -0.3564 -0.9016 248 215 192
87.9662 -29.8306 402.4604 0.3470 -0.6280 -0.6966 221 189 175
82.0549 -29.5300 402.6221 0.4810 -0.5712 -0.6651 167 129 112
75.4952 -28.6183 393.5726 0.6996 -0.4754 -0.5335 191 155 138
52.0490 -27.2797 374.8556 0.0829 -0.3565 -0.9306 247 212 188
31.0279 -27.5510 371.9161 0.0376 -0.1011 -0.9942 254 219 195
14.2109 -27.2893 372.2594 0.0416 0.1230 -0.9915 252 214 197
-2.5799 -27.3815 374.3771 -0.1313 0.0108 -0.9913 255 220 201
-40.1626 -27.0227 369.4940 0.1582 -0.0604 -0.9856 255 230 215
-76.8515 -26.9962 367.5275 -0.0980 -0.3705 -0.9237 255 255 253
-94.8535 -27.5145 372.9819 -0.4012 -0.3310 -0.8541 255 255 255
-110.3022 -26.4566 370.3867 0.0762 -0.0562 -0.9955 99 94 95
194.7357 -21.8219 304.6289 -0.1791 -0.2429 -0.9534 202 199 200
177.0034 -22.3413 316.4795 -0.3838 -0.2883 -0.8772 199 198 203
170.1990 -22.3927 320.8618 -0.3151 -0.2508 -0.9153 155 154 159
160.0058 -23.4733 330.3987 -0.6182 -0.2482 -0.7458 156 68 87
153.9582 -24.1792 340.4953 -0.0478 0.3210 -0.9459 255 255 255
119.9844 -26.0086 367.1704 -0.2900 -0.4145 -0.8626 173 173 173
110.8468 -28.9133 409.7846 -0.2513 -0.0699 -0.9654 255 226 203
34.9909 -26.6668 372.8382 0.1287 -0.0682 -0.9893 243 206 180
18.1915 -26.6161 373.2607 0.0302 0.0349 -0.9989 255 227 205
1.4358 -26.4646 373.9756 -0.1287 0.0322 -0.9912 255 239 226
-19.3269 -26.5817 373.5242 -0.0996 -0.1675 -0.9808 246 214 200
-55.9548 -26.0186 364.5815 -0.0477 -0.3346 -0.9411 255 239 219
-72.9320 -26.1604 367.4586 -0.1073 -0.3905 -0.9143 255 255 244
-90.4885 -26.3583 370.8468 -0.3643 -0.2946 -0.8835 255 255 255
-145.9203 -28.4008 405.0329 0.1062 0.2848 -0.9527 88 89 98
-1057.6394 -130.5636 1869.5863 -0.3690 0.2079 -0.9059 230 230 230
-1174.7366 -133.3037 1886.5059 -0.2818 -0.3294 -0.9012 228 228 228
186.6411 -21.4280 308.9183 -0.4819 -0.2783 -0.8309 224 221 224
181.2509 -21.8282 316.1562 -0.4925 -0.3130 -0.8121 212 209 213
162.7789 -22.4586 327.1135 -0.6211 -0.2166 -0.7532 164 91 102
158.8911 -23.8227 338.7588 -0.4648 0.0974 -0.8801 126 109 119
144.0887 -23.6934 345.1612 -0.3785 0.2117 -0.9011 132 129 132
131.8006 -24.5384 354.3568 -0.8016 0.1081 -0.5881 151 151 153
123.0005 -24.8255 364.8508 -0.4724 -0.1509 -0.8684 160 162 164
115.3970 -27.9376 409.0516 -0.1814 -0.2976 -0.9373 255 222 199
90.5276 -27.3808 401.3273 0.4273 -0.5546 -0.7141 211 175 158
55.8293 -26.2316 374.2178 0.1751 -0.4699 -0.8652 254 219 195
39.0315 -26.0268 373.5532 0.0934 -0.0590 -0.9939 233 198 178
22.3680 -25.6095 373.4708 -0.0683 -0.0608 -0.9958 255 220 198
-15.5620 -25.9669 373.4937 0.0627 -0.1679 -0.9838 255 227 209
-51.9987 -25.1434 364.4797 0.1907 -0.2990 -0.9350 214 191 183
-68.8736 -25.0978 366.1862 -0.0894 -0.3791 -0.9210 255 255 247
-85.9981 -25.0963 368.8714 -0.2644 -0.2828 -0.9220 255 255 255
-103.8173 -25.5968 375.3447 0.0430 -0.1929 -0.9803 180 161 151
-1088.0736 -133.3920 1903.5426 -0.4114 0.3038 -0.8594 227 227 227
-1152.9639 -128.5686 1869.3868 -0.3007 0.0763 -0.9507 228 228 228
189.9645 -20.7258 308.3321 -0.4237 -0.2735 -0.8635 204 201 205
171.6002 -21.0540 319.3811 -0.2759 -0.1855 -0.9431 240 237 241
147.1738 -22.6508 343.7412 -0.5717 0.2356 -0.7859 152 154 158
134.5155 -23.3824 351.1216 -0.6997 0.0775 -0.7102 151 151 151
122.0971 -26.0796 387.2355 0.4575 -0.1301 -0.8797 170 163 163
96.3022 -27.3139 406.3526 0.4542 -0.3689 -0.8109 226 190 175
59.7891 -25.2769 374.1675 0.1956 -0.5348 -0.8220 255 222 197
42.9752 -24.9113 373.3915 -0.0181 -0.1594 -0.9870 234 196 175
26.4146 -24.8056 372.4818 -0.1352 -0.1193 -0.9836 255 221 199
5.3560 -25.4172 373.6625 -0.0846 0.0634 -0.9944 255 226 211
-11.5084 -25.3374 374.9215 0.0846 -0.0788 -0.9933 255 234 215
-28.4606 -25.5092 375.2573 0.2328 -0.0328 -0.9720 87 96 86
-47.9859 -24.2314 365.7449 0.4134 -0.1821 -0.8922 117 104 99
-100.4622 -24.8114 375.1461 -0.2646 -0.2398 -0.9341 248 223 213
-118.3040 -24.7979 375.6348 -0.4115 0.0380 -0.9106 65 59 66
-1095.1316 -132.2051 1947.6381 -0.1141 0.1906 -0.9750 230 230 230
-1115.2341 -121.6386 1893.7294 -0.1086 0.3307 -0.9375 235 235 235
191.5490 -19.6056 306.1004 -0.3719 -0.2478 -0.8946 219 216 220
182.6291 -20.5299 313.9492 -0.6520 -0.2627 -0.7113 224 221 224
163.6292 -20.9061 324.0711 -0.5131 -0.1551 -0.8442 187 153 151
157.3952 -21.3191 330.9408 -0.3801 -0.0545 -0.9234 164 157 161
138.2270 -22.5054 350.7087 -0.6545 -0.0269 -0.7556 150 150 150
125.5534 -23.4875 362.0657 -0.5398 0.1117 -0.8343 96 98 100
118.5464 -26.4640 406.2775 -0.2890 -0.4323 -0.8541 255 224 199
101.1632 -26.6410 411.2954 0.1103 -0.4165 -0.9024 225 189 172
63.8778 -24.5191 375.4970 0.2199 -0.6114 -0.7602 254 219 195
46.9336 -24.0476 373.7268 -0.0304 -0.2910 -0.9563 243 206 182
9.2889 -24.5325 373.4852 -0.0705 0.1247 -0.9897 253 215 198
-7.8040 -24.5311 375.5453 -0.0043 -0.0142 -0.9999 255 245 226
-24.7213 -24.6656 376.3661 -0.1413 0.0140 -0.9899 184 159 149
-44.7137 -23.8910 369.1142 0.4094 -0.1506 -0.8998 198 164 150
-64.8287 -24.0724 365.1708 -0.0747 -0.3649 -0.9280 255 255 246
-81.7705 -23.9889 367.0083 -0.1630 -0.2866 -0.9441 255 255 255
-1086.7006 -130.1831 2002.7614 -0.3033 0.1945 -0.9328 227 227 227
-1172.3009 -126.7134 1959.6259 -0.1665 0.0077 -0.9860 227 227 227
184.5288 -19.4744 311.0153 -0.5949 -0.3049 -0.7437 236 233 236
174.2429 -20.0819 317.6359 -0.4460 -0.1608 -0.8804 197 194 200
148.4339 -20.9148 340.4147 -0.2975 -0.0352 -0.9541 160 157 160
129.8229 -22.7516 359.8877 -0.7661 0.2079 -0.6081 87 87 89
122.8772 -23.6639 373.6758 0.0242 0.5546 -0.8318 38 34 40
121.6034 -24.9524 402.8137 -0.3524 -0.3030 -0.8854 255 232 211
105.3394 -25.5656 410.5659 -0.1247 -0.3920 -0.9115 255 222 199
67.5372 -23.3690 374.9089 0.2266 -0.6333 -0.7400 244 211 191
29.9678 -23.3988 371.2666 0.0226 -0.1341 -0.9907 250 219 198
13.2531 -23.4890 372.9398 -0.0295 0.1488 -0.9884 253 213 192
-3.5476 -23.6064 375.2931 -0.1243 -0.0348 -0.9916 255 236 216
-40.8285 -23.1397 369.5350 0.2365 -0.1007 -0.9664 240 208 196
-60.6756 -23.0398 364.5304 -0.0955 -0.3234 -0.9414 255 255 248
-77.0520 -22.7462 366.2077 -0.1212 -0.2840 -0.9511 255 255 249
-95.7645 -23.5355 372.1375 -0.3776 -0.2100 -0.9018 255 255 242
-110.9073 -23.4237 375.9033 0.2617 -0.0290 -0.9647 137 131 129
-112.0064 -22.9140 371.7194 -0.0245 0.0167 -0.9996 74 70 67
195.1665 -19.0105 304.9600 -0.2235 -0.1921 -0.9556 208 205 208
177.4221 -19.3142 316.9349 -0.4236 -0.1667 -0.8904 188 185 190
165.0101 -19.5615 321.4956 -0.4237 -0.0968 -0.9006 166 92 101
158.3672 -19.7639 329.2210 -0.5134 -0.1405 -0.8466 128 108 110
152.4477 -20.3176 340.1071 -0.1673 -0.1494 -0.9745 255 255 255
140.2016 -21.0453 346.2973 -0.5611 -0.1728 -0.8095 141 140 143
132.8575 -21.5938 357.4106 -0.8277 0.1799 -0.5315 142 142 144
108.7999 -24.1432 407.8596 -0.1989 -0.3529 -0.9143 255 226 203
80.6153 -24.9718 400.4054 0.4528 -0.6152 -0.6454 181 145 125
72.3509 -23.1428 385.8502 0.6484 -0.4912 -0.5815 215 177 160
50.9145 -22.9648 372.2222 -0.0054 -0.3738 -0.9275 255 229 205
34.2534 -22.8593 372.8553 0.1395 -0.1354 -0.9809 210 174 154
17.2723 -22.6671 373.4019 -0.0560 0.0443 -0.9974 249 212 188
-20.3266 -23.0122 373.2767 -0.1645 -0.0379 -0.9856 242 210 195
-36.9067 -22.1944 369.8743 0.3333 -0.0508 -0.9414 235 237 234
-56.7014 -22.0163 363.7045 -0.0607 -0.2863 -0.9562 255 245 228
-73.6121 -21.9877 365.9976 -0.1753 -0.2891 -0.9411 255 255 247
-91.1077 -22.2442 370.4873 -0.3946 -0.2139 -0.8936 255 255 255
-1107.4004 -116.0481 1951.2394 0.0749 0.5044 -0.8602 227 227 227
186.5790 -18.3777 309.1311 -0.4764 -0.2448 -0.8444 217 214 217
180.7821 -18.5501 316.5421 -0.5516 -0.2209 -0.8043 209 206 211
168.4610 -18.8258 320.4586 -0.4147 -0.0559 -0.9082 166 161 165
161.0152 -18.7008 326.3837 -0.5839 -0.0787 -0.8080 176 91 111
143.7033 -20.1459 345.5988 -0.4536 -0.2543 -0.8541 109 106 109
124.1666 -23.2895 401.0028 -0.4701 -0.3367 -0.8159 255 243 225
89.0561 -22.8544 399.1682 0.6225 -0.3134 -0.7171 161 121 100
83.8544 -23.0601 399.3324 0.3945 -0.5346 -0.7474 181 143 124
54.7114 -22.0373 371.9854 0.0695 -0.4426 -0.8940 249 215 190
38.3264 -22.1058 373.8403 0.0823 -0.2075 -0.9748 206 161 142
21.3442 -21.6133 372.8607 -0.1729 -0.0943 -0.9804 255 225 205
0.5585 -22.2485 373.0862 -0.0948 0.0056 -0.9955 255 231 214
-16.3786 -22.1633 373.8752 0.0554 -0.0135 -0.9984 245 213 199
-33.1858 -21.7389 371.4401 0.5518 0.0722 -0.8308 117 105 91
-53.0818 -21.2686 363.9490 0.1511 -0.2537 -0.9554 245 219 210
-105.1830 -21.7035 375.0020 0.0377 -0.1721 -0.9844 138 118 111
-1101.6619 -113.9873 1945.1346 0.0937 0.5993 -0.7950 228 228 228
-1155.5815 -108.1614 1848.5201 -0.3495 -0.2178 -0.9113 229 229 229
188.3312 -17.2817 307.2412 -0.4613 -0.2083 -0.8625 255 253 255
171.6067 -17.9887 320.3931 -0.3832 0.0487 -0.9224 156 150 155
147.1854 -19.2339 344.3644 -0.5241 -0.2289 -0.8203 130 124 131
135.3979 -20.2318 353.7834 -0.7148 0.1164 -0.6896 104 107 106
128.9074 -21.1624 367.5073 -0.5939 0.6089 -0.5259 155 154 157
112.6490 -22.9115 405.6771 -0.2376 -0.3270 -0.9147 255 233 211
94.7234 -22.8169 404.8866 0.5322 -0.3040 -0.7901 204 167 148
58.5508 -21.0506 371.9688 0.1018 -0.4918 -0.8647 255 236 214
42.0825 -20.9241 372.9557 -0.0630 -0.3117 -0.9481 255 226 208
4.7484 -21.7304 374.1694 0.0316 0.1075 -0.9937 255 222 204
-12.4731 -21.4708 374.7792 0.1361 -0.0235 -0.9904 255 230 212
-30.0169 -21.9654 375.5692 0.2797 -0.2102 -0.9368 137 130 116
-48.9614 -20.2556 363.8744 0.4591 -0.1679 -0.8724 138 123 117
-69.1364 -20.6809 363.4290 -0.1287 -0.2896 -0.9484 255 254 235
-86.3953 -20.8844 366.3621 -0.3224 -0.1836 -0.9286 255 255 255
-101.1998 -20.6928 373.8567 -0.2219 -0.1631 -0.9613 233 215 203
-1079.2687 -108.6939 1945.0055 -0.0420 0.6909 -0.7217 225 225 225
-1162.1864 -106.6158 1914.3700 -0.2622 0.1827 -0.9476 229 229 229
180.8355 -16.9569 311.7135 -0.6646 -0.2819 -0.6920 207 207 209
174.1931 -16.9921 318.8751 -0.4835 0.0056 -0.8753 233 230 234
163.5673 -17.6799 324.6326 -0.5375 0.1128 -0.8357 145 63 80
137.8542 -18.9290 350.8758 -0.6882 -0.1380 -0.7122 141 140 145
130.5332 -19.5130 363.1041 -0.6660 0.5563 -0.4970 139 141 143
123.9321 -20.5184 386.8309 0.8725 -0.2300 -0.4310 255 251 236
116.5898 -21.7979 404.1147 -0.3209 -0.3171 -0.8924 255 239 219
99.5946 -22.0192 408.3398 0.3211 -0.3045 -0.8967 213 174 158
62.3466 -20.0855 371.8887 0.0642 -0.5508 -0.8322 255 225 198
45.9664 -19.9806 371.9734 -0.0866 -0.3621 -0.9281 255 235 216
25.4793 -20.6667 371.9593 -0.2006 -0.2102 -0.9569 248 220 200
8.4764 -20.6069 374.5100 0.0071 0.1780 -0.9840 244 204 186
-8.7045 -20.3165 374.9707 0.0366 -0.0618 -0.9974 255 255 248
-45.9257 -19.8866 368.8070 0.4882 -0.1016 -0.8668 157 136 123
-65.4450 -19.9692 363.8406 -0.0772 -0.2721 -0.9592 255 255 235
-82.3067 -19.9290 366.3552 -0.1970 -0.1609 -0.9671 255 255 243
-135.6729 -20.7948 387.1805 0.0000 0.0000 0.0000 73 74 81
-1086.0656 -106.6738 1990.0021 0.3385 0.3192 -0.8851 225 225 225
189.6342 -16.0993 305.7365 -0.3768 -0.2742 -0.8848 201 198 201
183.2299 -16.0049 310.4576 -0.5993 -0.2563 -0.7584 239 238 241
166.2700 -16.7063 323.8211 -0.4388 0.2429 -0.8651 182 98 108
147.6825 -17.4373 340.6016 -0.4448 -0.3532 -0.8230 156 154 157
120.3436 -20.5891 402.2258 -0.3643 -0.1888 -0.9120 255 245 224
103.9636 -21.0236 408.0891 -0.0505 -0.3904 -0.9193 239 202 190
66.4009 -19.1723 371.7029 0.0985 -0.5753 -0.8120 255 224 199
29.2086 -19.6016 371.5598 -0.0071 -0.3091 -0.9510 230 201 183
12.4434 -19.6887 373.9378 -0.0837 0.1841 -0.9793 244 205 182
-4.6745 -19.6142 375.0653 -0.1217 -0.0691 -0.9902 255 245 222
-24.7922 -19.7216 374.0966 -0.2135 0.0184 -0.9768 215 189 181
-41.6697 -19.2065 369.5682 0.2228 -0.2016 -0.9538 204 170 154
-61.5692 -19.0798 363.5127 -0.0803 -0.2550 -0.9636 255 255 238
-78.4337 -19.0102 366.1518 -0.1480 -0.1163 -0.9821 255 255 235
-96.2253 -19.3742 371.4084 -0.3678 -0.1598 -0.9161 255 255 242
-113.5414 -19.1638 372.0186 0.0541 -0.2931 -0.9545 145 140 142
-1142.5458 -101.5826 1944.8661 0.3084 0.0649 -0.9490 233 233 233
