ply
format ascii 1.0
element vertex 798
property float x
property float y
property float z
property float nx
property float ny
property float nz
property uchar red
property uchar green
property uchar blue
end_header
117.3584 -4.2192 344.4763 -0.4862 -0.3442 -0.8032 40 44 86
104.2289 -4.6219 349.2964 -0.2711 0.0964 -0.9577 23 26 59
86.6192 -4.6338 376.0885 -0.1820 0.0773 -0.9803 219 188 173
48.0433 -4.1780 334.5626 0.1314 0.3501 -0.9275 210 174 157
33.2927 -4.1182 336.9688 0.1634 0.3564 -0.9199 221 180 167
18.2397 -3.7251 335.4261 -0.1637 0.5871 -0.7928 216 167 175
2.8184 -3.7737 337.4510 -0.4852 0.6299 -0.6064 200 174 162
-31.6365 -4.0827 337.2841 -0.1506 0.7062 -0.6919 255 255 244
-64.5106 -3.8535 332.5649 0.6840 0.3461 -0.6421 186 165 154
-67.0135 -4.1206 327.4295 0.5785 0.4207 -0.6988 214 193 182
-81.8167 -3.8598 326.7794 -0.0777 0.4087 -0.9093 255 238 221
167.5397 -2.8955 289.8454 -0.3206 0.0657 -0.9449 239 236 239
156.9676 -3.1454 294.3606 -0.4083 -0.2034 -0.8899 151 147 153
145.0704 -3.1343 298.3910 -0.2395 -0.2055 -0.9489 103 100 105
120.0332 -3.1141 342.1289 -0.4537 -0.4705 -0.7568 90 96 130
107.5389 -3.6454 348.3773 -0.1928 -0.0277 -0.9809 24 23 57
90.4346 -3.6525 375.7992 -0.2114 0.1049 -0.9718 226 195 180
74.5258 -3.6523 379.2995 0.1741 0.3244 -0.9298 144 104 88
51.6515 -3.4109 335.9044 0.4223 0.3350 -0.8423 211 177 159
36.8762 -3.3277 337.2266 -0.0809 0.3307 -0.9403 229 191 174
-15.7470 -3.6142 331.9821 -0.4134 0.8728 -0.2596 239 206 199
-27.6932 -3.2611 338.3123 0.0080 0.7206 -0.6933 227 199 186
-43.4961 -3.2814 342.0632 0.5174 0.1109 -0.8485 215 193 189
-61.5152 -3.2670 336.0611 0.5947 0.1747 -0.7847 178 146 129
-96.3292 -3.4689 327.0912 -0.1112 0.3999 -0.9098 255 231 216
-112.3326 -3.5084 330.1064 -0.3743 0.3215 -0.8698 248 218 208
175.4757 -2.2718 282.3241 -0.5703 0.2768 -0.7734 189 124 119
159.3430 -2.2573 293.3220 -0.4198 -0.0638 -0.9054 128 127 134
148.9395 -2.5487 297.6870 -0.0990 0.0152 -0.9950 73 70 71
125.3148 -2.7151 324.1038 -0.5849 -0.3086 -0.7501 32 38 47
110.9265 -2.7089 347.1011 -0.0907 -0.1897 -0.9776 31 35 65
96.7108 -2.7533 354.8368 -0.7884 0.0685 -0.6113 255 227 208
94.3800 -2.7417 375.4432 -0.3656 0.0715 -0.9280 236 204 192
78.5094 -2.7602 379.5945 -0.0846 0.2464 -0.9655 178 139 123
66.4955 -2.8826 361.8560 0.8447 0.3772 -0.3797 149 111 92
60.8902 -2.7979 349.7096 0.8305 0.3295 -0.4491 134 101 80
55.5830 -2.7801 338.3021 0.6119 0.3904 -0.6879 189 159 144
40.5109 -2.4721 337.3647 -0.2138 0.3525 -0.9111 240 199 183
21.5904 -2.7758 333.5652 -0.1438 0.5975 -0.7889 229 186 185
6.4005 -2.7150 335.9109 -0.3473 0.6658 -0.6603 208 181 165
-12.1019 -2.4124 329.1884 0.2543 0.8363 -0.4858 244 212 200
-24.3362 -2.7407 340.4706 0.1508 0.6901 -0.7078 229 195 182
-39.9217 -2.5443 343.0694 -0.2216 0.3556 -0.9080 219 193 186
-45.9514 -2.9630 336.9181 0.5509 0.0167 -0.8344 159 139 136
-58.5749 -2.7198 338.2246 0.3426 0.0490 -0.9382 189 159 144
-77.9718 -2.9127 326.5418 -0.0225 0.4108 -0.9115 255 228 213
-92.8700 -2.7674 327.6959 -0.0843 0.4341 -0.8969 255 220 209
-108.7138 -2.7056 329.4315 -0.2468 0.3457 -0.9053 255 228 211
173.6260 -1.4748 289.6189 -0.2384 -0.0634 -0.9691 203 200 203
169.0287 -1.9068 288.5121 -0.1949 -0.0287 -0.9804 203 198 202
150.7505 -1.5850 296.7049 -0.0347 0.2109 -0.9769 184 182 185
114.7633 -1.9100 347.7618 -0.2999 -0.3811 -0.8745 83 81 107
100.3431 -1.9503 351.8617 -0.5483 -0.2861 -0.7858 37 52 86
25.2801 -2.0945 334.6671 0.1699 0.6016 -0.7806 206 160 148
10.0122 -1.8162 335.0372 -0.0329 0.6949 -0.7184 230 199 189
-5.0438 -2.2195 342.7747 0.1752 0.7320 -0.6584 177 130 114
-8.7406 -1.9089 333.9947 0.5502 0.7220 -0.4196 226 194 182
-20.7257 -1.9487 341.7196 0.0583 0.6250 -0.7785 215 176 162
-54.8113 -1.7671 336.0986 -0.2165 -0.3883 -0.8957 202 172 159
-74.7817 -2.1882 326.6678 0.0955 0.4092 -0.9074 253 223 208
-89.6264 -2.0017 327.8760 -0.0916 0.4295 -0.8984 255 226 211
-104.9964 -1.8383 329.0758 -0.1454 0.4024 -0.9038 255 236 223
-122.1386 -2.1253 334.7166 -0.1927 0.3990 -0.8965 145 141 140
181.2751 -0.9118 281.0270 -0.1703 0.2317 -0.9578 0 0 0
176.1743 -1.2295 280.9661 -0.4212 0.2406 -0.8745 159 106 142
161.3911 -1.3616 291.1409 -0.3218 0.1159 -0.9397 121 116 120
124.8890 -1.0758 315.2289 -0.4178 -0.2019 -0.8858 52 53 62
104.3076 -1.1657 351.9532 -0.2528 -0.1296 -0.9588 41 47 77
97.2166 -1.4823 369.1413 -0.6503 -0.1371 -0.7472 241 212 197
81.9156 -1.6523 378.0358 -0.2674 0.1718 -0.9482 205 171 155
43.5942 -1.3768 335.1565 -0.1522 0.4127 -0.8981 248 215 194
29.1371 -1.4480 337.3721 0.2292 0.5315 -0.8154 190 149 131
13.9239 -1.2477 337.7032 0.0409 0.6983 -0.7147 174 116 110
-1.5859 -1.6035 344.9146 -0.2333 0.5812 -0.7796 198 163 154
-17.0787 -1.1505 342.2330 -0.0974 0.6535 -0.7506 201 158 141
-36.2005 -1.5661 341.5580 -0.3316 0.4526 -0.8278 234 208 201
-71.5461 -1.4611 327.3411 0.3085 0.4450 -0.8407 241 211 199
-85.8631 -1.1343 327.5149 -0.0997 0.3947 -0.9134 255 224 209
-101.1987 -0.9518 329.0591 -0.1267 0.4274 -0.8952 255 229 214
-118.8740 -1.3064 335.1349 -0.2952 0.3985 -0.8683 191 170 156
174.5335 -0.4288 286.2320 -0.3459 -0.0788 -0.9350 224 222 222
164.2922 -0.6047 290.6686 -0.2327 0.2015 -0.9514 158 155 158
153.2777 -0.7766 295.9692 -0.3374 0.1720 -0.9255 90 88 88
136.4249 -0.8659 308.6450 -0.4902 0.2020 -0.8479 104 100 101
129.4482 -0.6195 315.6210 -0.3476 -0.2081 -0.9143 126 123 127
117.8412 -0.8833 322.4365 -0.3591 -0.5548 -0.7505 159 161 165
85.9056 -0.7205 377.3915 -0.1747 0.1749 -0.9690 219 190 175
47.4063 -0.7506 336.4559 0.0896 0.4814 -0.8719 235 202 183
32.6843 -0.6812 338.1860 0.0999 0.4633 -0.8806 218 177 161
17.6162 -0.5069 338.9820 -0.1365 0.6673 -0.7322 180 125 130
2.1219 -0.5709 342.4989 -0.4312 0.5531 -0.7129 220 190 180
-13.4282 -0.6701 343.0901 -0.0620 0.7000 -0.7114 248 218 206
-32.5365 -0.7119 341.2738 -0.1327 0.6055 -0.7847 255 232 224
-49.5828 -0.3928 331.8124 -0.0492 -0.6790 -0.7325 181 171 165
-65.7666 -0.4089 333.1903 0.6270 0.3227 -0.7091 156 139 131
-68.6826 -0.8755 329.3584 0.5824 0.4182 -0.6971 212 190 181
-82.4492 -0.2938 327.3445 -0.0768 0.3923 -0.9166 255 237 222
-98.0148 -0.2521 329.5170 -0.0924 0.4543 -0.8861 255 233 218
-114.5743 -0.3334 333.2739 -0.4022 0.4210 -0.8130 232 207 195
166.8270 0.1475 289.6779 -0.2281 0.2105 -0.9506 195 190 194
151.2305 0.0612 300.7141 0.0391 0.2533 -0.9666 150 145 147
139.5741 -0.0378 308.1777 -0.6849 0.1180 -0.7190 30 26 32
131.6863 0.3911 314.1258 -0.5295 -0.1096 -0.8412 165 161 167
120.2490 0.0962 322.2311 -0.3673 -0.4311 -0.8242 135 140 141
106.2443 0.1497 348.3125 -0.1880 -0.5192 -0.8337 21 29 51
89.8091 0.2492 376.6217 -0.1957 0.1909 -0.9619 223 192 175
73.7781 0.2598 380.5145 0.0215 0.3297 -0.9439 139 101 84
51.1066 0.0326 337.2251 0.4132 0.4859 -0.7702 214 182 166
36.2789 0.1060 338.7239 -0.0828 0.4079 -0.9093 232 194 177
5.8829 0.3590 340.7585 -0.3744 0.6253 -0.6847 198 170 157
-9.9025 0.1111 345.2775 0.0669 0.4610 -0.8849 229 195 184
-28.8614 0.2012 340.7806 0.0894 0.5729 -0.8147 248 218 210
-44.3219 0.3749 342.4870 0.4610 0.2821 -0.8414 222 200 194
-61.7858 0.4132 335.5392 0.4736 0.1579 -0.8665 200 171 154
-78.9033 0.5071 327.4238 -0.0409 0.4065 -0.9127 255 238 225
175.7499 0.5460 284.3633 -0.3541 -0.0105 -0.9351 164 159 163
159.5803 0.6791 293.6322 -0.3022 0.3716 -0.8778 101 98 101
141.6655 0.9543 303.7162 -0.8256 -0.0696 -0.5600 64 60 56
123.4985 0.9095 319.3856 -0.3873 -0.0820 -0.9183 168 170 172
96.6096 0.7521 357.1202 -0.7931 -0.0313 -0.6083 219 193 186
93.2004 1.3236 375.0920 -0.3589 0.1780 -0.9163 232 202 189
77.7926 1.2105 379.8498 -0.1845 0.2293 -0.9557 191 155 138
66.1323 0.6409 367.1220 0.8439 0.3803 -0.3784 159 124 101
60.6010 0.6930 350.8235 0.8098 0.3367 -0.4805 158 125 106
55.0872 0.6428 341.4739 0.5860 0.5289 -0.6139 197 166 149
40.0494 0.9085 338.5340 -0.1713 0.4449 -0.8790 241 206 186
20.8896 0.6091 336.8718 -0.1625 0.6531 -0.7397 229 190 187
-25.1291 1.0336 341.0378 0.2080 0.5150 -0.8316 237 207 190
-40.9989 1.0190 343.7264 0.0850 0.2930 -0.9523 216 190 183
-59.0258 1.0335 337.4667 0.1045 -0.0567 -0.9929 204 174 163
-94.6027 0.5550 329.8663 -0.0687 0.4783 -0.8755 255 226 210
-110.0843 0.7237 331.0665 -0.3214 0.4431 -0.8369 252 222 207
176.8361 1.5069 282.2328 -0.3664 0.1742 -0.9140 187 177 180
174.4471 1.3569 291.5023 0.0000 0.0000 0.0000 163 163 161
168.2820 1.1242 288.1051 -0.2062 -0.0227 -0.9782 86 81 85
134.0954 1.3418 311.9807 -0.5788 -0.0461 -0.8142 104 103 106
115.0601 1.3788 326.1463 -0.5196 -0.5062 -0.6883 109 113 116
108.8880 1.1413 342.7433 -0.0451 -0.5948 -0.8026 126 125 130
97.6393 2.0744 375.0659 -0.6861 0.0233 -0.7271 233 203 191
43.4417 1.8271 338.3448 -0.0886 0.5121 -0.8543 245 209 189
24.5217 1.3415 337.8974 0.0328 0.6568 -0.7534 218 180 166
9.5637 1.3974 339.1174 -0.1122 0.6772 -0.7272 234 204 192
-2.5102 1.9914 346.0775 -0.1727 0.3742 -0.9111 228 193 182
-5.9848 1.2225 345.6315 0.0675 0.4426 -0.8942 223 189 178
-21.7091 1.5195 344.7685 0.1773 0.4562 -0.8721 229 195 182
-37.4814 1.8309 344.1598 -0.1270 0.3516 -0.9275 216 185 177
-75.4718 1.3152 327.5552 0.0591 0.4414 -0.8954 255 228 213
-90.9146 1.4015 329.4176 -0.0920 0.4719 -0.8768 255 234 219
-106.5817 1.5161 331.1302 -0.1460 0.4544 -0.8787 255 235 220
-123.7207 1.3664 336.3724 -0.1188 0.4237 -0.8980 130 130 132
159.6279 1.8763 291.6729 -0.2929 0.2760 -0.9155 129 129 129
136.6544 2.2608 310.0010 -0.4620 0.0417 -0.8859 128 127 132
124.6995 2.1092 315.9276 -0.3192 0.0728 -0.9449 90 89 94
97.5503 2.2591 348.2410 -0.3414 -0.5727 -0.7453 32 35 73
81.1841 2.2825 378.3023 -0.2790 0.1804 -0.9432 207 175 159
28.3867 2.0069 339.2166 0.1090 0.5903 -0.7998 201 161 145
13.0066 2.1693 340.3604 0.0255 0.6948 -0.7188 226 196 184
-18.0295 2.3720 344.9999 0.1052 0.3654 -0.9249 227 188 174
-72.3523 2.0073 328.5210 0.2622 0.4504 -0.8535 243 215 206
-87.2728 2.2081 329.4308 -0.1176 0.4679 -0.8759 255 222 206
-102.9418 2.3382 331.2757 -0.1026 0.4560 -0.8841 255 232 216
-120.0079 2.2132 336.8858 -0.1963 0.4140 -0.8889 174 160 151
179.8813 2.1568 281.1339 -0.1228 0.2166 -0.9685 192 161 160
168.1484 2.2925 286.5368 -0.2939 -0.0677 -0.9534 156 149 151
163.2570 2.4912 291.9167 -0.1631 0.5495 -0.8195 107 100 104
127.2476 3.0380 315.0713 -0.2522 0.2920 -0.9226 99 96 102
116.6076 2.6076 322.0345 -0.4338 -0.4265 -0.7937 145 147 149
107.7805 3.1022 329.0742 -0.4658 0.1818 -0.8660 149 149 151
85.3994 3.1588 378.0747 -0.1954 0.1696 -0.9659 215 183 167
46.8287 2.7265 338.1503 0.1096 0.5839 -0.8044 233 197 184
32.0122 2.8647 339.8008 0.0346 0.5225 -0.8519 228 189 173
16.6347 2.9205 341.1279 -0.0887 0.6682 -0.7387 191 136 134
1.2572 2.8899 345.0481 -0.3267 0.3618 -0.8731 254 222 210
-14.3498 3.2389 345.5497 0.0408 0.3640 -0.9305 221 182 168
-33.4800 2.8735 342.8476 -0.1453 0.4613 -0.8752 231 200 192
-69.3436 2.6890 330.0070 0.5118 0.4183 -0.7504 196 178 173
-83.8460 3.0345 329.2061 -0.1064 0.4938 -0.8630 255 226 212
-99.2418 3.1925 331.1858 -0.0745 0.4549 -0.8874 255 226 211
-116.5504 3.0026 336.9782 -0.3555 0.3963 -0.8465 216 190 181
172.2184 2.8110 284.5157 -0.2589 -0.0952 -0.9612 191 189 188
164.9810 3.3854 289.6268 -0.1879 0.3175 -0.9295 150 145 147
138.1999 3.2912 307.9914 -0.5162 0.1356 -0.8457 83 85 89
118.8904 3.5889 320.6878 -0.3538 -0.0371 -0.9346 125 127 131
88.9346 4.2046 377.7429 -0.1979 0.2085 -0.9578 219 190 175
73.1264 4.1864 381.6652 0.0582 0.3636 -0.9297 145 107 90
60.8862 4.0912 353.4649 0.7532 0.4843 -0.4452 142 109 88
55.0050 3.9793 344.3060 0.6209 0.5398 -0.5684 188 155 137
50.7613 3.4226 339.8423 0.4176 0.5631 -0.7132 215 183 167
35.6944 3.6144 340.2549 -0.0606 0.4894 -0.8699 231 193 176
20.5464 3.7898 341.0498 -0.1688 0.6322 -0.7562 204 166 161
4.9934 4.0057 343.0893 -0.3239 0.4787 -0.8160 226 201 189
-10.8681 3.9261 346.8893 0.0481 0.2696 -0.9618 227 188 176
-29.8788 3.6554 342.7986 0.0040 0.5257 -0.8507 250 222 213
-63.0607 3.8762 336.3549 0.3628 0.2107 -0.9078 171 142 129
-66.2342 3.1945 334.9052 0.5419 0.3488 -0.7646 126 118 114
-80.4673 3.7985 329.5212 -0.0698 0.5073 -0.8589 255 225 213
176.1157 3.3793 285.0039 -0.3279 -0.0459 -0.9436 170 164 168
168.2939 4.0531 289.2086 -0.1336 0.3886 -0.9117 21 19 20
160.2729 3.5916 296.1915 -0.0082 -0.0640 -0.9979 0 0 2
152.4144 4.1765 301.9866 0.4659 -0.2338 -0.8534 31 26 32
129.6915 3.9864 312.5067 -0.5459 0.3189 -0.7748 106 105 110
122.2055 4.4126 319.0293 -0.3639 0.1772 -0.9144 156 155 160
110.5570 4.0635 327.2155 -0.5340 0.0456 -0.8443 176 175 180
102.2428 4.5137 335.2496 -0.6308 -0.1874 -0.7530 106 103 111
92.6254 5.1314 377.3078 -0.2412 0.2077 -0.9480 226 194 182
77.2617 5.1073 382.0704 -0.3623 0.1714 -0.9161 191 156 136
39.1282 4.5756 339.5465 -0.0937 0.5139 -0.8527 231 195 175
24.0725 4.6219 341.0081 -0.0788 0.6291 -0.7733 230 193 180
8.7256 4.7654 343.1999 -0.1174 0.5698 -0.8134 232 207 193
-6.9839 4.8986 346.5887 0.0291 0.1259 -0.9916 227 188 174
-26.2286 4.3575 344.7245 0.1145 0.4613 -0.8798 255 235 225
-42.0864 4.6979 344.0468 0.2536 0.3013 -0.9192 219 193 186
-44.8430 4.1165 343.0976 0.4427 0.3380 -0.8305 194 177 171
-59.6450 4.7161 336.3669 0.0315 0.0701 -0.9970 226 198 185
-96.0812 3.9414 331.5083 -0.0592 0.4767 -0.8771 255 231 215
-111.7048 4.0997 333.7161 -0.3511 0.4266 -0.8335 240 209 202
-126.0051 4.7141 339.0762 -0.0663 0.4323 -0.8993 117 120 130
177.7868 4.2456 283.3313 -0.4384 0.0962 -0.8936 165 160 164
140.2467 4.2502 303.5954 -0.6919 0.1127 -0.7132 98 97 100
132.9075 4.7392 311.4416 -0.5985 0.3231 -0.7330 118 117 120
42.7802 5.3561 340.1342 -0.0501 0.5570 -0.8290 234 196 177
27.8479 5.4463 341.8651 0.0128 0.5808 -0.8139 200 157 137
-3.1847 5.5340 347.2955 -0.0326 0.1900 -0.9812 240 208 196
-22.5545 5.2019 345.4611 0.1166 0.3459 -0.9310 250 218 204
-38.3381 5.4608 345.1020 0.0464 0.3260 -0.9442 222 187 179
-76.9588 4.5915 329.7882 0.0038 0.5015 -0.8651 255 231 217
-92.3515 4.7930 331.3832 -0.0724 0.5180 -0.8523 255 238 224
-107.9223 4.9371 333.3301 -0.2130 0.4921 -0.8441 241 213 200
169.1601 5.0521 285.8955 -0.4420 0.3184 -0.8386 102 99 102
166.9825 4.9527 298.2519 0.1756 -0.0213 -0.9842 155 149 153
154.3976 5.0822 299.4369 -0.0748 -0.3509 -0.9334 55 48 48
141.5110 5.2500 301.1678 -0.8602 0.2710 -0.4319 81 82 89
135.5340 5.5927 310.1471 -0.5034 0.3313 -0.7980 60 57 62
125.6354 5.1543 319.1830 -0.3085 0.3312 -0.8917 125 122 127
112.7980 5.1818 324.8232 -0.6052 0.1119 -0.7882 132 134 136
104.0776 5.7037 331.9443 -0.6477 0.1366 -0.7495 97 99 103
80.0233 6.3451 378.6655 -0.3101 0.1536 -0.9382 211 180 161
46.4655 6.0803 341.3978 0.1426 0.6302 -0.7632 232 194 177
12.3277 5.6189 342.9987 0.0187 0.6055 -0.7957 230 203 189
-18.9376 6.0104 345.7042 0.1009 0.1998 -0.9746 230 196 183
-56.2277 5.5449 336.2947 -0.3344 0.2062 -0.9196 228 199 186
-73.7790 5.3601 330.8043 0.1567 0.4716 -0.8678 232 208 198
-88.6045 5.6119 331.6253 -0.1009 0.5543 -0.8262 255 226 211
-104.3835 5.7788 333.1023 -0.1093 0.5183 -0.8482 255 238 224
-121.2212 5.7394 338.6501 -0.1056 0.3788 -0.9194 147 138 139
171.8547 5.7623 285.5847 -0.1834 0.1414 -0.9728 99 97 100
168.1649 5.9331 294.3025 0.1798 0.1138 -0.9771 142 136 141
129.2509 5.9056 319.4395 -0.3101 0.5594 -0.7687 38 14 22
84.6982 7.1028 379.4489 -0.1802 0.1561 -0.9712 218 187 170
50.4722 6.8212 343.0337 0.4086 0.6165 -0.6730 213 179 161
31.6270 6.2480 342.2674 0.0053 0.5477 -0.8366 227 188 172
16.0391 6.3855 344.5437 -0.0448 0.5918 -0.8049 205 169 154
0.4955 6.5650 346.5312 -0.2052 0.2295 -0.9514 244 210 197
-15.1906 6.8588 346.1779 0.1098 0.1180 -0.9869 241 206 195
-34.5487 6.3832 345.3612 -0.0461 0.4001 -0.9153 228 198 190
-48.8575 6.9320 341.3384 0.6640 0.3762 -0.6462 94 127 118
-70.7330 6.0692 332.2224 0.4316 0.4283 -0.7939 199 184 175
-85.0398 6.4648 331.4458 -0.1082 0.5781 -0.8088 250 221 206
-100.5164 6.6269 332.9646 -0.0847 0.5310 -0.8431 251 218 209
-117.9274 6.5081 338.5248 -0.3105 0.3633 -0.8784 203 185 170
154.6889 6.2105 294.9087 -0.3334 -0.4398 -0.8339 18 14 13
142.6558 6.3025 296.9478 -0.8678 0.1762 -0.4646 155 152 156
137.7984 6.4803 308.6147 -0.5534 0.4306 -0.7130 153 155 157
132.5247 6.6870 318.8943 -0.4699 0.5849 -0.6612 147 132 141
118.5715 6.8627 321.6680 -0.4697 0.2309 -0.8521 118 120 122
110.7466 7.3599 328.5010 -0.6144 0.1575 -0.7731 109 112 118
106.3177 6.7385 329.4749 -0.5518 0.2109 -0.8068 178 178 180
98.0979 7.2076 337.4766 -0.3066 -0.1450 -0.9407 59 60 67
94.8442 8.5897 380.4808 0.0000 0.0000 0.0000 200 170 162
87.9027 8.2420 377.6612 -0.1437 0.1425 -0.9793 225 195 180
72.4777 8.1575 383.6530 -0.1483 0.3241 -0.9343 139 99 78
60.2973 7.6354 358.8722 0.6545 0.6037 -0.4551 145 112 96
54.4524 7.4581 347.0643 0.5893 0.6398 -0.4933 179 153 132
35.1306 7.0775 342.7923 -0.0375 0.5688 -0.8216 225 187 170
19.8329 7.2261 344.4610 -0.1452 0.5588 -0.8165 156 111 108
4.1655 7.5074 344.8954 -0.2099 0.3392 -0.9170 245 215 202
-30.9377 7.1697 345.3340 -0.0030 0.4356 -0.9001 239 209 198
-46.6253 7.5660 343.6273 0.3670 0.3013 -0.8801 61 65 68
-64.1805 7.4560 336.6854 0.2896 0.3275 -0.8994 184 155 151
-67.3624 6.8052 335.3082 0.4959 0.3815 -0.7801 81 76 78
-81.6867 7.2449 331.7520 -0.0928 0.5804 -0.8090 255 231 218
-97.0886 7.4301 333.0408 -0.0678 0.5533 -0.8302 255 225 213
-113.6029 7.4875 337.3296 -0.3493 0.4717 -0.8096 233 209 201
174.2783 6.5154 285.0501 -0.2062 -0.0250 -0.9782 85 79 83
170.0295 6.8044 292.8902 0.0816 0.1060 -0.9910 28 28 30
157.2216 7.0010 294.4079 -0.3213 -0.5842 -0.7453 17 14 15
145.4998 7.0719 295.4645 -0.0471 0.2275 -0.9726 138 133 135
140.6474 7.2604 307.9889 -0.5235 0.5522 -0.6489 168 170 172
122.4070 7.5916 320.8075 -0.3429 0.3331 -0.8784 56 54 57
101.6301 8.0271 336.7055 -0.5767 -0.0293 -0.8165 107 109 110
88.9506 7.8287 345.0210 -0.6691 0.1756 -0.7221 47 45 43
76.2349 9.1667 382.7614 -0.4063 0.2178 -0.8874 195 162 142
38.8626 7.9107 342.9409 -0.0442 0.6100 -0.7911 233 198 178
23.3152 8.1703 343.2898 -0.1300 0.5584 -0.8193 236 204 190
7.9637 8.3065 345.2050 -0.0853 0.4405 -0.8937 221 196 181
-11.5700 7.8885 346.2566 0.0348 0.0679 -0.9971 233 197 184
-27.2722 8.0202 345.6356 0.0261 0.3884 -0.9211 255 230 216
-42.7548 8.4035 344.5241 0.2500 0.3091 -0.9176 193 167 157
-60.9474 8.2652 337.0807 -0.0314 0.3186 -0.9474 223 197 186
-78.3268 8.0078 332.0726 -0.0526 0.5653 -0.8232 247 216 209
175.5574 7.4034 282.7442 -0.3333 -0.0410 -0.9419 39 31 38
174.0353 7.3846 293.2092 -0.4922 0.5770 -0.6518 6 4 5
149.6111 7.6623 297.4088 0.1019 -0.1458 -0.9841 137 134 135
133.4300 7.8230 313.2894 -0.5726 0.5580 -0.6006 117 112 118
113.1594 8.3980 325.7892 -0.5847 0.1692 -0.7934 65 66 70
91.6065 8.8656 342.2347 -0.5039 -0.2686 -0.8209 166 168 170
42.4180 8.7835 342.8764 0.0230 0.6529 -0.7571 235 200 182
27.1512 9.0107 343.5764 -0.0295 0.5646 -0.8248 234 198 183
11.4066 9.1951 345.4881 0.0091 0.4499 -0.8930 228 199 184
-7.8793 8.5935 346.1639 0.0370 0.0580 -0.9976 242 206 193
-23.6219 8.8585 345.9460 -0.0038 0.2705 -0.9627 255 228 211
-39.0881 9.2121 345.7290 0.1360 0.2897 -0.9474 224 197 186
-93.7662 8.2165 334.1521 -0.0536 0.5826 -0.8110 255 230 217
-109.5442 8.3847 335.8216 -0.2296 0.5616 -0.7950 250 223 209
-1185.9993 51.5716 1922.0317 0.2912 0.2929 -0.9107 225 227 231
158.0253 7.9913 289.5189 -0.0382 -0.5635 -0.8253 56 53 59
152.6111 8.3839 296.4449 -0.2443 -0.3336 -0.9105 130 126 132
142.3732 8.2096 304.1463 -0.5530 0.6140 -0.5633 118 113 119
136.2675 8.6598 312.3432 -0.6026 0.4993 -0.6225 166 166 170
125.3395 8.4883 319.5649 -0.2125 0.2998 -0.9300 116 73 76
103.6680 9.1425 332.9993 -0.6492 0.1521 -0.7453 139 141 145
79.4089 10.2795 380.5106 -0.3584 0.1478 -0.9218 201 168 150
46.0771 9.5616 344.1297 0.1961 0.6849 -0.7018 216 180 160
30.6921 9.8839 343.8822 0.0057 0.5710 -0.8210 227 188 172
15.3792 9.9777 346.5375 -0.0233 0.4273 -0.9038 217 188 170
-3.9318 9.3661 347.0892 0.0331 0.1200 -0.9922 242 203 191
-19.8330 9.7465 345.7390 0.0097 0.2052 -0.9787 252 221 204
-35.6578 9.9360 347.3865 0.0366 0.2946 -0.9549 233 202 195
-57.0620 9.1055 336.4454 -0.1297 0.3468 -0.9289 236 210 200
-74.7634 8.8209 332.2569 0.0629 0.5368 -0.8413 236 213 203
-90.4776 8.9677 334.8809 -0.0537 0.6177 -0.7846 244 214 201
-105.7774 9.2505 335.5636 -0.1197 0.6232 -0.7728 255 235 223
174.0637 8.4458 287.3835 0.0696 -0.2913 -0.9541 29 24 28
128.3161 9.3043 319.9670 -0.2631 0.3119 -0.9130 130 46 58
115.2331 9.3629 325.1624 -0.4148 0.2837 -0.8645 214 214 216
107.4033 9.8905 333.1635 -0.6440 0.1386 -0.7523 9 15 20
85.3064 10.4135 348.1141 -0.3427 0.3653 -0.8655 42 36 42
67.9272 11.2124 385.1883 -0.0116 0.3803 -0.9248 130 94 76
55.0452 10.7799 354.8391 0.5842 0.7031 -0.4054 179 151 129
50.1501 10.2968 346.6774 0.4268 0.7030 -0.5689 214 181 160
34.3879 10.6748 344.5127 -0.0008 0.5926 -0.8055 229 191 174
-0.3089 10.2317 347.1453 -0.0848 0.1785 -0.9803 246 212 196
-16.1133 10.5103 346.6430 0.0239 0.1839 -0.9826 243 211 197
-31.9932 10.7289 347.9248 -0.0030 0.2891 -0.9573 237 204 195
-50.0161 10.4976 343.3958 0.5897 0.4560 -0.6666 80 141 118
-68.4730 10.3311 335.1972 0.3809 0.4667 -0.7982 130 128 124
-71.2748 9.6566 332.5011 0.2996 0.5058 -0.8090 176 164 156
-86.9265 9.7886 334.9331 -0.0730 0.6464 -0.7595 255 227 214
-102.3150 10.0583 335.7970 -0.1074 0.6318 -0.7677 249 216 206
165.1354 9.2896 291.3636 0.0165 -0.6661 -0.7457 2 0 4
153.0405 9.4223 293.1245 -0.4563 -0.1537 -0.8764 85 85 83
141.9201 9.4190 298.3009 -0.8389 0.2993 -0.4546 161 158 161
138.1813 9.5928 310.2496 -0.5336 0.4173 -0.7357 215 215 217
132.0793 10.0118 319.9543 -0.4686 0.3261 -0.8210 170 97 99
97.6763 10.7090 338.2879 -0.3626 -0.0744 -0.9289 164 165 169
71.9448 12.1577 385.0626 -0.2675 0.2967 -0.9168 170 125 106
38.3266 11.4362 345.7639 -0.0076 0.6183 -0.7859 229 193 175
19.1151 10.7808 347.1335 -0.1077 0.4017 -0.9094 204 161 148
3.3285 11.1313 346.6515 -0.1085 0.2586 -0.9599 242 206 191
-12.4966 11.3540 347.0389 -0.0120 0.1665 -0.9860 238 206 192
-47.4314 11.2149 344.8853 0.3478 0.4134 -0.8415 78 104 97
-51.5894 10.4071 334.4167 0.3830 0.2569 -0.8873 199 198 192
-65.4260 10.9802 338.5318 0.2285 0.4230 -0.8768 167 144 131
-83.5797 10.6010 335.1122 -0.1050 0.6534 -0.7497 252 225 211
-98.8795 10.8515 336.0950 -0.0852 0.6370 -0.7661 233 191 184
155.9234 10.1647 292.0043 -0.4799 0.0601 -0.8753 134 131 135
145.5508 10.0908 296.8101 -0.0412 0.2677 -0.9626 137 137 139
141.6624 10.3265 310.0527 -0.3884 0.4631 -0.7967 154 152 160
134.8587 10.8773 319.0352 -0.5091 0.3713 -0.7765 218 215 221
109.1388 10.9729 329.2622 -0.5767 0.2799 -0.7675 119 125 127
101.5517 11.4889 338.6796 -0.5476 -0.0553 -0.8349 76 80 83
87.5399 11.5554 345.1211 -0.5248 0.3523 -0.7749 157 157 157
75.6321 13.1688 383.8778 -0.4486 0.1173 -0.8860 204 168 151
22.7676 11.6844 346.1381 -0.0840 0.4512 -0.8885 228 194 180
7.1481 11.9288 347.2736 -0.0340 0.3221 -0.9461 240 210 197
-28.3515 11.6286 347.3486 -0.0073 0.3018 -0.9534 252 221 211
-43.3453 12.0550 345.4706 0.2180 0.4211 -0.8804 207 184 176
-61.8199 11.8100 338.8296 0.0026 0.4596 -0.8881 229 203 191
-79.6088 11.4850 334.6967 -0.0984 0.6547 -0.7494 253 227 220
-95.1229 11.7105 336.1898 -0.0191 0.6617 -0.7495 248 220 209
-129.0179 11.8704 346.3936 -0.1733 0.4597 -0.8710 126 128 141
178.1455 10.0387 285.8445 -0.0634 -0.2648 -0.9622 31 31 35
164.2884 10.4085 286.6507 -0.1220 -0.6065 -0.7857 21 21 23
144.8420 11.0910 310.0077 -0.1077 0.3426 -0.9333 134 131 139
125.5241 11.7455 321.6136 -0.2842 0.2200 -0.9332 177 172 171
112.3283 11.8285 326.5955 -0.5036 0.2956 -0.8118 152 154 158
90.8339 12.4736 342.9618 -0.6404 0.3801 -0.6674 95 99 102
41.9606 12.3107 346.0962 0.1035 0.6862 -0.7200 227 189 170
26.4011 12.5244 346.7848 0.0161 0.5291 -0.8484 225 190 177
10.9009 12.7584 347.1238 0.0333 0.3220 -0.9461 194 169 154
-8.5685 12.2902 346.4113 0.0445 0.1842 -0.9819 247 212 201
-24.6033 12.5031 347.3416 -0.0601 0.2783 -0.9586 255 230 215
-40.2974 12.7602 347.5555 0.1232 0.3501 -0.9286 220 192 181
-58.1300 12.6084 338.8084 -0.0663 0.5004 -0.8632 238 211 200
-75.9916 12.3164 334.4057 -0.0451 0.6494 -0.7591 231 212 202
-91.8575 12.4787 337.0482 -0.0049 0.6853 -0.7282 250 222 213
168.8833 10.9369 286.2198 -0.0878 -0.6252 -0.7755 2 0 2
151.8301 11.5389 297.5340 -0.3468 0.4098 -0.8437 158 153 157
147.0981 10.9964 297.3992 -0.1070 0.4326 -0.8952 146 141 145
148.4538 11.8054 308.3211 -0.1829 0.0642 -0.9810 139 135 143
136.3467 11.8699 315.1393 -0.6131 0.2419 -0.7520 190 189 192
128.2408 12.5860 321.2364 -0.1885 0.0521 -0.9807 214 132 146
115.3334 12.6767 325.4910 -0.2908 0.3748 -0.8803 255 255 255
103.5154 12.5427 335.2090 -0.5906 0.0102 -0.8069 133 139 141
80.5946 13.2960 350.3317 -0.3075 0.0630 -0.9495 39 41 45
78.5939 14.2915 380.1867 -0.3812 0.0014 -0.9245 202 169 149
67.8848 15.1472 389.1335 -0.3487 0.1978 -0.9161 120 80 59
62.3123 14.5300 383.5146 0.4417 0.6268 -0.6419 128 95 74
50.0898 13.7325 352.2954 0.4919 0.7420 -0.4555 191 158 137
45.8405 13.0520 348.1811 0.2949 0.7199 -0.6284 213 180 159
30.0165 13.3940 346.9413 0.0373 0.5751 -0.8173 233 199 183
14.6873 13.6351 347.4417 0.0161 0.3303 -0.9437 223 193 178
-4.9732 13.1054 347.2154 0.0782 0.1966 -0.9774 242 208 194
-20.5207 13.4551 346.1710 -0.0272 0.2663 -0.9635 255 243 228
-72.7149 13.0778 335.5132 0.0838 0.6311 -0.7712 190 182 176
-107.8167 12.6783 339.1353 -0.1256 0.7146 -0.6882 255 234 224
-1179.9452 72.0245 1912.5250 0.2912 0.2929 -0.9107 226 230 233
177.7737 11.0476 283.1340 0.1090 -0.1955 -0.9746 135 133 134
160.1387 11.7715 288.4317 -0.1261 0.2088 -0.9698 137 135 133
154.1015 11.3788 287.6518 -0.2926 -0.0274 -0.9558 147 144 148
151.8925 12.5507 306.9169 -0.6581 -0.2250 -0.7185 60 50 54
139.3560 12.6695 313.1396 -0.4767 0.1665 -0.8632 170 169 174
106.5688 13.4253 333.3690 -0.5559 0.0148 -0.8311 138 140 142
98.2706 14.0917 338.9715 -0.4693 0.1006 -0.8773 32 39 39
92.6310 13.5642 337.7528 -0.5210 0.2979 -0.7999 114 119 120
84.0318 14.2036 348.9024 -0.1967 0.2156 -0.9565 168 170 172
54.9023 14.3283 360.5294 0.5147 0.7678 -0.3816 140 104 89
33.7773 14.2058 347.9753 0.0433 0.6093 -0.7917 229 193 175
-1.2723 13.8643 347.7527 -0.0069 0.2068 -0.9784 242 208 192
-17.0664 14.1915 347.6284 -0.0053 0.2559 -0.9667 250 221 208
-36.4696 13.7036 347.5896 0.0260 0.2815 -0.9592 237 206 196
-54.0945 13.4833 340.4438 0.2886 0.5341 -0.7947 224 221 211
-69.7212 13.8081 338.0677 0.2248 0.5763 -0.7857 133 126 126
-88.2149 13.3238 337.6657 -0.0539 0.6975 -0.7146 247 218 210
-104.5514 13.4787 339.5315 -0.1445 0.7154 -0.6836 243 217 207
-139.4564 14.1829 344.5390 0.0000 0.0000 0.0000 140 148 157
152.8328 12.4660 295.2249 -0.5144 0.4517 -0.7289 129 121 129
130.8203 13.4607 319.6839 -0.3990 -0.1017 -0.9113 167 74 99
118.8417 13.4759 326.0672 -0.3164 0.4720 -0.8229 255 255 255
109.8233 14.2586 330.7363 -0.5420 0.1133 -0.8327 69 73 74
87.6573 15.0686 348.0007 -0.4788 0.2359 -0.8456 109 111 115
71.2378 16.2198 386.0696 -0.5063 0.0851 -0.8581 188 155 135
37.8310 14.9965 348.9510 0.0772 0.6383 -0.7659 207 169 152
18.2321 14.5132 347.4032 -0.0369 0.3370 -0.9408 233 199 183
2.5659 14.7739 347.6838 -0.0230 0.2464 -0.9689 253 219 203
-13.3178 15.0953 347.3654 -0.0214 0.2558 -0.9665 251 217 204
-32.7349 14.5387 347.9749 -0.0056 0.2300 -0.9732 241 211 199
-66.3624 14.5824 339.4702 0.2266 0.5228 -0.8218 167 155 145
-84.7666 14.0884 338.4209 -0.1219 0.7083 -0.6953 247 219 208
-101.0217 14.3012 339.7484 -0.1326 0.7031 -0.6986 251 223 216
172.9298 12.4934 283.8849 -0.2006 -0.5172 -0.8320 61 62 71
162.2589 12.5511 287.5451 -0.1923 0.2183 -0.9567 123 120 123
155.9232 13.1854 294.0703 -0.5784 0.6107 -0.5408 68 62 71
140.5221 13.6443 310.3335 -0.2327 0.0763 -0.9695 242 241 246
133.8371 14.2647 318.9817 -0.5301 -0.2433 -0.8123 233 225 230
100.0531 15.1599 337.6298 -0.5422 -0.0587 -0.8382 149 155 158
74.6063 17.2501 382.8562 -0.4944 -0.0382 -0.8684 190 157 136
41.4109 15.8638 349.3369 0.1793 0.6590 -0.7304 220 186 168
21.9579 15.3942 347.0423 0.0035 0.4104 -0.9119 233 197 182
6.2502 15.6291 347.7521 0.0114 0.2809 -0.9597 248 214 196
-29.1222 15.3880 348.0494 0.0020 0.2449 -0.9695 248 218 206
-44.7720 15.6818 347.6068 0.0824 0.5804 -0.8102 206 185 174
-62.9072 15.3956 340.0739 0.1080 0.5107 -0.8529 219 194 182
-81.1256 14.9126 338.3511 -0.1404 0.7188 -0.6809 253 229 219
-96.9513 15.1658 339.3975 -0.0581 0.7098 -0.7020 248 223 213
-130.8142 15.0195 344.5390 -0.0505 0.5615 -0.8259 132 139 151
175.0478 13.2397 282.3215 -0.2193 -0.5248 -0.8225 2 2 4
163.1364 13.4299 284.2125 -0.3249 0.0870 -0.9417 188 185 186
148.9187 13.8722 299.3945 -0.2700 0.5071 -0.8185 96 38 46
144.3230 14.3446 310.4780 -0.1915 0.0362 -0.9808 194 194 198
137.9121 14.9820 317.3124 -0.6438 -0.3089 -0.7001 192 189 195
124.2944 15.1935 321.3199 -0.5478 0.0779 -0.8330 127 126 133
112.1144 15.2084 329.1955 -0.4394 0.2042 -0.8748 123 127 128
91.0393 15.9212 347.1394 -0.6398 0.2801 -0.7157 124 127 133
62.9434 18.3218 390.5657 0.2733 0.6385 -0.7194 117 81 61
45.7204 16.5961 352.8643 0.4270 0.7613 -0.4880 205 171 153
25.6998 16.1702 348.4173 0.0814 0.4993 -0.8626 232 196 181
9.9932 16.4980 348.0304 0.0118 0.3021 -0.9532 243 210 189
-9.6451 15.9519 347.2184 0.0298 0.2928 -0.9557 247 210 200
-25.5441 16.2130 348.5570 -0.0499 0.3057 -0.9508 248 218 206
-41.2337 16.4874 348.7247 -0.0212 0.5205 -0.8536 213 180 170
-59.4590 16.2102 341.5290 0.0553 0.5103 -0.8582 236 208 197
-78.0082 15.7085 339.0208 -0.1271 0.7022 -0.7005 230 211 201
-93.8223 15.9456 341.2051 -0.0023 0.7296 -0.6838 243 216 209
-110.1530 16.1518 343.6261 -0.0813 0.7708 -0.6319 246 227 220
-129.3275 15.6558 343.7552 0.0468 0.6555 -0.7538 184 188 193
156.8777 14.0733 291.9169 -0.4742 0.5985 -0.6457 103 98 104
152.6363 14.5478 299.2793 -0.3989 0.4742 -0.7848 94 70 76
147.3318 15.1208 309.7541 -0.4386 -0.1868 -0.8791 127 123 136
128.0468 15.9384 321.2308 -0.2881 -0.0340 -0.9570 125 105 114
116.6483 15.9119 328.9401 -0.2851 0.2867 -0.9146 97 96 101
102.8793 16.0617 335.0620 -0.5817 -0.2129 -0.7850 107 111 115
93.6854 16.9064 344.0729 -0.5837 0.2369 -0.7766 145 147 149
79.5176 17.0503 347.8022 -0.2355 0.0666 -0.9696 98 103 103
66.8190 19.3011 388.9026 -0.3252 0.5042 -0.8000 165 133 109
55.4912 17.8806 373.6310 0.5922 0.7685 -0.2423 145 112 94
50.1669 17.2726 362.1520 0.4739 0.8110 -0.3430 171 132 116
29.4958 17.0227 349.3807 0.1023 0.5521 -0.8274 224 188 170
13.7360 17.3519 348.4344 0.0304 0.3678 -0.9294 250 219 200
-5.9502 16.7874 347.9666 0.0711 0.3154 -0.9463 247 212 199
-21.6325 17.0559 348.1626 -0.0407 0.3339 -0.9417 255 230 212
-56.8632 16.9272 342.6653 0.2188 0.5347 -0.8162 229 201 192
-74.4986 16.5225 339.5991 -0.0592 0.6357 -0.7697 193 181 172
-90.6310 16.7218 342.5836 -0.0112 0.7374 -0.6753 244 216 207
-106.5352 16.9975 344.5490 -0.1507 0.7535 -0.6399 255 239 230
-143.3047 17.2391 355.5460 -0.6324 0.5426 -0.5528 181 185 188
-1235.5494 95.3831 1984.7275 0.0000 0.0000 0.0000 228 232 236
176.4792 14.0487 281.3837 -0.2487 -0.5531 -0.7952 109 104 106
165.3917 14.1769 283.9498 -0.2673 0.4034 -0.8751 187 182 184
159.0849 14.8386 289.2942 -0.4119 0.5771 -0.7052 108 110 111
155.2902 15.3174 298.8770 -0.4335 0.4239 -0.7952 181 148 154
105.5581 16.9589 333.4913 -0.5150 -0.1458 -0.8447 157 159 160
83.7067 17.8447 348.3678 -0.1105 0.1434 -0.9835 53 59 66
33.2747 17.8544 350.1681 0.0856 0.5927 -0.8008 216 180 162
17.6066 18.1358 349.3225 0.0356 0.4300 -0.9021 245 214 195
-2.3150 17.5932 348.3839 0.0035 0.3227 -0.9465 243 209 195
-17.9660 17.9511 347.8480 -0.0289 0.3704 -0.9284 252 220 208
-37.3710 17.4135 348.5984 -0.0755 0.4425 -0.8936 243 215 204
-70.5823 17.4142 339.5810 0.1018 0.5660 -0.8181 153 146 146
-86.9945 17.5718 342.8385 -0.0652 0.7493 -0.6591 243 215 206
-118.4772 18.1025 348.6111 -0.0450 0.8323 -0.5524 194 183 182
-122.7566 17.3071 346.1707 -0.0439 0.7797 -0.6246 138 141 147
168.0483 14.8848 283.2509 -0.2701 0.3153 -0.9097 126 126 126
147.8938 16.0840 304.5304 -0.5186 -0.0190 -0.8548 197 194 198
136.4916 16.1596 310.7290 -0.4855 -0.2082 -0.8491 203 202 205
129.7966 16.8539 319.2133 -0.4223 -0.1534 -0.8934 131 37 55
118.2330 16.8839 327.1320 -0.2869 0.2563 -0.9230 255 255 255
96.7285 17.8026 340.5095 -0.5990 0.1217 -0.7914 114 115 119
87.5854 18.6696 349.6763 -0.3626 0.1482 -0.9201 56 60 65
72.6510 18.8783 354.7558 -0.4233 0.0752 -0.9029 26 25 30
70.2417 20.3178 383.7788 -0.3194 -0.1795 -0.9305 182 149 126
37.0704 18.7073 350.6851 0.1280 0.6142 -0.7787 224 188 170
1.7017 18.5197 347.8188 0.0047 0.3359 -0.9419 250 216 200
-14.1758 18.7790 348.5630 -0.0088 0.3845 -0.9231 250 218 206
-33.6606 18.2416 348.6252 -0.0620 0.4102 -0.9099 247 222 210
-67.5175 18.1716 340.7634 0.2064 0.5568 -0.8046 183 172 169
-83.4732 18.4265 343.0745 -0.1169 0.7595 -0.6399 252 224 218
-102.3731 17.8681 343.8209 -0.1851 0.7312 -0.6566 254 230 222
-136.1559 18.3192 348.4866 -0.4765 0.5041 -0.7203 168 176 183
170.6760 15.5834 282.5641 -0.2201 0.0477 -0.9743 182 180 180
161.6573 15.5729 288.7872 -0.4482 0.5654 -0.6924 129 124 128
158.2905 16.0544 298.0352 -0.5260 0.4280 -0.7349 73 44 52
140.6565 16.8438 311.0481 -0.2797 -0.2320 -0.9316 248 248 250
108.3050 17.8356 330.9919 -0.3454 0.0077 -0.9384 163 165 166
57.5178 21.5543 389.7223 0.5312 0.6158 -0.5819 130 97 79
46.1007 20.1711 362.3887 0.5021 0.7921 -0.3470 178 145 126
40.9476 19.5150 353.2435 0.3437 0.7327 -0.5874 215 182 163
21.1829 19.0493 348.5184 0.0675 0.4946 -0.8665 239 208 191
5.5544 19.3213 349.2733 0.0135 0.3769 -0.9261 242 210 193
-10.4693 19.6466 348.4185 0.0259 0.4052 -0.9139 243 211 197
-30.0485 19.0557 349.0699 -0.0254 0.3939 -0.9188 245 215 202
-45.9594 19.3385 350.5229 -0.1100 0.6824 -0.7227 213 192 181
-64.1256 18.9772 342.5171 0.2072 0.5475 -0.8108 203 182 171
-98.8058 18.7105 343.7971 -0.0965 0.7431 -0.6622 240 214 207
-114.6380 18.9593 346.9304 -0.0487 0.8323 -0.5522 233 219 212
-131.6739 19.2134 345.9811 -0.0801 0.7121 -0.6975 152 158 167
173.1883 16.2957 280.5732 -0.2654 -0.1536 -0.9518 77 74 80
164.3501 16.2871 287.5620 -0.3833 0.5632 -0.7320 152 147 151
159.6978 16.8913 295.3798 -0.6549 0.4209 -0.6276 11 0 4
149.1200 16.9619 301.9299 -0.5132 0.1240 -0.8492 213 137 156
143.1384 17.6559 309.9008 -0.2965 -0.2954 -0.9082 211 210 213
131.4824 17.7551 316.5055 -0.5122 -0.1981 -0.8357 137 49 63
111.4009 18.6680 330.1340 -0.3147 0.1113 -0.9426 94 95 99
98.5322 18.7906 336.5811 -0.6381 -0.0424 -0.7688 126 130 133
89.7203 19.6582 346.5908 -0.6245 0.0542 -0.7791 98 102 107
75.1934 19.8718 350.6628 -0.3637 0.2467 -0.8983 128 132 136
62.3029 22.4406 394.3418 0.1047 0.7051 -0.7013 133 92 74
50.6478 20.9207 369.8826 0.5311 0.7797 -0.3317 151 118 99
25.1610 19.8431 350.4900 0.1011 0.5441 -0.8329 233 199 183
9.2399 20.1611 349.6247 0.0128 0.4245 -0.9053 245 214 197
-6.7479 20.4602 349.9874 0.0480 0.4503 -0.8916 244 210 197
-26.2239 19.9271 349.3717 -0.0445 0.4023 -0.9144 255 237 227
-42.3368 20.1856 351.2070 -0.1419 0.6446 -0.7512 230 203 189
-60.5517 19.8045 343.6043 0.1003 0.6170 -0.7806 234 211 200
-79.3589 19.2783 343.0382 -0.1542 0.7343 -0.6611 255 236 230
-95.5511 19.5302 344.6574 0.0124 0.7719 -0.6356 234 208 201
-112.4652 19.7321 348.7928 -0.1134 0.8060 -0.5810 239 224 218
-130.4885 19.9331 351.5831 0.0425 0.8172 -0.5748 151 157 164
-147.6002 20.9301 364.3958 -0.5720 0.6205 -0.5364 241 243 242
166.8276 17.0160 286.7853 -0.3061 0.6546 -0.6913 160 156 157
151.5569 17.7365 299.8328 -0.5044 0.1998 -0.8400 184 104 106
134.7183 18.5279 314.4307 -0.6527 -0.1817 -0.7355 144 141 144
114.1494 19.5254 329.0383 -0.3654 0.0404 -0.9300 111 113 115
102.2233 19.5958 334.7910 -0.5957 -0.1547 -0.7882 100 106 109
79.0902 20.6996 349.7546 -0.2420 0.2764 -0.9301 108 114 119
67.0043 23.3637 394.1544 -0.4164 0.5210 -0.7451 184 149 129
28.9578 20.6807 352.1274 0.1312 0.5737 -0.8085 226 192 176
12.8753 21.0423 349.3114 0.0497 0.4839 -0.8737 251 220 201
-22.6004 20.7685 350.1691 -0.0434 0.4251 -0.9041 255 229 214
-38.6197 21.0459 351.3388 -0.1688 0.5732 -0.8019 240 215 205
-57.3391 20.6220 343.7607 0.0070 0.6270 -0.7790 228 202 192
-76.0366 20.0994 343.0033 -0.2106 0.6628 -0.7186 217 205 195
-91.9919 20.3708 345.4558 0.0095 0.7750 -0.6318 238 212 205
-108.9560 20.5801 349.3191 -0.1890 0.7719 -0.6070 239 219 215
-125.2425 20.8871 351.4276 -0.0169 0.8104 -0.5856 158 159 166
174.4321 17.0746 279.7706 -0.0960 -0.1903 -0.9770 102 99 102
169.8269 17.7071 285.1623 -0.3745 0.6166 -0.6925 168 166 164
161.2522 17.7035 292.2852 -0.5867 0.4176 -0.6939 91 81 87
154.8603 18.4566 299.5930 -0.4399 0.1260 -0.8892 214 118 135
144.9479 18.4981 307.3119 -0.4967 -0.2936 -0.8168 130 129 136
126.8392 19.3734 320.6922 -0.3859 0.0600 -0.9206 83 81 81
118.8517 20.2426 328.8452 -0.5259 -0.1246 -0.8414 150 150 152
104.6468 20.4832 332.4945 -0.4612 -0.0754 -0.8841 147 149 155
97.2321 21.3243 342.4978 -0.7103 -0.0050 -0.7039 147 151 154
92.1067 20.5946 344.2814 -0.6802 -0.0068 -0.7330 111 112 121
82.5590 21.5661 348.9803 -0.1366 0.2847 -0.9488 67 70 80
67.9580 21.7756 356.4980 -0.3558 -0.0707 -0.9319 35 34 39
32.7362 21.5301 352.8945 0.1462 0.6461 -0.7491 222 185 170
16.7396 21.8777 351.0523 0.0770 0.5651 -0.8214 249 216 197
-2.9006 21.3417 349.7022 -0.0137 0.4672 -0.8841 243 211 199
-18.8797 21.6289 349.8831 -0.0373 0.4613 -0.8865 235 200 189
-51.0878 22.1194 356.7312 0.0576 0.7342 -0.6765 133 140 126
-71.8525 20.9821 341.1425 -0.1032 0.6046 -0.7898 151 147 146
-88.7031 21.1866 346.6302 -0.0377 0.7788 -0.6261 233 207 200
-105.1230 21.4484 349.0210 -0.2023 0.7621 -0.6150 255 241 236
-122.6814 21.6819 352.8970 -0.0126 0.8626 -0.5058 160 162 164
163.9630 18.4324 291.4132 -0.4927 0.4125 -0.7662 119 116 122
147.7593 19.2666 305.4552 -0.5861 -0.1942 -0.7866 255 255 255
141.9899 20.0238 311.0286 -0.4282 -0.1470 -0.8917 196 195 198
135.5037 19.4411 310.7666 -0.5204 -0.0892 -0.8492 172 172 174
129.2285 20.2123 319.6866 -0.5602 0.0869 -0.8238 110 45 53
85.9508 22.4151 349.4434 -0.3116 0.2476 -0.9174 66 75 76
71.8405 22.6360 353.7667 -0.2430 0.1889 -0.9515 92 93 97
58.4044 25.6134 398.5316 -0.1232 0.6789 -0.7239 146 111 88
52.2964 24.7365 386.9386 0.6397 0.5852 -0.4984 154 123 104
41.3314 23.1447 361.5665 0.4808 0.8000 -0.3589 185 151 135
36.8072 22.3570 354.8334 0.3093 0.7305 -0.6089 215 181 166
20.6111 22.7171 352.2097 0.0706 0.6026 -0.7949 244 212 196
0.8153 22.1851 350.3991 -0.0012 0.4990 -0.8666 246 214 200
-15.0765 22.4915 350.1878 -0.0139 0.5106 -0.8597 255 227 216
-31.0710 22.7613 351.2262 -0.0951 0.5183 -0.8499 241 211 199
-34.7260 21.9404 350.9918 -0.1154 0.5460 -0.8298 244 216 205
-68.4439 21.8075 342.5597 0.1649 0.6390 -0.7513 155 148 146
-85.5090 22.0108 348.0718 -0.1019 0.7800 -0.6174 235 211 204
-101.2617 22.3147 348.5696 -0.1060 0.7897 -0.6042 255 236 231
-119.7362 22.4997 355.3625 -0.0642 0.8444 -0.5319 202 193 192
170.7550 18.5063 283.7007 -0.5904 0.5398 -0.6001 83 82 85
165.7132 19.2060 290.2638 -0.3514 0.3224 -0.8789 127 121 125
156.6850 19.2524 297.7164 -0.5867 0.0701 -0.8068 199 176 177
120.3584 21.1481 326.1091 -0.4856 -0.1475 -0.8616 255 255 255
107.5654 21.3218 331.1146 -0.2484 0.0616 -0.9667 121 125 129
46.0404 23.9603 370.6566 0.4508 0.8276 -0.3344 143 110 91
24.3418 23.5786 352.9864 0.1067 0.6258 -0.7727 238 207 190
4.6288 23.0367 350.9846 0.0130 0.5352 -0.8446 250 218 206
-11.3422 23.3426 351.0357 0.0238 0.5298 -0.8478 239 204 193
-47.4964 23.0208 355.5710 -0.0725 0.7162 -0.6941 220 202 190
-65.7351 22.5958 345.6708 0.2135 0.7018 -0.6796 176 161 157
-81.9021 22.8675 348.3587 -0.1986 0.7602 -0.6186 249 225 220
-97.5615 23.1597 349.4441 -0.0220 0.8191 -0.5732 205 181 173
-115.9073 23.3759 356.0067 -0.1578 0.8080 -0.5676 238 225 218
-133.0714 23.6676 355.9852 0.1051 0.7902 -0.6037 162 165 173
-133.9531 22.8782 352.2808 -0.1703 0.7045 -0.6890 185 189 193
173.0540 19.2214 282.4463 -0.6989 0.4558 -0.5512 89 84 90
158.9788 20.0117 295.9547 -0.6914 0.0670 -0.7194 216 207 208
148.7934 20.1165 303.1907 -0.6215 0.1625 -0.7664 241 238 244
141.9606 20.9466 309.2041 -0.5315 -0.2065 -0.8215 227 227 229
131.6741 21.0346 317.4987 -0.6530 0.1601 -0.7403 173 73 100
111.2926 22.1143 331.4458 -0.2202 0.1780 -0.9591 83 85 89
98.1879 22.3044 337.1292 -0.6474 0.0081 -0.7621 159 163 166
89.5562 23.2776 347.8329 -0.5624 0.1474 -0.8136 109 111 115
75.0266 23.5265 352.6057 -0.2863 0.2744 -0.9180 59 67 71
64.4840 24.6249 359.6325 -0.2758 -0.3484 -0.8958 18 15 18
61.9386 26.6024 396.8330 -0.1169 0.6794 -0.7244 180 145 122
8.4002 23.8946 351.3015 -0.0005 0.5532 -0.8330 254 223 208
-7.5988 24.2072 351.3210 0.0435 0.5721 -0.8191 236 202 191
-27.1587 23.6388 351.5932 -0.0670 0.4915 -0.8683 255 231 223
-43.7017 23.9119 355.1448 -0.1883 0.7074 -0.6813 238 214 206
-61.9606 23.4424 346.6495 0.0865 0.7245 -0.6838 206 187 178
-78.0875 23.7282 347.5257 -0.3074 0.7252 -0.6161 255 241 230
-94.8580 23.9803 351.6082 0.0048 0.8336 -0.5523 242 220 214
-111.8326 24.2679 355.0403 -0.2318 0.7782 -0.5836 235 220 213
168.2660 19.9301 289.7443 -0.1882 0.3208 -0.9283 92 90 91
151.7570 20.8583 301.0870 -0.6281 0.1278 -0.7676 225 186 197
134.6387 21.8200 315.7315 -0.7066 0.2295 -0.6693 115 82 91
114.6727 22.9219 330.2445 -0.4536 0.0159 -0.8911 80 81 88
101.0727 23.1503 334.7350 -0.6185 0.1040 -0.7789 157 161 167
92.0519 24.1633 343.6260 -0.7078 0.0801 -0.7019 104 113 113
78.8453 24.3774 353.1332 -0.3014 0.3664 -0.8803 49 53 58
32.1890 25.2726 356.2405 0.2705 0.7161 -0.6435 219 185 171
28.1395 24.4282 354.1555 0.1752 0.6586 -0.7318 230 200 185
12.1721 24.7555 351.7256 0.0731 0.5916 -0.8029 245 213 199
-3.9082 25.0599 352.5867 0.0011 0.5860 -0.8103 241 206 195
-23.6419 24.5109 351.6681 -0.0078 0.5100 -0.8602 255 227 217
-39.7226 24.7921 354.5291 -0.2185 0.6827 -0.6973 248 224 216
-58.5291 24.2720 348.7882 0.1609 0.8130 -0.5596 218 198 184
-126.8391 25.4160 361.4590 0.0250 0.7548 -0.6555 156 160 166
-128.3670 24.5867 356.9388 0.1044 0.8008 -0.5897 158 159 166
173.5521 20.0031 279.9062 -0.7550 0.3888 -0.5280 137 134 137
171.5584 20.6205 290.1516 -0.2865 0.2389 -0.9278 64 58 65
160.0668 20.8120 293.5339 -0.6749 0.1041 -0.7306 218 215 219
153.7607 21.6322 299.0937 -0.5599 0.0765 -0.8250 198 183 193
143.7738 21.7542 306.4867 -0.4179 -0.1272 -0.8996 204 203 208
104.0033 23.9831 332.6402 -0.4648 0.2086 -0.8605 111 115 120
82.0756 25.2497 351.5677 -0.2024 0.4312 -0.8792 95 97 99
66.9185 25.5414 355.2992 -0.1169 -0.0553 -0.9916 76 74 82
53.6372 28.8600 399.9846 0.1969 0.6138 -0.7645 129 96 75
41.5077 26.9875 372.5538 0.3181 0.8726 -0.3706 150 117 98
36.4248 26.1261 361.8296 0.4019 0.7740 -0.4893 188 159 139
16.1214 25.5958 354.4253 0.1150 0.6206 -0.7757 237 205 191
-19.7635 25.3641 352.4689 0.0238 0.5605 -0.8278 226 183 170
-36.0259 25.6670 353.7378 -0.2208 0.6376 -0.7380 233 203 191
-52.4317 25.9571 357.2803 0.0540 0.7146 -0.6974 201 193 175
-73.1182 24.6251 345.0162 -0.2107 0.7365 -0.6428 180 171 167
-90.9976 24.8531 352.5302 -0.0167 0.8403 -0.5419 231 210 201
-107.3925 25.1486 354.5826 -0.2036 0.7971 -0.5684 237 217 210
-1231.2764 143.5753 1998.5464 0.3526 0.9284 -0.1173 232 236 239
173.0966 21.3747 287.1417 -0.3899 0.3168 -0.8646 129 124 126
162.7279 21.5322 291.5871 -0.6129 0.0993 -0.7839 216 213 214
147.0580 22.4946 305.9776 -0.3611 0.0863 -0.9285 220 220 222
135.8580 22.6667 313.0786 -0.5764 0.2420 -0.7805 194 190 196
129.1802 23.5641 320.3873 -0.5938 0.1413 -0.7921 127 96 102
116.6912 23.7671 326.6198 -0.6393 -0.1639 -0.7513 91 90 97
94.9179 25.0205 340.5935 -0.7215 0.0942 -0.6860 117 124 124
86.0047 26.0925 350.4574 -0.2876 0.4215 -0.8600 116 118 120
70.9104 26.3918 354.2746 -0.0445 0.1299 -0.9905 69 71 75
57.7896 29.8986 402.5951 -0.2671 0.5461 -0.7940 166 134 111
45.6122 27.9262 379.6664 0.4803 0.8250 -0.2979 183 152 135
19.9522 26.4611 355.4286 0.0818 0.6263 -0.7753 233 198 185
-0.1261 25.9317 352.3216 -0.0050 0.6069 -0.7947 237 203 192
-15.8976 26.2265 352.9746 0.0008 0.5999 -0.8000 245 215 202
-32.1812 26.5357 354.4812 -0.2027 0.5828 -0.7869 245 219 210
-48.9296 26.8320 359.8244 -0.0313 0.7246 -0.6884 230 209 198
-69.5886 25.4644 345.5569 0.0663 0.7709 -0.6335 157 151 148
-87.5423 25.7163 353.4160 -0.0846 0.8268 -0.5561 224 203 194
-104.0810 26.0212 355.1083 -0.1071 0.8377 -0.5356 240 223 215
-122.0392 26.3168 360.9537 -0.0290 0.7804 -0.6246 154 153 158
-137.9638 26.6422 358.9779 -0.2563 0.5659 -0.7836 255 255 255
155.9859 22.3888 297.7265 -0.5836 -0.0064 -0.8120 241 239 242
149.4126 23.2622 304.6018 -0.5271 0.2881 -0.7995 225 224 227
138.6705 23.4395 310.4145 -0.5431 0.2440 -0.8034 151 151 155
132.6462 24.3409 319.7652 -0.6285 0.1185 -0.7687 205 117 128
119.4489 24.5743 323.9666 -0.4743 -0.2718 -0.8373 255 255 255
106.6300 24.8159 331.5040 -0.2022 0.2980 -0.9329 143 145 146
98.3017 25.8400 338.8484 -0.6233 0.1187 -0.7729 161 165 166
75.0488 27.2484 355.7718 -0.1462 0.2542 -0.9560 47 50 58
59.6934 27.5535 357.6990 -0.5986 -0.3584 -0.7164 13 5 12
23.6838 27.3347 356.3340 0.1488 0.6765 -0.7213 228 195 184
3.7677 26.7853 353.4788 0.0033 0.6449 -0.7642 246 214 200
-12.2916 27.1009 353.4038 0.0011 0.6397 -0.7686 236 203 194
-45.2237 27.7213 360.2018 -0.2396 0.6937 -0.6793 244 222 216
-63.7206 27.1432 352.4015 0.2435 0.8464 -0.4736 172 157 149
-66.7730 26.2991 347.9126 0.1770 0.7967 -0.5779 151 140 137
-84.0111 26.5875 353.6913 -0.1586 0.8185 -0.5522 236 215 206
-100.0163 26.8815 355.8864 -0.0652 0.8449 -0.5309 227 210 202
-118.6687 27.2060 361.4793 -0.0954 0.7668 -0.6348 176 169 169
174.2204 22.1257 285.0050 -0.5235 0.3562 -0.7740 111 90 102
164.4182 22.2774 289.7087 -0.4521 -0.0387 -0.8911 209 206 209
158.5844 23.1209 296.4504 -0.6130 0.0456 -0.7888 228 228 230
111.0866 25.6046 332.6583 -0.1946 0.3114 -0.9302 160 164 167
60.6349 30.8153 398.9735 -0.3884 0.5201 -0.7607 158 120 101
37.9933 30.1145 379.4491 0.4619 0.7601 -0.4571 159 125 112
27.6534 28.2028 357.8307 0.2605 0.7119 -0.6522 216 183 167
7.5791 27.6541 354.4420 0.0140 0.6771 -0.7357 239 209 196
-8.4624 27.9679 354.3906 0.0136 0.6656 -0.7462 239 209 198
-27.8037 27.3910 353.6517 -0.0895 0.5528 -0.8285 247 223 217
-60.9232 28.0218 357.9241 0.2149 0.8860 -0.4109 199 181 169
-80.1532 27.4556 353.7863 -0.2001 0.8262 -0.5265 250 229 220
-96.9494 27.7657 356.9454 -0.0088 0.8573 -0.5148 229 212 204
-114.4973 28.0859 361.6392 -0.2019 0.7705 -0.6046 211 203 199
-131.5471 28.4116 363.1226 0.3105 0.6547 -0.6891 189 193 196
-133.4700 27.5247 358.9913 0.1167 0.7011 -0.7034 206 206 206
175.4951 22.8572 282.3702 -0.6561 0.3493 -0.6689 106 93 104
172.1027 23.6447 288.7434 -0.2601 -0.1710 -0.9503 237 232 234
166.4037 23.0059 288.8093 -0.2379 -0.1529 -0.9592 215 212 215
160.2967 23.8714 294.1828 -0.6582 0.1105 -0.7446 246 244 244
151.4238 24.0272 302.5130 -0.6862 0.3232 -0.6517 231 228 231
140.0573 24.2362 307.8815 -0.6019 0.1392 -0.7863 197 199 203
134.3568 25.1539 317.2655 -0.5809 0.1453 -0.8009 180 86 106
113.9046 26.4217 332.4690 -0.6256 0.1600 -0.7636 58 63 66
101.0382 26.6775 336.7682 -0.6169 0.2829 -0.7345 106 110 115
92.8773 27.8013 348.7632 -0.7668 0.2667 -0.5838 104 107 106
78.1138 28.1098 354.2507 -0.2220 0.3407 -0.9136 48 49 58
62.1989 28.4222 354.3502 -0.3046 -0.1032 -0.9469 3 5 9
48.4892 32.1994 403.2184 -0.4586 -0.6989 -0.5488 140 109 90
41.7628 31.0933 384.2915 0.3082 0.5192 -0.7972 172 144 124
31.3619 29.1219 362.9012 0.3730 0.7570 -0.5365 206 176 164
11.5001 28.5194 355.1768 0.0504 0.6957 -0.7165 245 213 201
-4.7808 28.8502 355.8333 -0.0235 0.6768 -0.7358 242 209 197
-24.6684 28.2840 353.6055 0.0120 0.5692 -0.8221 241 211 203
-41.1970 28.6041 359.6001 -0.2496 0.6946 -0.6747 237 209 200
-76.4209 28.3259 353.9032 -0.2033 0.8589 -0.4700 243 221 215
-93.5726 28.6468 358.5949 0.0064 0.8640 -0.5034 230 210 203
-110.1749 28.9643 360.5841 -0.1634 0.8071 -0.5674 208 198 192
-128.8199 29.3291 364.7656 0.1296 0.6998 -0.7024 178 182 186
153.2254 24.7839 299.9214 -0.6399 0.3476 -0.6853 225 222 226
142.2325 24.9999 306.0812 -0.4053 0.1589 -0.9002 161 160 165
136.2624 25.9461 315.4162 -0.5601 0.2835 -0.7784 204 195 198
117.0709 27.1935 326.7387 -0.8124 0.0181 -0.5828 119 123 126
104.0192 27.4925 335.2840 -0.4670 0.3868 -0.7952 101 102 108
81.6621 28.9832 353.5391 -0.0941 0.5079 -0.8563 147 151 154
66.0057 29.2877 354.1803 0.0372 -0.0009 -0.9993 65 69 75
15.2591 29.3959 356.7452 0.0768 0.7102 -0.6998 237 203 192
-0.9106 29.7212 356.4610 0.0059 0.7027 -0.7114 240 210 200
-20.8358 29.1573 355.0337 0.0729 0.6235 -0.7784 244 213 205
-37.0383 29.4743 359.0695 -0.2544 0.6628 -0.7043 239 213 206
-53.6501 29.7976 362.1670 0.0878 0.7951 -0.6001 217 204 188
-72.7223 29.1986 353.3085 -0.0910 0.8991 -0.4281 227 216 211
-90.3463 29.5440 360.7220 -0.0792 0.8622 -0.5003 223 204 194
