ply
format ascii 1.0
element vertex 785
property float x
property float y
property float z
property float nx
property float ny
property float nz
property uchar red
property uchar green
property uchar blue
end_header
130.4849 14.5731 338.6131 -0.6146 -0.0530 -0.7870 39 43 85
121.1679 15.4571 344.5468 -0.1192 -0.0596 -0.9911 2 6 34
107.0982 15.6075 347.8766 -0.3686 -0.4037 -0.8374 93 100 139
51.5898 15.1493 337.9840 -0.0273 -0.5984 -0.8007 255 235 213
36.7357 15.3689 339.0762 -0.0354 -0.5053 -0.8622 255 229 207
2.4710 15.0565 339.9967 0.0272 0.0023 -0.9996 248 210 191
-12.8942 15.3806 338.9647 -0.0860 0.0270 -0.9959 255 228 214
-46.7509 15.2283 336.1185 0.6486 0.0214 -0.7609 87 114 105
-49.4077 14.5822 331.3289 0.2598 0.0425 -0.9647 172 153 139
-64.5873 14.9150 331.1826 0.1310 -0.3875 -0.9125 174 164 158
-80.4779 15.0490 334.5576 -0.0996 -0.5791 -0.8092 255 255 239
-96.4275 15.2455 337.7888 -0.1730 -0.5969 -0.7835 255 255 255
-114.0933 15.3008 343.1128 -0.2518 -0.5123 -0.8211 255 245 233
-1142.7902 87.4886 1940.5020 0.2700 0.3760 -0.8864 229 231 232
175.4978 13.2130 283.3168 -0.2861 0.2112 -0.9346 0 0 2
170.2112 13.7925 290.2032 -0.0323 0.2410 -0.9700 130 127 130
144.2930 14.3501 302.6725 -0.1898 0.1203 -0.9744 153 146 146
132.0457 14.4415 313.9384 -0.2788 0.5447 -0.7910 255 255 255
133.2500 15.4654 337.0036 -0.5104 -0.1842 -0.8400 46 51 88
125.1387 16.2647 344.7814 -0.3201 0.0300 -0.9469 32 40 76
105.3499 16.9440 371.6423 -0.5117 -0.1686 -0.8424 255 251 230
90.0120 17.1144 376.1957 -0.1372 -0.2720 -0.9525 200 166 150
54.9985 16.0013 337.2257 0.0856 -0.5913 -0.8019 236 204 180
21.5528 15.6135 341.2347 0.1503 -0.3625 -0.9198 161 120 106
6.0503 15.8722 340.4454 -0.0228 -0.1052 -0.9942 249 214 192
-9.3213 16.2442 338.6698 0.0885 0.0749 -0.9933 255 222 207
-28.4009 15.6745 339.2763 -0.0188 -0.1858 -0.9824 255 236 219
-43.6951 15.9614 339.4457 0.5015 0.0560 -0.8633 95 102 104
-931.9957 92.6907 2169.6248 0.0000 0.0000 0.0000 65 64 69
-1129.5892 92.6779 1972.5145 0.2579 0.3003 -0.9183 235 237 238
177.3167 13.9856 281.7558 -0.6010 0.2252 -0.7668 32 34 38
136.1713 15.1397 314.7122 -0.3709 0.3867 -0.8444 255 255 255
137.1614 16.2253 336.8977 -0.4091 -0.2838 -0.8672 55 58 66
109.0154 16.6250 343.4236 -0.1600 -0.3681 -0.9159 0 0 34
108.6225 17.9037 369.1454 -0.5646 -0.1100 -0.8180 255 255 246
93.5180 18.0766 375.2356 -0.1507 -0.2196 -0.9639 216 184 170
40.2225 16.2278 338.3678 -0.0763 -0.4905 -0.8681 255 227 206
25.3961 16.4081 341.0530 -0.0770 -0.4850 -0.8711 253 218 207
9.6830 16.7368 340.0627 -0.1503 -0.2803 -0.9481 255 239 221
-24.7922 16.5168 339.2160 -0.0089 -0.0793 -0.9968 255 239 223
-40.0398 16.7859 339.7778 0.1579 -0.0644 -0.9853 218 198 194
-58.3905 16.4261 333.6801 0.0165 -0.3297 -0.9440 210 180 167
-76.5620 15.9120 333.5245 -0.1997 -0.5005 -0.8424 255 255 255
-92.1951 16.1339 335.5522 -0.1787 -0.6000 -0.7798 255 255 244
-108.9000 16.2864 339.4905 -0.3280 -0.5321 -0.7806 255 255 255
-126.1139 16.4491 343.8805 -0.1589 -0.4153 -0.8957 70 58 58
-1189.4983 92.2707 1915.7241 0.4127 0.6528 -0.6353 229 231 232
161.2035 14.6699 292.2557 -0.1675 -0.3080 -0.9365 89 75 75
127.6253 17.1957 342.9731 -0.6485 -0.0306 -0.7606 15 21 56
112.8759 17.4359 344.2003 0.0933 -0.1681 -0.9813 24 27 63
97.3348 18.9963 374.2858 -0.2378 -0.1959 -0.9514 219 185 169
68.5821 18.0841 351.7457 0.5898 -0.3732 -0.7161 160 125 102
58.4857 16.8419 337.2236 0.2952 -0.5482 -0.7825 215 183 167
43.5545 17.1039 337.6166 -0.1030 -0.4733 -0.8748 255 223 203
28.6162 17.3403 339.1597 -0.1647 -0.5734 -0.8025 255 244 226
-5.7406 17.0319 339.6596 0.1290 0.1017 -0.9864 253 215 198
-21.1755 17.3353 339.4492 -0.0508 -0.0301 -0.9983 255 244 226
-36.7108 17.5608 340.3714 -0.0124 -0.1088 -0.9940 222 190 178
-73.0288 16.7504 332.5017 -0.2206 -0.4209 -0.8799 255 255 242
-87.9091 17.0508 333.1100 -0.1259 -0.5839 -0.8020 255 255 244
-104.4887 17.2014 338.2831 -0.2763 -0.5729 -0.7716 255 255 255
-122.2928 17.3055 343.1698 0.0059 -0.4707 -0.8823 127 116 113
178.0947 14.8178 279.6098 -0.6466 0.2583 -0.7177 46 43 46
168.6401 14.8380 285.5713 -0.3480 0.0267 -0.9371 68 67 72
116.6524 18.2579 344.9108 0.0653 -0.0873 -0.9940 13 18 48
109.4789 19.0276 356.1601 -0.8809 0.4673 0.0758 126 98 114
78.9464 19.4913 367.4955 0.7113 -0.4584 -0.5329 155 113 93
72.6632 18.8843 354.0732 0.7182 -0.3357 -0.6095 184 150 132
62.3132 17.6021 338.7428 0.5259 -0.4741 -0.7061 176 145 128
46.9896 17.9631 336.1580 -0.1177 -0.5091 -0.8526 255 231 208
31.9823 18.2141 337.0236 -0.0337 -0.5800 -0.8139 255 230 210
13.4836 17.6350 338.4966 -0.1240 -0.4407 -0.8890 230 203 187
-1.8776 17.8554 340.0014 0.0408 0.0612 -0.9973 244 206 187
-17.5547 18.1468 339.7503 -0.0885 -0.0154 -0.9960 255 226 209
-54.0898 17.3060 332.8722 -0.1193 -0.2517 -0.9604 255 235 219
-69.0207 17.6327 331.1015 -0.1475 -0.3923 -0.9079 221 205 192
-84.4005 17.8710 332.8409 -0.0672 -0.5479 -0.8338 255 255 239
-100.5533 18.0615 336.3147 -0.2171 -0.5830 -0.7829 255 255 255
-118.4721 18.1605 342.3344 -0.0515 -0.5363 -0.8425 205 184 172
171.4118 15.5370 283.2391 -0.3015 -0.1684 -0.9385 14 8 15
134.4114 17.5411 320.7885 -0.1630 0.2398 -0.9571 184 183 179
129.4829 18.1562 338.0465 -0.6498 -0.0143 -0.7600 28 36 86
120.0259 19.1156 344.2458 -0.0748 -0.0040 -0.9972 39 48 81
100.3013 19.9822 372.4265 -0.3029 -0.1539 -0.9405 230 198 184
84.3371 20.2452 374.6584 0.3823 -0.3233 -0.8656 191 153 134
50.4695 18.7845 335.7762 -0.1021 -0.5196 -0.8483 255 226 205
16.9712 18.4616 338.1696 0.0569 -0.5536 -0.8308 253 224 206
1.5879 18.7349 339.6989 -0.0116 -0.0059 -0.9999 252 216 196
-13.7420 19.0194 338.8769 -0.0473 -0.0021 -0.9989 255 227 212
-32.7190 18.5158 338.4822 -0.0559 -0.0754 -0.9956 245 218 204
-65.2414 18.4742 329.4584 0.1183 -0.3625 -0.9245 163 153 145
-114.6519 19.0140 341.1509 -0.3060 -0.5060 -0.8064 247 223 213
-1153.7242 108.9994 1920.8314 0.0734 -0.2364 -0.9689 231 233 235
175.5981 16.1402 283.5372 -0.2593 -0.2306 -0.9379 14 11 17
170.8694 16.7532 291.9678 0.3171 -0.0970 -0.9434 135 132 138
142.9390 17.6709 305.6935 -0.5218 0.1397 -0.8416 18 10 13
132.3887 19.0172 336.7035 -0.5669 -0.0751 -0.8203 36 41 83
124.1008 19.9218 344.7042 -0.2132 0.1012 -0.9718 12 16 47
104.4135 20.8695 371.3362 -0.4613 -0.0547 -0.8856 255 231 212
88.6991 21.1265 374.9782 0.0802 -0.2630 -0.9614 202 166 148
35.5466 19.0568 336.8458 0.0399 -0.5312 -0.8463 255 236 211
20.6329 19.2722 340.0062 0.1225 -0.5682 -0.8137 227 191 178
5.3699 19.5269 340.1021 -0.1465 -0.1500 -0.9778 255 240 221
-10.1575 19.8451 339.1841 0.1252 0.0828 -0.9887 253 217 200
-29.4136 19.2918 339.2135 0.0391 -0.0424 -0.9983 241 205 192
-81.1143 18.6697 332.5779 -0.0607 -0.5215 -0.8511 255 247 230
-96.1521 18.9442 333.9777 -0.1608 -0.5551 -0.8161 255 255 255
177.2461 16.9068 282.8281 -0.4461 -0.2282 -0.8654 4 1 4
135.5138 18.4750 317.7747 -0.1119 -0.1709 -0.9789 195 192 186
135.4738 19.8614 335.2932 -0.4302 -0.1986 -0.8806 96 105 108
107.8324 20.2706 343.0247 -0.1175 -0.1298 -0.9845 85 86 120
107.8077 21.7985 369.2856 -0.5179 -0.0201 -0.8552 255 247 228
92.4114 22.0508 374.4875 -0.1355 -0.1791 -0.9745 210 179 162
53.5652 19.6775 333.1743 0.0295 -0.4863 -0.8733 255 231 216
39.0991 19.8641 337.0901 -0.0062 -0.4699 -0.8827 255 231 210
24.5548 20.1044 339.5650 -0.0623 -0.6441 -0.7624 209 155 155
8.8992 20.3661 339.3029 -0.3035 -0.3133 -0.8998 255 253 237
-25.7951 20.1244 339.5420 0.0067 -0.0281 -0.9996 255 233 216
-40.9963 20.3786 340.8465 0.1590 -0.0656 -0.9851 174 160 158
-43.5225 19.6625 338.6459 0.5781 -0.0207 -0.8157 87 107 98
-58.6217 20.0319 332.2741 0.2126 -0.2912 -0.9327 199 166 154
-61.9186 19.2878 330.1552 0.2967 -0.3063 -0.9045 139 125 123
-76.9496 19.5501 331.3822 -0.1336 -0.4961 -0.8579 255 255 243
-92.3165 19.7959 332.9238 -0.1737 -0.5137 -0.8402 255 255 248
-109.0247 19.9713 337.9159 -0.3663 -0.5099 -0.7783 255 255 255
-1181.4868 112.9429 1917.9457 -0.3879 -0.3741 -0.8424 228 230 231
170.4544 17.6697 285.6910 -0.2557 -0.4446 -0.8585 88 85 90
160.0981 17.7706 290.1253 0.1716 -0.4546 -0.8740 13 10 16
152.9415 17.3315 285.5491 -0.0040 0.5693 -0.8221 24 17 31
127.6821 20.7638 343.8433 -0.5561 0.0365 -0.8303 34 40 74
111.8344 21.0793 343.6649 0.1163 0.0229 -0.9929 23 30 60
110.9856 22.7277 367.4997 -0.7798 -0.0249 -0.6255 255 255 242
96.1020 22.9711 373.7722 -0.2451 -0.1510 -0.9577 219 188 173
57.0264 20.4886 333.6631 0.2781 -0.4165 -0.8655 229 195 182
42.4896 20.7204 335.3377 -0.0789 -0.4187 -0.9047 255 229 210
-6.5559 20.6674 340.2307 0.1953 0.2052 -0.9590 248 209 193
-21.8641 20.9487 339.9266 -0.0525 -0.0465 -0.9975 255 255 239
-73.1687 20.3870 330.5564 -0.1475 -0.4702 -0.8702 255 255 250
177.8244 17.7210 280.0617 -0.3296 -0.1710 -0.9285 24 20 30
140.7417 18.7547 300.2123 -0.2143 0.2506 -0.9441 6 3 9
136.4769 19.3832 311.4293 -0.3846 -0.3065 -0.8707 103 95 98
116.1947 21.8786 345.4284 0.1603 0.0693 -0.9846 46 52 84
100.0947 23.8737 372.7954 -0.2736 -0.1212 -0.9542 229 195 179
71.6157 22.6523 350.9713 0.6842 -0.3963 -0.6122 168 132 113
60.8066 21.2665 335.8203 0.4388 -0.3475 -0.8287 191 162 143
45.9047 21.5605 334.7661 -0.1620 -0.4080 -0.8985 255 225 207
27.6559 21.0246 334.6115 -0.1694 -0.6712 -0.7217 255 238 225
12.5159 21.2921 335.7868 -0.2690 -0.4584 -0.8471 247 220 202
-2.8288 21.5026 340.2307 0.0147 0.1472 -0.9890 236 193 173
-18.2798 21.8148 339.0901 -0.0713 -0.0818 -0.9941 255 242 220
-37.3012 21.2605 339.8226 -0.0339 -0.0567 -0.9978 220 203 186
-54.8448 20.9003 331.1862 0.0903 -0.2548 -0.9628 233 208 194
-69.8151 21.1794 329.2498 -0.0924 -0.4157 -0.9048 255 241 225
-88.1416 20.6650 331.5813 -0.1335 -0.4645 -0.8754 255 255 235
-104.6066 20.8571 335.6637 -0.2888 -0.5099 -0.8103 255 255 255
-118.3237 21.8701 340.5053 -0.0229 -0.5561 -0.8308 209 188 179
-121.0447 21.1145 338.7274 0.1938 -0.6222 -0.7585 135 123 114
-1082.9193 122.7022 1936.1274 -0.0463 -0.7571 -0.6517 232 234 236
170.6087 18.5123 283.0209 -0.2347 -0.3630 -0.9017 77 75 74
161.1103 18.5895 287.3845 -0.2071 -0.5060 -0.8373 14 8 15
144.8818 19.4214 300.7565 -0.3786 0.3924 -0.8382 110 107 112
138.9050 20.1854 308.0773 -0.4695 0.0617 -0.8808 80 76 82
132.3899 20.9986 319.5686 -0.5556 -0.5848 -0.5910 63 62 67
120.2197 22.7028 345.7270 -0.0574 -0.0692 -0.9959 32 41 70
83.5837 24.1859 371.9723 0.5485 -0.1527 -0.8221 148 108 85
64.4181 22.0763 337.9484 0.6298 -0.2740 -0.7268 173 147 128
30.9350 21.8437 334.4373 0.0089 -0.6214 -0.7835 249 212 188
15.9567 22.1332 335.1950 -0.0794 -0.5746 -0.8145 255 241 222
0.7368 22.3238 339.9909 -0.1572 0.0230 -0.9873 243 209 193
-14.6572 22.6504 338.7925 -0.0006 -0.0939 -0.9956 255 222 204
-33.5083 22.1321 338.6519 -0.0317 -0.0286 -0.9991 239 207 197
-51.5360 21.7142 331.4864 0.2608 -0.2069 -0.9430 236 210 198
-84.5897 21.4745 330.5945 -0.0783 -0.4570 -0.8860 255 255 247
-100.4897 21.7086 333.3116 -0.2174 -0.4941 -0.8418 255 255 255
-1090.1573 117.9652 1819.6974 0.5533 0.8139 0.1772 232 234 236
172.8383 19.2318 282.0259 -0.1917 -0.2419 -0.9512 117 114 119
164.0051 19.2874 285.7008 -0.1625 -0.2791 -0.9464 138 135 138
152.8440 19.4486 290.8242 -0.3503 0.2241 -0.9095 89 90 97
147.2188 20.1948 299.0984 -0.4344 0.6428 -0.6310 95 97 99
133.1144 22.5126 337.1797 -0.6507 0.2149 -0.7283 255 255 255
103.6336 24.7923 371.6430 -0.3442 -0.0735 -0.9360 254 225 209
87.7959 25.0930 374.7854 0.2634 -0.1948 -0.9448 175 138 118
74.8739 23.5291 355.1049 0.7613 -0.3219 -0.5628 187 154 136
49.1487 22.4088 332.6834 -0.1734 -0.3490 -0.9209 255 237 217
34.5580 22.6571 334.4745 0.1693 -0.5355 -0.8274 229 189 173
19.4895 22.9679 333.1646 0.0504 -0.6031 -0.7961 255 218 199
4.4254 23.1737 339.7723 -0.3454 -0.1595 -0.9248 255 233 217
-30.1261 22.9366 339.4020 0.0169 -0.0850 -0.9962 234 199 190
-65.8496 22.0387 328.6366 0.1135 -0.3699 -0.9221 200 183 175
-81.0086 22.2980 330.2060 -0.0643 -0.4724 -0.8790 255 255 239
-96.1258 22.5701 331.4154 -0.1634 -0.4420 -0.8820 255 255 250
-113.3881 22.7658 338.1428 -0.2986 -0.4820 -0.8237 255 238 228
-1116.5814 126.0128 1865.2208 0.3490 0.7621 -0.5454 230 232 234
-1178.3021 125.8344 1847.5635 -0.5659 0.6142 -0.5501 225 227 229
154.7452 20.2096 288.3051 0.0082 0.4114 -0.9114 177 175 178
149.9418 20.9373 297.5545 -0.7306 0.4103 -0.5458 171 171 173
140.4179 21.0176 305.7694 -0.4373 0.3366 -0.8339 108 104 110
133.1651 21.8829 312.4927 -0.4798 -0.5025 -0.7192 27 26 31
122.7396 23.5793 344.1917 -0.1611 -0.0702 -0.9844 20 25 53
107.6715 23.8541 344.2384 -0.1182 0.0709 -0.9905 110 113 151
107.1537 25.7018 370.8181 -0.5072 -0.1131 -0.8544 255 230 211
91.4445 26.0051 373.9552 -0.0375 -0.1507 -0.9879 208 175 157
52.5141 23.2285 332.3931 0.0131 -0.2933 -0.9559 255 225 207
37.9988 23.4851 334.3008 0.1330 -0.4392 -0.8885 255 217 196
7.8529 24.0313 337.7748 -0.4037 -0.3277 -0.8542 255 255 241
-10.9467 23.4730 338.8432 0.1569 -0.0300 -0.9872 249 211 192
-26.5817 23.7567 339.7515 -0.0850 -0.2175 -0.9724 255 245 228
-62.6920 22.8401 329.0781 0.3090 -0.2694 -0.9121 144 128 127
-77.4330 23.1119 329.5356 -0.1143 -0.4903 -0.8640 255 255 255
-92.9242 23.3699 331.7061 -0.1498 -0.3752 -0.9148 255 255 242
-1021.3361 137.0998 1974.8068 -0.2082 -0.4369 -0.8751 231 233 235
-1088.6407 129.8263 1887.8398 0.4442 0.7836 -0.4343 230 232 234
-1222.2205 136.3090 1930.1255 -0.4473 -0.5147 -0.7314 223 225 227
174.5022 19.9669 279.9800 -0.3793 -0.3113 -0.8714 153 151 151
163.2498 20.1544 286.0809 -0.0919 -0.1360 -0.9864 121 121 121
158.6456 20.8706 289.0965 -0.0688 0.3842 -0.9207 127 125 128
142.6515 21.7995 303.5653 -0.2460 0.4414 -0.8629 144 146 145
126.9093 24.4034 344.2900 -0.3672 -0.1699 -0.9145 23 25 54
110.6779 24.7136 343.3600 0.1327 0.0914 -0.9869 39 42 82
109.9196 26.6047 367.1228 -0.7293 -0.1584 -0.6656 255 241 222
95.4251 26.9104 373.6503 -0.1948 -0.1184 -0.9737 222 188 175
56.0012 24.0366 332.8407 0.2431 -0.2161 -0.9456 234 205 190
41.6297 24.2970 334.6754 -0.0032 -0.3583 -0.9336 255 224 205
-7.5009 24.3041 340.5658 0.2078 -0.1160 -0.9713 236 193 173
-22.6460 24.6063 339.2483 -0.0839 -0.3070 -0.9480 255 255 246
-58.7948 23.6073 330.5020 0.3252 -0.1189 -0.9381 190 161 157
-108.6416 23.6399 335.7531 -0.4026 -0.4367 -0.8045 255 255 255
-1095.1813 136.9129 1942.3544 -0.0415 -0.0203 -0.9989 223 225 227
176.9933 20.6570 279.2337 0.1090 0.0207 -0.9938 141 135 141
167.3442 20.7885 283.4471 -0.2227 -0.1707 -0.9598 116 115 122
160.6750 21.6064 288.4180 -0.2843 0.1019 -0.9533 115 111 117
150.9889 21.7383 295.0986 -0.6266 0.5252 -0.5757 144 141 144
145.5069 22.5488 303.3066 -0.2662 0.6268 -0.7323 68 70 72
134.7778 22.7052 309.7459 -0.4086 -0.1278 -0.9037 186 186 188
129.1760 23.5560 320.6379 -0.6127 -0.4641 -0.6397 34 33 40
128.7750 25.2650 339.3539 -0.5155 -0.2768 -0.8110 99 103 108
115.4216 25.5276 345.6800 0.2121 0.1523 -0.9653 24 28 56
59.6867 24.8360 333.7457 0.3756 -0.2206 -0.9002 207 180 164
45.0614 25.1175 334.2324 -0.1805 -0.2637 -0.9476 255 241 222
26.5381 24.6063 332.8079 -0.1884 -0.6707 -0.7174 255 239 240
11.6108 24.8806 335.0360 -0.4021 -0.4148 -0.8163 255 242 226
-3.7395 25.1254 341.8621 0.0708 0.0081 -0.9975 229 188 175
-19.0767 25.4439 339.2724 0.0263 -0.3562 -0.9341 255 239 221
-38.3074 24.9072 339.3051 0.0333 -0.1045 -0.9940 211 185 178
-55.7737 24.4382 331.4462 0.2145 -0.0556 -0.9751 203 171 157
-73.2994 23.9520 327.8695 -0.1183 -0.4750 -0.8720 255 255 248
-88.9130 24.2065 329.9259 -0.1585 -0.3726 -0.9143 255 255 246
-104.5016 24.4809 332.7053 -0.3223 -0.4142 -0.8512 255 255 255
-120.2793 24.7682 334.7963 0.6570 -0.3506 -0.6674 112 103 102
169.5086 21.4998 282.1653 -0.2638 0.0028 -0.9646 137 134 137
137.5637 23.4711 308.0818 -0.4838 0.2674 -0.8333 115 115 126
119.3332 26.3655 346.5592 -0.0812 -0.1455 -0.9860 31 35 63
98.5200 27.8194 371.9989 -0.2272 -0.0822 -0.9704 226 192 176
81.7481 28.1392 366.6339 0.7856 -0.1839 -0.5908 148 102 86
69.0327 26.4192 344.1292 0.8522 -0.2667 -0.4502 145 109 89
63.6528 25.6337 335.0247 0.5270 -0.1856 -0.8294 170 141 124
29.9422 25.4258 331.1916 0.0502 -0.5884 -0.8070 255 219 209
15.1051 25.7077 333.8940 -0.3162 -0.4403 -0.8403 255 253 234
-0.0419 25.9754 341.3179 -0.1941 -0.1430 -0.9705 237 200 189
-34.3991 25.7465 338.9578 0.0160 -0.1406 -0.9899 232 201 193
-52.1785 25.2348 332.2642 0.1071 0.0713 -0.9917 226 196 184
-69.7343 24.7519 327.4265 -0.0461 -0.4447 -0.8945 255 244 230
-85.1647 25.0223 329.4340 -0.1303 -0.3754 -0.9176 255 255 243
-100.6338 25.2969 331.6460 -0.2068 -0.3923 -0.8963 255 255 255
-118.4829 25.5499 338.2945 -0.0385 -0.3840 -0.9225 145 124 113
172.0107 22.1958 281.8124 -0.2608 0.1338 -0.9561 161 160 165
160.9264 22.3901 284.4265 -0.4113 0.2795 -0.8676 122 121 128
153.2889 22.4763 293.6811 -0.3709 0.6791 -0.6335 150 145 149
147.4184 23.3173 301.2332 -0.3910 0.7147 -0.5799 137 136 143
130.3114 24.3940 314.8730 -0.3834 -0.0882 -0.9194 163 164 170
102.3760 28.7222 371.2514 -0.2924 -0.0724 -0.9535 228 196 179
86.6272 29.0712 374.1942 0.3597 -0.0599 -0.9312 182 145 123
73.8973 27.2561 351.6811 0.8110 -0.2446 -0.5314 180 144 126
48.2616 25.9419 332.4782 -0.1786 -0.1737 -0.9685 255 233 214
33.3754 26.2387 331.5137 0.2919 -0.4850 -0.8244 193 152 139
3.4629 26.8177 339.6926 -0.4067 -0.3050 -0.8612 251 219 205
-15.4083 26.2852 338.8623 0.0866 -0.3081 -0.9474 250 212 193
-31.0292 26.5771 339.7952 -0.0558 -0.2059 -0.9770 211 176 167
-66.4067 25.5531 327.7659 0.1466 -0.3825 -0.9123 239 218 209
-81.2959 25.8408 328.1987 -0.1166 -0.3922 -0.9125 255 255 235
-114.4580 26.3884 337.5649 -0.3447 -0.3569 -0.8682 237 209 200
-1159.6139 150.8159 1924.1830 0.1368 0.1306 -0.9819 225 227 229
155.4171 23.2109 292.2439 -0.2168 0.6872 -0.6933 48 46 58
139.6040 24.2446 305.6783 -0.4210 0.4626 -0.7802 158 154 160
121.8809 27.2040 343.9834 -0.1688 -0.2289 -0.9587 44 47 69
107.7486 27.4823 345.6841 -0.3917 0.3891 -0.8337 110 113 151
106.0443 29.6139 370.2977 -0.5698 -0.1441 -0.8091 233 202 187
90.4486 29.9363 373.3216 0.0211 -0.1015 -0.9946 207 173 157
51.8591 26.7476 332.3193 -0.0039 -0.1182 -0.9930 254 221 200
37.0646 27.0449 332.9022 0.2854 -0.3319 -0.8991 218 174 164
18.5334 26.5326 331.0735 -0.1101 -0.4416 -0.8904 255 227 204
-11.7764 27.1154 338.7622 0.0502 -0.4413 -0.8960 231 188 173
-27.1690 27.4116 339.2950 -0.2128 -0.4314 -0.8767 255 233 219
-63.1880 26.3694 328.2108 0.3022 -0.3067 -0.9025 149 136 136
-96.7994 26.1165 330.7897 -0.1482 -0.3774 -0.9141 255 255 248
-1133.2076 154.7595 1911.7269 0.0876 0.4599 -0.8836 229 231 232
-1187.3118 153.2085 1887.3944 -0.1871 0.4519 -0.8722 230 232 232
173.1194 22.9233 280.2972 -0.1997 0.2586 -0.9451 145 140 144
163.9522 23.0758 284.3572 -0.2472 0.4516 -0.8573 162 160 161
157.3257 23.9403 290.6329 -0.3550 0.6698 -0.6522 138 133 137
141.7562 25.0083 305.3260 -0.3094 0.5501 -0.7756 111 109 117
131.2810 25.2063 311.0729 -0.5376 0.0940 -0.8380 119 118 125
124.9301 26.1643 322.2362 -0.4935 -0.1204 -0.8614 12 10 18
126.0643 28.0448 342.4007 -0.1510 -0.4495 -0.8804 255 255 255
109.7564 28.3323 343.7246 0.0658 0.2423 -0.9680 33 41 79
109.5396 30.4937 367.7085 -0.7660 -0.1600 -0.6226 250 218 202
94.3706 30.8605 373.5095 -0.1697 -0.0841 -0.9819 217 186 169
55.5577 27.5575 333.0045 0.1641 -0.1127 -0.9800 239 209 194
21.6534 27.3537 332.4602 -0.0979 -0.4525 -0.8864 170 107 106
7.1060 27.6466 336.6398 -0.3916 -0.4074 -0.8251 255 248 234
-0.6269 29.7345 348.1432 0.0000 0.0000 0.0000 242 203 191
-4.4448 28.7944 338.3279 0.1623 -0.6327 -0.7572 255 255 235
-8.3021 27.9525 339.2408 0.2512 -0.4471 -0.8585 214 171 153
-59.8024 27.1754 329.5031 0.4184 -0.1776 -0.8907 97 82 78
-77.8189 26.6503 327.7189 -0.1428 -0.4115 -0.9001 255 255 241
-93.2901 26.9329 330.1131 -0.1424 -0.3448 -0.9278 255 255 240
-109.6994 27.2230 333.9745 -0.4378 -0.3110 -0.8436 255 255 255
-126.0081 26.7160 327.6560 0.0000 0.0000 0.0000 127 121 127
-142.5287 28.7076 346.5272 0.1846 -0.5800 -0.7934 55 59 64
-1011.1880 155.8424 1957.5450 -0.2082 -0.4369 -0.8751 231 233 235
-1130.0229 161.8932 1958.6647 -0.2138 -0.0188 -0.9767 228 230 231
175.6035 23.5993 279.4843 -0.0239 0.3988 -0.9167 105 102 106
166.4509 23.7677 283.7759 -0.1887 0.2973 -0.9359 104 99 105
160.7093 24.6345 289.3803 -0.5769 0.6182 -0.5338 95 91 99
151.1679 24.8181 295.7635 -0.6784 0.4837 -0.5529 130 126 132
147.7195 25.7103 307.2414 -0.2843 0.6271 -0.7252 132 131 136
135.0012 25.9580 311.0294 -0.3002 0.3905 -0.8703 157 156 163
126.8309 26.9607 317.8867 -0.4630 0.0297 -0.8859 147 146 149
114.2417 29.1702 345.1602 0.1481 0.2678 -0.9520 32 31 65
58.8628 28.3678 333.3528 0.2280 -0.1342 -0.9644 213 178 167
40.5997 27.8561 333.1935 0.1442 -0.2284 -0.9628 242 201 188
25.4354 28.1366 329.4838 -0.2055 -0.5113 -0.8345 255 222 225
10.6882 28.4585 334.1926 -0.4215 -0.4361 -0.7951 255 244 231
-23.1562 28.2333 336.2184 -0.0548 -0.5975 -0.8000 255 249 232
-38.5005 28.5286 336.8975 0.3128 0.0386 -0.9490 210 183 181
-56.7937 27.9870 332.5544 0.4171 -0.0479 -0.9076 168 138 123
-74.2902 27.4573 327.0576 -0.1196 -0.4004 -0.9085 255 255 245
-89.2272 27.7382 328.8791 -0.1425 -0.3408 -0.9293 255 255 255
-105.0153 28.0359 331.5981 -0.3435 -0.2970 -0.8909 255 255 255
180.8463 24.2375 283.3441 0.3098 0.3486 -0.8846 90 87 90
168.4687 24.4701 282.3022 -0.3868 0.4511 -0.8043 86 86 86
154.0393 25.5411 295.5650 -0.4364 0.5149 -0.7378 121 118 126
149.4081 26.4745 306.4430 -0.3463 0.5616 -0.7514 120 119 126
137.4329 26.7199 310.4081 -0.4572 0.5819 -0.6725 66 47 67
119.5137 30.0509 348.2470 0.1718 0.3078 -0.9358 48 51 75
97.6363 31.7506 372.2301 -0.2152 -0.0465 -0.9755 228 194 180
62.9655 29.1925 334.3586 0.5029 -0.1444 -0.8522 177 148 131
44.0702 28.6678 333.2748 -0.1046 -0.1383 -0.9848 255 228 209
14.2499 29.2713 331.6317 -0.3619 -0.4429 -0.8203 255 240 221
-19.7486 29.0654 336.8333 0.1106 -0.6048 -0.7887 255 230 210
-35.0645 29.3675 338.9044 0.0909 -0.0535 -0.9944 231 203 197
-53.2456 28.8069 332.5323 0.3900 0.0266 -0.9204 199 166 154
-70.1592 28.2546 325.5346 -0.0151 -0.3900 -0.9207 255 250 234
-85.3909 28.5409 328.1226 -0.1538 -0.3130 -0.9372 255 255 247
-117.9324 29.1694 336.4017 0.0628 -0.1771 -0.9822 111 93 88
-800.9943 150.3310 1864.2319 0.0000 0.0000 0.0000 52 53 62
-1086.9661 171.0648 2019.3208 -0.0762 0.2412 -0.9675 235 237 238
171.8696 25.1450 282.4541 -0.3208 0.5032 -0.8024 140 137 141
161.8945 25.3574 287.6017 -0.5107 0.6133 -0.6026 128 123 125
157.8948 26.2534 296.3019 -0.2901 0.5469 -0.7853 44 25 41
152.4359 27.2222 305.0730 -0.4842 0.5345 -0.6927 171 170 175
141.6583 27.4718 310.9003 -0.3777 0.5681 -0.7312 151 146 150
128.9816 27.7319 315.2000 -0.3409 0.3066 -0.8887 134 133 140
108.5685 31.1856 355.1993 0.5030 0.1695 -0.8475 242 213 211
101.8138 32.6536 371.5876 -0.2511 -0.0243 -0.9677 225 193 179
85.4341 32.9659 372.2225 0.4256 0.0371 -0.9041 161 121 100
72.4231 30.9533 348.6939 0.8526 -0.0939 -0.5141 161 126 106
47.5127 29.4691 331.9507 -0.1520 -0.0763 -0.9854 255 222 207
28.8172 28.9354 327.2677 -0.0576 -0.4463 -0.8930 255 231 232
-16.2642 29.9043 337.6299 0.0540 -0.6431 -0.7639 251 215 195
-31.3730 30.2023 339.5298 -0.3814 -0.1642 -0.9097 233 204 196
-66.5049 29.0494 325.6432 0.1606 -0.3616 -0.9184 234 204 192
-101.0286 28.8427 330.6448 -0.2168 -0.2921 -0.9315 255 255 255
-115.5444 30.0172 336.9456 -0.3588 -0.2058 -0.9104 212 187 177
-1123.2471 166.6389 1908.3877 0.1673 0.0875 -0.9820 228 230 231
175.8045 25.8233 282.5917 -0.2438 0.4600 -0.8538 120 114 120
165.1989 26.0428 287.6663 -0.3462 0.6558 -0.6709 76 68 75
160.9736 26.9714 296.0572 -0.3699 0.5201 -0.7699 145 110 126
132.5527 28.5023 314.9503 -0.1589 0.5520 -0.8185 130 126 134
105.3412 33.5186 370.1638 -0.5398 -0.1282 -0.8320 240 211 195
89.6266 33.8927 373.4078 0.1003 0.0045 -0.9950 198 163 143
76.5800 31.8382 356.8745 0.8538 -0.0834 -0.5138 175 141 123
65.4981 29.9857 336.0159 0.7216 -0.1059 -0.6842 166 137 117
50.8187 30.2666 331.7411 -0.0236 -0.0626 -0.9978 255 222 200
32.1909 29.7467 328.1498 0.3812 -0.3176 -0.8682 203 153 138
17.6157 30.0512 329.6214 -0.1131 -0.4648 -0.8782 255 231 215
2.6553 30.4012 335.6670 -0.2305 -0.5556 -0.7989 190 133 121
-0.8895 29.5252 325.5487 0.2192 -0.3362 -0.9159 250 212 193
-12.5493 30.7230 336.9891 -0.0503 -0.7131 -0.6992 235 196 180
-63.6951 29.8701 326.9782 0.3011 -0.3821 -0.8737 218 201 191
-81.7810 29.3457 326.9410 -0.1425 -0.3092 -0.9403 255 255 243
-97.3866 29.6512 329.8086 -0.1636 -0.3126 -0.9357 255 255 255
-1130.8473 174.8636 1937.4482 0.2516 0.3266 -0.9111 230 232 234
168.2890 26.7339 287.7085 -0.3781 0.6319 -0.6765 141 122 128
153.9225 27.9520 301.3540 -0.6924 0.4954 -0.5245 148 144 155
143.5859 28.2266 309.2792 -0.3090 0.4326 -0.8470 185 179 186
137.4500 29.2868 317.5223 -0.2044 0.6628 -0.7204 129 86 96
122.8901 29.5376 319.7428 -0.5437 0.0772 -0.8357 164 163 168
118.4775 30.7479 337.0049 -0.3763 -0.8440 -0.3820 255 255 255
109.5029 31.9654 345.5157 -0.2396 0.4193 -0.8757 18 21 59
108.2795 34.3570 367.5365 -0.7990 -0.1520 -0.5818 233 203 191
93.5000 34.8071 373.3457 -0.1617 0.0535 -0.9854 221 189 175
54.3888 31.0811 332.2776 0.0779 -0.0998 -0.9920 240 210 188
36.1037 30.5706 330.9740 0.4528 -0.1824 -0.8728 193 154 140
20.7925 30.8817 330.6384 -0.0628 -0.3827 -0.9217 182 120 120
6.1668 31.2445 335.0769 -0.3104 -0.5319 -0.7879 217 186 178
-27.3481 30.9816 333.7635 -0.4009 -0.5306 -0.7468 255 242 225
-60.8203 30.6944 327.9438 0.4720 -0.3629 -0.8034 157 140 132
-78.0146 30.1401 325.9842 -0.1698 -0.3077 -0.9362 255 255 244
-93.6295 30.4541 328.4030 -0.1515 -0.3317 -0.9311 255 255 249
-109.6890 30.7829 333.0401 -0.4567 -0.2189 -0.8622 255 255 246
-1130.3585 182.5134 1975.1705 -0.1244 -0.3350 -0.9340 234 236 237
-1138.8821 166.8121 1893.2008 -0.1591 0.5852 -0.7951 228 230 231
182.2751 27.1889 283.8909 0.3096 0.1578 -0.9377 0 0 0
177.8714 26.4848 281.8085 -0.0251 0.2979 -0.9543 118 116 116
171.0749 27.4286 286.5165 -0.4480 0.5475 -0.7068 161 152 162
162.5885 27.6925 293.6999 -0.4323 0.5510 -0.7138 133 97 109
139.0894 30.0431 313.6982 -0.4485 0.6007 -0.6618 120 35 55
126.8525 30.3400 319.1611 -0.3663 0.2233 -0.9033 122 124 123
120.0728 31.5162 329.5707 -0.6483 -0.5874 -0.4844 0 0 6
120.5499 33.8285 355.1516 0.0000 0.0000 0.0000 247 247 247
114.0064 32.8365 347.0265 0.0375 0.4506 -0.8919 14 18 37
39.7347 31.3922 332.7211 0.2591 -0.0899 -0.9616 220 178 170
24.6357 31.6700 329.6077 -0.2116 -0.3468 -0.9138 255 248 254
9.8692 32.0104 332.8324 -0.3630 -0.4957 -0.7890 227 198 194
-8.5092 31.4352 329.4983 -0.4337 -0.8047 -0.4055 255 255 245
-23.7770 31.7835 332.6587 -0.1835 -0.6729 -0.7166 255 237 221
-39.3848 32.1288 336.3889 0.3557 0.3080 -0.8824 206 178 169
-56.8761 31.5074 330.4093 0.5954 -0.2729 -0.7556 166 141 126
-74.1988 30.9251 324.9895 -0.1523 -0.3114 -0.9380 255 255 246
-89.9314 31.2545 328.2623 -0.1259 -0.3132 -0.9413 255 255 255
-141.7279 32.3944 343.8582 0.1846 -0.5800 -0.7934 38 39 48
-1193.3060 180.9843 1904.0283 -0.1830 -0.0241 -0.9828 225 227 229
163.2267 28.3826 290.3889 -0.4361 0.6240 -0.6484 155 62 91
154.5484 28.6605 297.1467 -0.4299 0.3985 -0.8102 198 195 201
148.9303 29.7033 306.7530 -0.2285 0.1682 -0.9589 189 188 193
96.6091 35.6433 371.9230 -0.2339 0.0526 -0.9708 228 199 184
57.7359 31.8809 331.8021 0.1898 -0.1067 -0.9760 222 190 176
43.3476 32.2143 333.3164 -0.0376 -0.0100 -0.9992 255 226 210
-20.8464 32.6488 333.2381 0.0651 -0.7356 -0.6743 255 228 210
-36.1951 33.0303 340.8958 0.0197 0.2062 -0.9783 214 191 183
-54.0933 32.3712 333.0863 0.6633 -0.2155 -0.7167 169 133 116
-70.8313 31.7285 324.6826 -0.0544 -0.3154 -0.9474 255 247 230
-105.3259 31.5673 330.7664 -0.3513 -0.1880 -0.9172 255 255 255
-861.0248 179.3309 1932.7397 0.0000 0.0000 0.0000 114 118 124
172.2838 28.1121 284.4524 -0.3556 0.5000 -0.7897 213 211 214
156.4953 29.3771 296.3210 -0.2563 0.2876 -0.9228 178 178 180
151.6046 30.4473 306.4346 -0.4413 0.1598 -0.8830 135 133 143
141.5697 30.7726 312.5605 -0.5128 0.4383 -0.7382 147 69 86
121.3992 32.2331 324.3114 -0.5659 0.1070 -0.8175 171 171 171
115.9146 33.5922 345.0060 -0.2513 0.2370 -0.9385 149 151 152
108.0430 34.9618 357.3360 -0.6635 -0.3400 -0.6665 235 207 196
100.8555 36.5688 371.6325 -0.2565 0.0839 -0.9629 228 199 186
84.8100 36.8666 369.1775 0.7148 0.1175 -0.6893 158 118 98
71.9025 34.6362 346.5358 0.8500 0.0389 -0.5254 159 123 103
61.4769 32.6979 333.4756 0.4673 -0.0053 -0.8841 200 173 159
46.6485 32.9991 332.1968 -0.1250 0.0294 -0.9917 255 229 211
27.8315 32.4105 326.4370 -0.1108 -0.2690 -0.9568 255 241 242
13.2113 32.7782 330.0107 -0.3752 -0.4573 -0.8063 247 218 212
-5.0131 32.1785 323.9976 -0.2744 -0.8017 -0.5311 255 253 236
-16.7413 33.4199 332.5246 -0.0136 -0.8005 -0.5992 255 226 206
-32.4142 33.8502 340.0117 -0.5251 -0.0343 -0.8503 235 206 193
-50.8815 33.2031 333.8686 0.3929 -0.1349 -0.9096 188 157 140
-67.5799 32.5384 324.8281 0.1441 -0.3201 -0.9364 255 232 218
-85.7029 32.0243 326.8202 -0.1207 -0.2649 -0.9567 255 244 232
-101.6188 32.3686 329.5697 -0.2593 -0.2116 -0.9423 255 255 255
-1118.9354 185.5391 1896.3721 0.1233 -0.2074 -0.9704 230 232 234
174.6686 28.7930 284.1817 -0.1885 0.4092 -0.8928 204 203 208
166.2921 29.0809 289.7058 -0.3528 0.6384 -0.6841 113 0 28
158.7346 30.0680 295.2017 -0.3593 0.3078 -0.8810 205 195 203
144.8035 31.5367 311.7208 -0.5292 0.1695 -0.8314 234 228 232
132.6221 31.8470 318.1945 -0.0462 0.3482 -0.9363 23 17 24
104.6388 37.4639 371.1945 -0.4703 0.1040 -0.8763 238 208 193
88.8873 37.9097 374.6106 0.2573 0.1636 -0.9524 187 150 128
75.9161 35.5545 355.0377 0.8615 0.0486 -0.5054 176 143 122
65.0313 33.5224 336.2063 0.6868 0.1004 -0.7199 168 139 121
50.1879 33.8052 332.2617 -0.0782 0.0474 -0.9958 253 224 206
31.0694 33.2032 326.9708 0.3511 -0.1076 -0.9301 241 183 175
16.7638 33.5411 328.3057 -0.1684 -0.4730 -0.8648 255 255 235
-1.8159 32.9760 324.7639 0.3096 -0.6354 -0.7074 254 218 201
-82.6035 32.8470 326.2430 -0.1344 -0.2058 -0.9693 255 251 236
-97.4841 33.1422 327.9181 -0.2172 -0.2289 -0.9489 255 255 246
-115.1794 33.5889 335.8429 -0.2898 -0.1983 -0.9363 217 205 193
-131.7646 32.9792 338.2538 0.0000 0.0000 0.0000 50 47 55
-1024.6959 189.7796 2000.9225 -0.3640 -0.1314 -0.9221 231 233 235
-1133.8999 195.5249 1943.5453 0.1470 0.2807 -0.9485 230 232 234
177.7774 29.4629 283.0668 -0.1587 0.2595 -0.9526 165 162 165
168.3878 29.7637 288.6750 -0.4438 0.5936 -0.6714 146 80 91
154.0774 31.1616 304.8846 -0.8123 0.1316 -0.5681 200 199 204
137.3519 32.6872 319.4509 -0.1166 0.2060 -0.9716 64 51 58
122.6726 32.9289 319.8905 -0.3776 0.2777 -0.8833 95 97 99
110.2649 35.7304 349.4987 -0.5988 0.3480 -0.7213 30 33 70
107.6284 38.2611 368.0916 -0.6739 0.1247 -0.7282 232 202 189
92.3290 38.7648 373.1888 -0.1204 0.1836 -0.9756 215 183 169
53.5869 34.6047 331.7062 -0.0281 0.0337 -0.9990 235 203 186
35.1493 34.0849 330.4573 0.5150 -0.0688 -0.8544 164 125 113
5.5607 34.7850 333.0483 0.0235 -0.5406 -0.8410 178 137 133
-13.5709 34.2552 331.3277 -0.2569 -0.8335 -0.4893 255 226 209
-27.9955 34.5173 332.2120 -0.4739 -0.6096 -0.6354 238 213 201
-63.9950 33.3330 324.9506 0.2586 -0.3346 -0.9062 241 213 202
-78.6618 33.6164 325.4011 -0.2051 -0.1687 -0.9641 255 255 244
-94.0506 33.9464 327.5305 -0.1926 -0.2611 -0.9459 255 251 233
-110.6819 34.3549 333.1878 -0.4583 -0.1276 -0.8796 255 246 234
-1148.4725 205.5300 1982.3011 -0.0379 -0.0907 -0.9952 225 227 229
170.8876 30.4466 287.8633 -0.5877 0.4677 -0.6602 216 213 216
161.9853 30.7888 295.0083 -0.4777 0.3636 -0.7998 201 116 131
140.2101 33.4481 318.8825 -0.5486 0.0786 -0.8324 162 97 107
115.2667 34.1660 330.0674 -0.6279 -0.5573 -0.5433 28 29 33
112.4757 36.4823 346.5552 0.0264 0.0566 -0.9981 150 151 157
96.8236 39.6988 372.9331 -0.2431 0.1951 -0.9502 226 197 182
39.2409 34.9430 333.3525 0.3502 -0.0304 -0.9362 225 188 178
24.1453 35.1608 328.9120 -0.0091 -0.2126 -0.9771 196 133 140
20.0396 34.3363 328.1476 0.0219 -0.3543 -0.9349 165 97 99
-37.7972 36.8467 343.0460 -0.1703 -0.0499 -0.9841 216 191 177
-40.6006 35.8537 341.3499 0.2281 0.0700 -0.9711 168 145 130
-60.6793 34.1470 325.1780 0.4265 -0.3203 -0.8459 210 189 180
-75.1116 34.4042 325.0069 -0.2012 -0.1804 -0.9628 255 255 250
-1092.2406 186.1306 1790.1395 0.4242 -0.6960 -0.5793 229 231 232
178.2470 30.1252 281.1111 0.0083 0.2496 -0.9683 209 206 209
163.9104 31.4643 293.2805 -0.4159 0.4856 -0.7689 174 125 133
153.5710 31.7674 297.6283 -0.7042 0.2584 -0.6613 186 183 186
148.6968 32.9415 306.8095 -0.2466 0.0064 -0.9691 219 218 221
142.9511 32.1219 306.2177 -0.3500 0.1038 -0.9310 202 197 201
131.2089 34.5429 320.7466 -0.2908 0.2567 -0.9217 240 239 244
125.6061 33.6528 319.2607 -0.2944 0.3369 -0.8943 139 143 144
117.7332 34.9068 326.2955 -0.6105 -0.2986 -0.7336 113 119 122
56.7107 35.3665 330.8265 0.1311 0.0501 -0.9901 235 203 188
42.5476 35.7525 333.3447 0.1141 0.0009 -0.9935 238 201 188
8.8798 35.5272 330.5055 -0.2900 -0.4651 -0.8364 153 120 113
-9.3390 34.8576 324.5409 -0.4251 -0.8085 -0.4069 255 255 246
-24.6325 35.2405 330.3357 -0.2515 -0.6975 -0.6710 255 219 202
-54.5554 35.8998 331.0964 0.6929 -0.2081 -0.6904 177 143 127
-57.3798 34.9585 326.4785 0.6043 -0.2808 -0.7457 171 150 139
-89.8340 34.6934 325.8519 -0.1151 -0.2503 -0.9613 255 255 242
-106.4006 35.1202 330.5151 -0.3854 -0.1172 -0.9153 255 255 255
-1087.6508 212.3590 1966.2150 0.2426 0.3760 -0.8943 229 231 232
-1188.4454 208.0999 1884.6869 -0.0062 -0.4414 -0.8973 227 229 230
172.2484 31.0991 285.7504 -0.4779 0.4306 -0.7656 177 174 180
167.6113 32.1821 293.4488 -0.4066 0.4883 -0.7721 198 113 135
157.1318 32.5269 297.7880 -0.3150 0.3767 -0.8711 220 218 221
150.8587 33.6663 305.9866 -0.4661 -0.0061 -0.8847 194 190 196
140.6877 34.0701 313.3990 -0.4365 0.0520 -0.8982 201 115 128
106.8949 38.6028 356.5531 -0.7128 -0.0766 -0.6972 219 191 178
99.9577 40.4735 371.6848 -0.2231 0.2249 -0.9485 231 201 186
83.3337 40.7060 368.2984 0.7623 0.2585 -0.5933 149 109 90
65.1141 37.1724 337.4614 0.6879 0.1092 -0.7176 178 147 125
60.6071 36.2211 332.8706 0.4248 0.0944 -0.9004 205 178 162
45.8789 36.5457 333.0494 -0.0419 0.0658 -0.9970 242 208 192
27.1683 35.8847 326.8805 -0.0754 -0.1243 -0.9894 255 238 236
12.3950 36.2735 328.9132 -0.3559 -0.4150 -0.8374 249 220 216
-5.8159 35.5739 320.1573 -0.2020 -0.8231 -0.5308 255 255 246
-21.2283 36.0860 329.1798 -0.0368 -0.7842 -0.6195 245 203 179
-34.0091 37.5651 340.5885 -0.4327 -0.1662 -0.8861 221 206 197
-51.5576 36.7911 334.1898 0.4918 -0.2565 -0.8321 177 143 125
-71.2595 35.1569 323.5944 -0.1165 -0.2039 -0.9720 255 252 235
-102.5637 35.9051 329.5587 -0.3270 -0.1084 -0.9388 255 255 255
-1140.2013 208.3272 1890.5143 -0.0437 0.0299 -0.9986 229 231 232
174.6635 31.7676 284.7810 -0.3221 0.3967 -0.8596 191 188 194
169.7918 32.8547 291.1684 -0.5058 0.4275 -0.7493 131 126 130
159.3302 33.2097 296.4932 -0.3138 0.3772 -0.8713 205 202 208
143.3987 34.8108 310.4367 -0.6479 0.1213 -0.7520 135 59 69
131.5985 35.1924 318.2129 -0.1700 -0.1006 -0.9803 120 117 123
119.9833 35.6063 323.9983 -0.4560 0.0147 -0.8899 200 202 203
110.9494 39.5784 352.0734 -0.8337 0.1816 -0.5215 246 245 248
103.6999 41.3831 371.4990 -0.3613 0.2835 -0.8883 232 202 189
88.2488 41.9090 375.6375 0.3488 0.2961 -0.8892 175 134 116
75.4098 39.3089 353.2990 0.8684 0.0673 -0.4912 190 160 136
69.4650 38.1447 343.9435 0.8502 0.0679 -0.5220 162 128 110
49.2899 37.3283 332.6924 -0.0991 0.1267 -0.9870 255 224 209
30.6468 36.7072 326.5132 0.2529 -0.0192 -0.9673 255 207 200
-17.2269 36.7977 326.9895 -0.1288 -0.8325 -0.5389 255 241 221
-48.5084 37.6717 335.1890 -0.0178 -0.2010 -0.9794 182 148 132
-67.8907 35.9669 323.4203 0.0648 -0.2358 -0.9696 255 229 213
-83.3287 36.3337 325.7213 -0.0936 -0.1277 -0.9874 255 237 223
-98.6779 36.6826 328.2834 -0.2713 -0.1396 -0.9523 255 255 242
-1042.9628 212.8907 1917.4252 -0.4176 0.5163 -0.7477 228 230 231
-1142.9302 216.9964 1944.9570 -0.1233 0.0055 -0.9923 222 224 226
178.4485 32.4751 285.4163 -0.4233 0.2803 -0.8615 241 239 240
161.9209 33.9108 295.8818 -0.4342 0.3908 -0.8116 207 201 208
153.6737 34.3974 305.2460 -0.7924 0.0365 -0.6089 221 221 223
123.2544 36.4261 323.1301 -0.2306 0.2091 -0.9503 107 108 114
107.2346 42.2134 370.6233 -0.5645 0.3111 -0.7646 225 195 182
91.8612 42.7471 375.2987 -0.0309 0.2662 -0.9634 211 180 163
52.9762 38.1624 332.2925 -0.0823 0.1797 -0.9803 255 228 211
34.0753 37.5643 329.1448 0.4947 -0.0436 -0.8680 174 128 117
15.6824 36.9966 326.7044 -0.2312 -0.3827 -0.8945 255 238 226
0.9362 37.2412 323.1187 0.6855 -0.5731 -0.4492 204 165 154
-2.4890 36.2635 318.5651 0.1875 -0.7809 -0.5958 255 231 210
-64.1663 36.7499 323.8676 0.1808 -0.2393 -0.9540 248 219 204
-79.6207 37.1077 325.4069 -0.1908 -0.0970 -0.9768 255 249 233
-111.8236 37.9554 333.1584 -0.4170 -0.1100 -0.9022 241 216 206
-1048.8417 221.8519 2005.8857 0.6991 0.2925 -0.6524 230 232 234
-1125.1837 222.2503 1969.1943 0.0549 -0.1927 -0.9797 229 231 232
171.4589 33.5087 289.4610 -0.6084 0.3774 -0.6982 252 249 252
144.1489 35.4222 306.9362 -0.4930 0.1733 -0.8526 185 172 179
137.7856 36.7042 315.8298 -0.1712 -0.2078 -0.9631 138 126 132
126.6281 37.1588 322.1565 -0.2542 0.3459 -0.9032 246 245 248
113.4084 37.5546 328.1735 -0.6434 0.0285 -0.7650 149 150 154
38.0991 38.4370 332.0393 0.4733 -0.0843 -0.8769 166 127 115
19.0708 37.7448 325.1114 0.0458 -0.3208 -0.9460 240 187 175
4.6384 38.2188 329.5759 0.5474 -0.4193 -0.7243 190 147 143
-13.6465 37.5197 324.0803 -0.3532 -0.7993 -0.4861 255 255 237
-29.0885 37.9547 330.4034 -0.4304 -0.7034 -0.5658 136 137 132
-60.8392 37.5588 324.7972 0.4070 -0.2167 -0.8873 234 206 197
-94.6355 37.4354 326.7540 -0.2166 -0.1433 -0.9657 255 246 227
-1111.3279 207.4168 1750.5922 0.9105 0.0547 -0.4100 227 229 230
-1079.5248 195.4070 1693.6567 0.0000 0.0000 0.0000 227 229 228
179.6428 33.1305 283.5873 -0.4796 0.2527 -0.8403 216 213 216
164.1228 34.5756 294.3839 -0.4435 0.3081 -0.8417 148 98 110
154.1062 34.9362 299.0494 -0.6727 0.2188 -0.7068 152 151 159
148.4816 36.2152 307.8033 -0.3428 0.2183 -0.9137 192 190 193
129.7662 37.9323 320.4588 -0.4507 0.1504 -0.8799 255 255 255
117.0786 38.3636 326.2887 -0.5542 0.1127 -0.8247 97 101 102
109.0173 39.7919 337.3168 -0.8255 -0.1283 -0.5497 16 16 20
95.6822 43.6204 373.9288 -0.2859 0.3061 -0.9081 221 192 175
56.1805 38.9232 331.8090 0.1175 0.2444 -0.9625 225 193 179
41.6180 39.2779 333.0645 0.2855 -0.0366 -0.9577 227 190 180
22.5931 38.5862 327.5457 0.1916 -0.1405 -0.9714 180 116 117
7.9589 38.9876 328.9687 0.0750 -0.4349 -0.8974 166 126 121
-25.5263 38.7142 327.2058 -0.2376 -0.7274 -0.6437 245 220 204
-58.0689 38.4610 326.3358 0.5871 -0.2295 -0.7763 182 162 148
-75.7018 37.8471 324.2872 -0.2378 -0.1021 -0.9659 255 255 246
-91.1267 38.2319 326.0525 -0.1054 -0.1205 -0.9871 255 252 234
-107.4142 38.6799 330.8823 -0.3839 -0.0909 -0.9189 255 255 251
-123.2624 39.0633 331.4715 0.4547 0.0348 -0.8900 96 88 82
-1088.2892 224.0934 1971.9510 0.0797 -0.1912 -0.9783 229 231 232
-1143.8772 220.4870 1874.0924 0.0848 -0.2984 -0.9507 230 232 234
172.2923 34.1092 287.2710 -0.5106 0.3751 -0.7737 163 162 167
168.0577 35.3184 294.6048 -0.4357 0.2615 -0.8613 208 208 210
156.2504 35.6586 298.5148 -0.3412 0.4926 -0.8006 182 181 184
150.6412 36.9195 306.4731 -0.5124 0.1294 -0.8490 219 216 222
140.2500 37.3612 313.7497 -0.3741 0.0514 -0.9260 155 71 86
107.0344 42.4766 357.5359 -0.6260 -0.3016 -0.7191 76 59 69
99.4841 44.5112 373.8282 -0.2396 0.3216 -0.9160 231 201 186
60.0028 39.7744 333.2532 0.3827 0.2381 -0.8927 216 187 169
45.2653 40.1138 333.4879 0.0845 0.0902 -0.9923 234 197 187
26.4496 39.4498 328.5966 0.0774 -0.0738 -0.9943 219 167 167
11.5342 39.7409 328.3051 -0.2217 -0.2958 -0.9292 157 119 116
-9.8730 38.1090 317.7876 -0.3617 -0.7298 -0.5802 255 255 244
-36.7855 39.9481 335.0499 -0.1957 -0.7768 -0.5985 198 178 157
-52.2419 40.3362 332.5325 0.5146 -0.3511 -0.7823 181 150 133
-54.9106 39.3526 328.9234 0.6792 -0.2357 -0.6950 184 154 142
-72.0504 38.6145 323.0130 -0.1823 -0.1172 -0.9762 255 255 243
-87.2834 38.9874 325.5467 -0.0576 -0.0829 -0.9949 255 253 239
-103.3177 39.4254 329.4708 -0.3530 -0.0905 -0.9312 255 255 255
-1072.0142 229.4857 1963.4945 -0.3407 0.0462 -0.9390 232 234 236
174.9084 34.8073 286.4747 -0.3995 0.3599 -0.8431 219 216 220
169.4484 35.9459 292.2745 -0.5218 0.2835 -0.8046 225 224 227
159.9421 36.3868 298.8833 -0.3433 0.5001 -0.7950 237 237 239
143.0170 38.1185 312.9219 -0.6657 0.3213 -0.6735 110 0 21
132.0044 38.6209 318.2563 -0.4806 -0.1031 -0.8708 226 223 227
118.0999 38.9744 323.2824 -0.3764 0.2193 -0.9001 21 25 33
111.1977 40.4611 333.0780 -0.7650 0.0437 -0.6425 174 176 178
103.1357 45.3554 373.1533 -0.1550 0.3691 -0.9164 230 199 182
87.5327 45.9124 375.9814 0.3708 0.3195 -0.8720 158 120 99
79.8433 44.2979 363.9520 0.8760 0.1674 -0.4522 166 128 111
74.9459 43.1057 353.1860 0.8501 0.1274 -0.5110 173 140 122
68.4154 41.7073 343.4326 0.8420 0.0858 -0.5326 153 122 105
63.6102 40.6146 334.8048 0.5967 0.1844 -0.7810 203 174 156
48.6773 40.8992 333.3929 -0.0460 0.2018 -0.9783 250 216 200
29.6222 40.1365 326.5416 0.1424 -0.0019 -0.9898 248 193 195
-6.4005 38.7810 315.4959 -0.3033 -0.6752 -0.6724 255 255 242
-21.4004 39.4044 323.5757 -0.1964 -0.7604 -0.6191 255 247 228
-48.9156 41.2462 333.9842 0.0688 -0.4237 -0.9032 186 153 134
-68.6663 39.4160 322.9347 -0.0080 -0.1269 -0.9919 255 246 230
-84.0242 39.8130 325.6582 -0.0613 -0.0572 -0.9965 255 245 234
-117.4935 40.8544 334.6169 -0.0537 -0.0822 -0.9952 182 169 162
-151.8909 41.8434 345.2444 -0.4939 0.3512 -0.7954 52 52 64
-1088.2728 241.6941 1963.7264 -0.1483 -0.1309 -0.9802 227 229 230
-1170.6150 242.2326 1953.2256 -0.1023 -0.6102 -0.7856 234 236 237
-1094.9766 219.8989 1881.0072 0.2954 -0.1699 -0.9402 230 232 234
177.7627 35.4945 285.9030 -0.5032 0.3261 -0.8003 222 222 224
162.7781 37.1036 297.8717 -0.4526 0.4565 -0.7660 245 242 245
152.6254 37.5815 304.2507 -0.6907 0.1955 -0.6963 199 196 202
128.3495 40.8908 325.2379 -0.3540 0.2838 -0.8912 176 173 177
122.9589 39.8331 323.9785 -0.2380 0.2685 -0.9334 131 134 140
107.2409 46.3371 373.6809 -0.1036 0.3903 -0.9148 218 188 173
91.5059 46.8212 377.3552 0.0433 0.2836 -0.9580 210 179 162
52.0942 41.6762 333.1687 -0.0626 0.2728 -0.9600 247 212 199
32.9037 40.9627 327.2416 0.3758 0.0567 -0.9250 229 171 161
14.8633 40.4818 325.9855 -0.3267 -0.1268 -0.9366 212 170 161
-17.8244 40.1140 321.3544 -0.2839 -0.7315 -0.6199 255 255 238
-33.2611 40.6822 327.9646 -0.5409 -0.5703 -0.6182 154 157 154
-65.0127 40.1894 322.6955 0.1483 -0.1425 -0.9786 255 234 220
-80.2272 40.5726 325.3111 -0.1901 -0.0652 -0.9796 255 255 246
-98.7088 40.1160 327.3204 -0.3059 -0.1128 -0.9454 255 255 255
-112.4583 41.5100 333.1612 -0.3343 -0.1032 -0.9368 215 192 184
-148.7507 42.7107 343.5151 -0.5298 0.3198 -0.7855 39 45 54
-1019.1245 236.0964 1941.6744 -0.1081 0.5468 -0.8302 232 234 236
170.8086 36.5555 290.1284 -0.5744 0.2988 -0.7621 163 162 167
154.3178 38.2162 302.4609 -0.5735 0.2976 -0.7633 235 234 239
144.6627 38.7558 309.3969 -0.5358 0.3712 -0.7584 201 113 123
138.0171 40.1112 315.2274 -0.1148 0.0163 -0.9933 105 102 106
131.4194 39.0629 313.9139 -0.2611 0.0620 -0.9633 255 255 255
113.9531 41.1508 330.1402 -0.6054 0.2214 -0.7645 171 172 176
106.2521 42.7430 341.1371 -0.7761 -0.3478 -0.5260 55 54 57
95.2587 47.6646 376.2361 -0.3121 0.2640 -0.9126 221 189 172
36.8501 41.8721 329.9600 0.5059 0.0281 -0.8621 184 144 133
18.5152 41.1781 324.7100 -0.0429 -0.0883 -0.9952 255 231 221
-3.1878 39.4006 311.8745 -0.0825 -0.6000 -0.7958 255 237 219
-29.5283 41.3792 325.0302 -0.3618 -0.5399 -0.7600 107 92 72
-44.7226 41.8699 329.4527 -0.4385 -0.3171 -0.8409 191 157 141
-61.7131 41.0200 323.6256 0.3559 -0.1226 -0.9264 248 219 204
-95.1820 40.9021 326.5031 -0.2246 -0.0960 -0.9697 255 255 237
-126.1206 41.6539 329.0355 0.7935 0.2539 -0.5531 96 88 95
-1119.5662 240.8896 1924.4796 -0.1445 -0.3734 -0.9163 231 233 235
-1159.9535 234.6133 1862.8920 0.0000 0.0000 0.0000 229 231 232
178.1257 36.0513 283.5096 -0.6416 0.2298 -0.7318 236 233 234
173.0532 37.2282 289.3684 -0.5505 0.3465 -0.7595 157 156 161
164.4736 37.7006 295.7538 -0.4714 0.3173 -0.8229 238 235 238
148.2012 39.5144 308.8251 -0.4645 0.3872 -0.7964 183 180 184
128.0864 41.2702 321.4251 -0.5983 0.1545 -0.7862 141 138 142
116.8917 41.9016 329.2472 -0.4961 0.3577 -0.7912 89 91 95
108.1671 43.3060 336.5636 -0.7545 -0.2037 -0.6239 196 195 198
59.6757 43.4521 335.5465 0.3291 0.3529 -0.8759 217 188 170
55.4083 42.4574 332.7745 0.1080 0.3198 -0.9413 241 207 191
40.6776 42.8231 332.4538 0.4058 0.0771 -0.9107 211 169 158
21.7572 42.0032 325.0635 0.2703 0.0156 -0.9627 202 134 129
7.1837 42.4739 328.5569 0.4242 -0.2001 -0.8832 175 136 129
3.5609 41.3406 320.0293 0.7839 -0.4990 -0.3694 196 157 147
0.2315 40.2774 314.0377 0.5118 -0.5195 -0.6842 225 193 183
-14.3632 40.7758 318.2559 -0.3784 -0.6267 -0.6812 255 255 244
-58.7373 41.9002 325.4356 0.5046 -0.1714 -0.8461 232 201 193
-76.8149 41.3765 324.8489 -0.2606 -0.0672 -0.9631 255 255 253
-91.5723 41.6779 325.8918 -0.0963 -0.0465 -0.9943 255 247 230
-108.2839 42.2395 331.0801 -0.3788 -0.1067 -0.9193 255 248 234
-122.8346 43.7720 332.0066 -0.0237 0.1499 -0.9884 92 85 85
-124.5840 42.6747 331.8647 0.3625 0.2670 -0.8929 112 105 107
175.5546 37.9257 288.6825 -0.4896 0.3080 -0.8157 213 213 215
166.4968 38.3724 293.8097 -0.4784 0.2596 -0.8389 237 237 239
157.1039 38.9162 301.2756 -0.3555 0.4678 -0.8092 205 204 209
150.2990 40.2116 307.2002 -0.5881 0.2756 -0.7604 144 138 145
140.0056 40.7468 314.8575 -0.2215 0.1756 -0.9592 145 140 146
119.2987 42.6024 326.4401 -0.3443 0.3269 -0.8801 140 142 144
98.9748 48.5336 375.1985 -0.2552 0.2584 -0.9317 211 180 163
44.3499 43.6403 333.6735 0.2019 0.2167 -0.9551 231 192 180
25.6971 43.0158 328.7721 0.2185 0.0883 -0.9718 158 94 109
10.7863 43.2732 328.6079 -0.0269 -0.0175 -0.9995 175 139 133
-10.7782 41.4666 316.2845 -0.4155 -0.5178 -0.7479 255 255 255
-25.5706 41.9830 321.1481 -0.3311 -0.5064 -0.7962 255 250 228
-55.4956 42.7699 326.9577 0.5734 -0.2574 -0.7778 193 165 156
-72.8926 42.0836 323.2187 -0.2048 -0.0543 -0.9773 255 251 233
-88.1116 42.4651 325.6434 -0.0539 -0.0371 -0.9979 255 251 235
-104.0249 42.9429 329.0277 -0.3692 -0.0762 -0.9262 255 255 245
-156.9372 46.0194 348.9624 0.0000 0.0000 0.0000 96 97 104
-800.3966 222.3015 1900.9557 0.0000 0.0000 0.0000 84 89 97
-1103.7377 255.9160 1952.3243 0.1290 0.1964 -0.9720 230 232 234
-1155.2047 250.4364 1920.1930 -0.3186 0.5151 -0.7957 228 230 231
160.7289 39.6783 301.1782 -0.3893 0.4199 -0.8198 230 230 232
143.3236 41.5104 314.4439 -0.3633 0.2911 -0.8850 112 25 55
130.3506 41.8974 317.7517 -0.6780 0.2069 -0.7053 255 255 255
123.1715 43.3880 326.0690 -0.2931 0.2214 -0.9301 106 105 110
110.5953 43.9992 333.6379 -0.6744 -0.1064 -0.7307 112 115 123
109.2141 50.8569 376.0325 -0.0074 0.3180 -0.9480 55 54 59
102.7164 49.4091 374.8481 -0.1214 0.2718 -0.9547 217 186 169
86.9487 49.9821 378.2164 0.2990 0.3323 -0.8945 155 115 94
80.1264 48.3847 365.6619 0.8609 0.2300 -0.4537 148 108 89
74.0385 46.7722 352.6964 0.8476 0.2098 -0.4874 177 143 125
62.9048 44.1915 336.0566 0.4917 0.3084 -0.8143 209 180 160
47.9656 44.4977 334.5548 0.0654 0.3641 -0.9291 233 192 178
29.0754 43.7389 328.1078 0.0977 0.1450 -0.9846 251 203 204
-7.2282 42.1440 313.0623 -0.3789 -0.3886 -0.8399 255 255 255
-22.1217 42.8171 321.0792 -0.3623 -0.4977 -0.7880 255 255 255
-39.7427 42.1192 318.6810 -0.6977 0.5714 -0.4320 232 232 230
-52.3064 43.6989 329.3667 0.4728 -0.3641 -0.8024 171 137 121
-69.0841 42.8123 322.2436 -0.0464 -0.0092 -0.9989 255 239 223
-84.6145 43.2629 325.5656 -0.0729 -0.0487 -0.9962 255 244 229
-1147.6941 257.5496 1919.5742 -0.3105 0.2906 -0.9051 228 230 231
-887.2865 186.1210 1775.1871 0.0000 0.0000 0.0000 230 232 234
177.8557 38.5364 287.0295 -0.5612 0.2337 -0.7940 139 134 140
167.6928 38.9615 292.3984 -0.5014 0.2811 -0.8183 232 231 234
151.8383 40.7588 304.6697 -0.6181 0.3009 -0.7262 236 230 237
145.9247 42.2069 312.3186 -0.5038 0.3472 -0.7910 162 68 84
113.2777 44.6984 331.5436 -0.5367 0.0743 -0.8405 151 153 157
106.4972 46.5170 339.2731 -0.7368 -0.1126 -0.6667 165 166 173
101.9770 45.5105 341.8120 -0.7311 -0.2604 -0.6306 20 24 27
91.1422 50.9194 378.6498 0.0622 0.3139 -0.9474 197 163 145
66.5899 45.0819 339.3464 0.7089 0.2587 -0.6561 181 152 132
51.3654 45.2603 333.7881 -0.0258 0.4333 -0.9009 231 195 177
32.2846 44.4434 327.2997 0.2503 0.2348 -0.9393 235 183 178
14.0614 43.9372 326.0484 -0.2846 0.1081 -0.9525 188 155 146
-33.7667 44.1191 326.5615 -0.5053 -0.3520 -0.7879 229 192 179
-49.1543 44.6335 331.4303 0.1517 -0.4037 -0.9022 193 159 145
-65.7221 43.6142 322.3163 0.0871 -0.0304 -0.9957 255 233 217
-99.8472 43.6568 327.5821 -0.3142 -0.0611 -0.9474 255 255 246
