ply
format ascii 1.0
element vertex 772
property float x
property float y
property float z
property float nx
property float ny
property float nz
property uchar red
property uchar green
property uchar blue
end_header
155.7825 59.6324 354.1494 -0.4816 0.5487 -0.6834 106 105 110
143.3269 60.7541 362.0404 -0.5267 0.4619 -0.7136 127 126 129
136.1481 63.4621 378.5212 -0.6142 0.5580 -0.5580 147 149 153
111.6571 61.6815 364.8567 0.0779 0.4955 -0.8651 80 79 88
31.4891 65.6963 390.3700 0.2844 0.6903 -0.6653 245 218 214
-17.2063 70.9844 420.0315 0.1010 0.7973 -0.5951 213 211 212
-21.2812 68.8824 411.7902 0.1263 0.8552 -0.5027 215 211 210
-40.1303 69.7414 412.9362 0.0408 0.8158 -0.5769 242 244 245
-62.7991 68.8137 409.9152 0.1970 0.6354 -0.7466 242 244 243
-929.1885 328.4921 1986.8077 0.1141 -0.5264 -0.8426 231 233 235
-916.9838 290.3612 1828.3419 0.1049 -0.4552 -0.8842 235 237 238
-1036.1116 302.5614 1814.1045 -0.3594 0.2537 -0.8981 227 229 230
185.4774 53.1537 312.7967 -0.5836 0.1338 -0.8010 236 232 238
171.2763 56.1778 331.3058 -0.8126 -0.0933 -0.5753 181 148 152
165.3171 58.2284 340.8025 -0.7286 0.3116 -0.6099 96 64 63
146.9897 61.6129 361.5569 -0.3589 0.5509 -0.7535 87 84 87
116.8708 62.9372 368.5152 0.2649 0.5595 -0.7854 78 82 90
102.8876 64.1825 380.2305 -0.8719 -0.4214 -0.2493 20 19 24
100.0892 68.9054 403.2584 -0.9614 -0.0625 -0.2679 104 106 112
-12.9666 72.1394 420.4443 -0.2408 0.6187 -0.7478 161 159 159
-36.0851 71.1779 416.5941 0.0075 0.8029 -0.5961 188 190 194
-59.1053 70.3194 415.2304 0.3513 0.6087 -0.7114 255 255 255
-872.5218 320.9763 1995.7001 0.1593 -0.6705 -0.7246 231 233 235
-969.7720 326.5094 1904.4987 0.4233 0.4011 -0.8124 234 236 237
-921.4488 301.4255 1835.1715 -0.1768 -0.5264 -0.8317 234 236 237
-1052.2201 316.8128 1848.6312 -0.1483 0.2234 -0.9634 229 231 232
187.1467 53.7062 311.2226 -0.4927 0.2590 -0.8308 196 193 196
178.6828 54.7651 318.2860 -0.7173 0.0380 -0.6957 229 225 231
172.7216 56.5805 327.5934 -0.7626 0.0825 -0.6416 180 174 183
158.8564 60.4111 352.4590 -0.3294 0.5552 -0.7637 255 255 255
150.5613 62.4508 360.4579 -0.3640 0.5565 -0.7469 68 66 76
137.8443 63.7179 373.5698 -0.7583 0.4686 -0.4531 90 92 96
129.3020 66.0438 381.0221 0.2344 0.6383 -0.7333 121 123 124
120.0798 63.7363 369.9510 0.3719 0.5527 -0.7458 43 43 52
-8.5602 73.2405 418.6048 -0.1845 0.7793 -0.5988 170 170 172
-31.7419 72.1357 416.8717 -0.0998 0.8362 -0.5393 210 213 212
-51.0492 73.1545 421.6226 0.0000 0.0000 0.0000 215 215 219
-54.7527 71.2504 417.8425 0.2255 0.6448 -0.7303 216 218 222
-780.3329 342.2441 2160.9253 0.0000 0.0000 0.0000 230 232 234
-1006.9738 314.2556 1826.5996 -0.3049 0.0416 -0.9515 225 227 229
-989.9491 280.7857 1632.2480 0.4351 0.8025 -0.4083 224 226 228
189.6946 54.3334 309.4648 -0.5359 0.2348 -0.8110 217 214 219
181.1515 55.3582 316.9861 -0.6374 0.1350 -0.7586 191 190 195
166.0724 58.5280 336.9534 -0.7399 0.1502 -0.6558 107 8 27
162.1045 61.1808 354.3611 -0.4113 0.2324 -0.8814 255 255 255
140.5876 64.1565 368.5629 -0.7665 0.4330 -0.4743 28 25 33
134.1401 67.2130 383.6467 -0.5630 0.4469 -0.6952 122 123 127
104.5699 64.0922 370.3008 -0.7304 -0.1098 -0.6741 98 104 106
-27.5786 73.3326 418.3648 0.0387 0.8510 -0.5237 255 255 255
-852.7962 338.2041 1936.3716 0.0000 0.0000 0.0000 232 234 236
-943.2300 329.3899 1928.0990 0.4984 0.3462 -0.7948 229 231 232
-969.0323 313.2916 1787.0938 0.0151 -0.0646 -0.9978 225 227 229
-1001.2668 292.3551 1671.2552 -0.4563 0.1683 -0.8738 228 230 231
-1111.7148 302.3757 1726.3334 -0.3593 0.2819 -0.8896 224 226 228
183.4550 55.9704 315.8453 -0.5913 0.2050 -0.7800 197 196 199
173.9455 57.0443 324.6060 -0.6763 0.2609 -0.6889 229 229 231
168.4172 59.1201 334.5018 -0.6642 0.1099 -0.7394 167 80 100
163.6901 61.6159 346.4701 -0.6713 0.4702 -0.5729 166 161 163
152.6854 62.9131 358.9921 -0.5601 0.4804 -0.6749 118 117 120
107.4957 64.7829 367.3550 -0.1823 0.1459 -0.9724 97 99 103
99.7245 67.8831 389.9221 0.7582 0.1745 -0.6283 154 152 160
97.6474 73.2908 412.7924 -0.8683 -0.0589 -0.4926 109 112 118
-22.7544 74.9084 421.5839 0.2033 0.7946 -0.5721 255 255 255
-45.9920 73.2589 419.0699 -0.0737 0.7196 -0.6905 186 188 189
-997.3800 332.2469 1848.6129 -0.2878 0.5925 -0.7524 227 229 230
-982.7988 296.3743 1690.4166 -0.2563 0.0576 -0.9649 228 230 231
207.5774 57.6793 307.0721 0.0000 0.0000 0.0000 0 0 0
192.1908 55.0026 309.0670 -0.5478 0.2120 -0.8093 161 156 162
177.1597 57.8194 324.4331 -0.6758 0.3310 -0.6586 231 228 231
155.6070 63.5692 356.0009 -0.5862 0.3844 -0.7132 117 114 117
142.0457 64.5241 362.6592 -0.4855 0.5349 -0.6915 121 125 131
136.1947 67.5502 380.0548 -0.7188 0.4131 -0.5592 9 15 20
111.0666 65.6305 368.3684 0.2461 0.4268 -0.8702 28 24 35
-38.7963 77.7435 429.0879 0.2954 0.8711 -0.3924 199 204 205
-42.1214 74.8454 421.3377 0.1249 0.8424 -0.5242 255 255 255
-47.9625 69.6723 399.2960 0.2391 -0.7077 -0.6649 196 198 202
-987.1776 339.9139 1891.1471 0.2238 0.0044 -0.9746 230 232 234
-1015.6368 314.9146 1774.1504 -0.6626 0.1158 -0.7399 230 232 234
194.4520 55.5895 307.3461 -0.2166 0.1577 -0.9634 153 142 153
184.9490 56.4489 313.6052 -0.6431 0.2362 -0.7285 112 108 119
179.8281 58.4072 321.4642 -0.7874 0.2850 -0.5466 216 213 218
170.5741 59.6970 332.3167 -0.7893 0.1113 -0.6038 236 233 236
164.2785 61.8170 342.8400 -0.7869 0.3058 -0.5359 108 19 38
146.2410 65.4807 363.5304 -0.2937 0.5609 -0.7740 73 75 79
116.6442 67.0720 371.6356 0.3202 0.4388 -0.8396 23 24 30
100.3749 67.4569 374.2731 -0.7735 -0.4078 -0.4852 0 0 4
100.1549 73.6270 409.4440 -0.9366 -0.0366 -0.3486 143 144 148
-980.0557 348.8970 1900.2037 0.2895 0.0004 -0.9572 232 234 236
-1043.7507 333.0544 1848.6176 -0.1408 0.1836 -0.9729 228 230 231
187.6337 57.1407 312.8531 -0.5253 0.1926 -0.8288 77 76 83
172.7545 60.1897 329.6456 -0.7664 0.1378 -0.6274 215 212 215
163.5475 65.3874 355.3506 -0.4865 0.1275 -0.8643 29 23 30
157.5806 64.0833 353.0028 -0.3290 0.1853 -0.9260 255 255 255
150.7152 66.4894 364.4241 -0.3747 0.5479 -0.7479 41 43 49
138.3057 67.7527 375.4660 -0.7786 0.3676 -0.5085 128 129 135
120.5020 68.0939 372.3440 0.3748 0.4265 -0.8232 43 42 51
-989.6490 326.9811 1822.6349 -0.3114 0.3895 -0.8668 228 230 231
-997.8726 299.2699 1675.3638 0.4575 0.8261 -0.3291 230 232 234
191.4665 57.9787 312.6649 -0.4603 -0.0436 -0.8867 112 111 114
180.5099 58.6794 318.0569 -0.6800 0.2740 -0.6801 196 195 200
175.4902 60.8673 327.4537 -0.6699 0.1374 -0.7296 92 91 96
166.5393 62.3479 338.8379 -0.8605 0.1631 -0.4827 190 123 143
141.2339 68.5942 373.5597 -0.7021 0.4538 -0.5488 168 171 170
134.0744 71.5569 387.5430 -0.5900 0.5940 -0.5468 53 55 59
103.0159 67.8949 368.8070 -0.4564 0.0104 -0.8897 144 146 148
-965.7504 355.9154 1926.0477 0.5072 0.1687 -0.8452 227 229 230
-976.1650 333.2578 1798.2189 -0.1832 0.3657 -0.9125 225 227 229
-1040.2949 320.2372 1703.3969 0.4314 0.8738 -0.2245 227 229 230
192.6284 58.4750 311.0453 -0.4022 -0.2295 -0.8863 189 186 189
183.4632 59.4157 317.5315 -0.6068 0.1617 -0.7782 175 173 181
178.8921 61.6656 326.5083 -0.6106 0.1067 -0.7847 203 200 203
168.2812 62.7823 336.0878 -0.7741 0.0806 -0.6279 168 163 167
152.7868 66.9630 360.2896 -0.5936 0.5005 -0.6302 127 126 129
144.2767 69.1952 368.8143 -0.5659 0.5371 -0.6256 51 52 58
106.1313 68.5429 367.9314 0.1328 0.0982 -0.9863 116 118 122
-939.9384 358.7479 1948.0103 0.5815 0.2506 -0.7740 229 231 232
-989.6354 348.3488 1867.9453 0.2122 0.1648 -0.9632 230 232 234
-1044.1145 330.9721 1750.1207 0.2986 0.7872 -0.5396 225 227 229
185.8731 60.0596 315.9133 -0.6136 0.0036 -0.7896 225 223 223
170.6948 63.4131 333.9410 -0.7262 -0.0326 -0.6867 199 196 202
162.3541 65.1146 348.4428 -0.6396 -0.0615 -0.7663 117 112 116
155.6080 67.5711 357.8014 -0.6566 0.3448 -0.6708 176 175 178
135.6693 71.6756 382.2600 -0.7627 0.4257 -0.4870 60 64 67
111.0626 69.8266 370.2816 0.3427 0.3349 -0.8777 52 53 60
97.3949 71.2471 379.2695 -0.6710 -0.2397 -0.7017 114 114 123
-922.0587 364.5653 1985.3180 0.3689 -0.2013 -0.9074 229 231 232
-986.5632 358.4854 1902.4629 0.0145 -0.0715 -0.9973 232 234 236
-1009.8371 330.6368 1774.1075 0.2391 0.6082 -0.7569 230 232 234
193.3786 58.7059 306.5482 -0.0815 -0.3155 -0.9454 123 28 55
179.8130 61.9391 323.8105 -0.7194 -0.0359 -0.6937 205 204 207
165.7690 65.9167 345.1236 -0.7380 -0.0985 -0.6675 147 57 76
146.7852 69.6661 367.4772 -0.3629 0.5268 -0.7686 53 56 62
137.9356 72.0434 377.7589 -0.7480 0.3853 -0.5404 126 129 137
133.0378 76.1822 398.6715 -0.9139 0.2819 -0.2921 126 128 130
124.7335 73.7010 387.7251 0.0000 0.0000 0.0000 77 81 84
116.3350 71.2104 373.5488 0.3535 0.4259 -0.8328 33 35 41
-1079.0358 362.3598 1846.3016 0.2762 -0.1321 -0.9520 228 230 231
197.2823 59.6446 306.7902 0.1914 -0.2940 -0.9364 0 0 0
173.4585 64.0258 332.2366 -0.6640 -0.1369 -0.7351 180 176 182
167.7176 66.4191 341.7300 -0.8250 -0.0765 -0.5600 219 213 217
157.1455 67.9289 353.5917 -0.3972 -0.0423 -0.9167 206 206 206
150.3901 70.4516 367.0222 -0.3920 0.4740 -0.7884 139 141 145
97.9368 70.7340 371.8029 -0.7730 0.0804 -0.6293 87 88 95
-954.9984 359.3185 1873.5145 0.0916 -0.1116 -0.9895 230 232 234
-1014.0787 352.7276 1836.3470 -0.0365 0.1064 -0.9937 228 230 231
-1035.7256 326.6335 1701.4576 -0.3342 -0.4951 -0.8020 227 229 230
189.1080 60.9472 311.4408 -0.5123 -0.3921 -0.7641 226 223 227
181.0711 62.3146 319.4917 -0.6618 -0.1363 -0.7372 200 200 202
174.6193 64.3122 328.7375 -0.6223 -0.2449 -0.7435 212 211 216
161.6111 68.9000 352.2033 -0.4720 -0.1551 -0.8678 218 215 221
153.8097 71.2283 365.3466 -0.5575 0.3671 -0.7446 147 149 151
134.6888 76.2379 393.5364 -0.7634 0.4874 -0.4239 97 101 102
101.8944 71.6340 367.9144 -0.4017 0.2171 -0.8896 67 70 76
-957.6129 372.0703 1915.6981 0.5025 -0.0522 -0.8630 229 231 232
-1027.3984 368.1769 1833.7881 -0.0284 0.0683 -0.9973 230 232 234
-1079.7654 349.3480 1750.7305 0.3603 0.5485 -0.7545 223 225 227
184.1265 63.0474 318.4350 -0.5980 -0.2130 -0.7727 246 245 248
168.1193 66.4679 336.8733 -0.7640 -0.1962 -0.6147 213 199 204
162.5453 69.1288 347.8770 -0.6449 -0.4737 -0.5998 157 145 149
145.1509 73.6433 373.9466 -0.6776 0.3878 -0.6249 69 70 81
136.8182 76.5050 387.2240 -0.7925 0.4797 -0.3767 38 39 46
113.8362 69.7847 364.1610 0.7346 0.3740 -0.5661 74 75 82
105.3703 72.4563 368.2564 0.1658 0.3290 -0.9297 159 163 164
96.8289 75.4976 381.7007 -0.8445 0.2362 -0.4807 68 69 80
-940.8334 378.1395 1950.8350 0.2621 0.6011 -0.7550 228 230 231
-1006.5057 372.5415 1834.9058 -0.0384 0.1781 -0.9833 229 231 232
-1044.5244 348.6979 1768.2275 0.1790 0.5126 -0.8398 227 229 230
190.1597 61.2879 306.7201 -0.5496 -0.4728 -0.6887 219 213 217
184.1872 63.1544 315.0680 -0.5765 -0.3231 -0.7505 168 167 172
176.4583 64.7250 324.6649 -0.6069 -0.2560 -0.7524 151 150 157
155.6781 71.5724 362.0722 -0.7084 0.3656 -0.6037 94 94 98
111.1680 73.7735 372.4350 0.3268 0.4766 -0.8161 30 36 43
-948.1103 393.5953 1974.1680 0.1738 0.5238 -0.8339 230 232 234
-987.9672 377.7316 1885.7467 0.1535 0.3855 -0.9099 224 226 228
-1044.1580 359.0355 1799.2140 -0.2214 0.1517 -0.9633 225 227 229
191.1045 61.6396 305.1451 -0.2460 -0.4897 -0.8365 153 141 145
178.3896 65.2333 322.3242 -0.6738 -0.3044 -0.6733 221 220 225
168.3137 66.5333 332.8520 -0.7236 -0.2237 -0.6530 167 164 169
163.5496 69.2607 344.1111 -0.7012 -0.3493 -0.6215 151 106 119
157.7508 71.9714 356.1344 -0.6011 0.1237 -0.7896 183 182 185
146.9416 73.9114 368.7157 -0.5850 0.3015 -0.7529 64 65 71
138.4160 76.4961 381.2361 -0.7182 0.4937 -0.4903 131 133 135
133.1207 80.8706 402.8212 -0.9045 0.3455 -0.2499 97 99 105
115.6018 75.2941 374.5048 0.3462 0.5203 -0.7807 74 75 84
98.4942 75.2395 375.0609 -0.7800 0.3516 -0.5177 147 149 155
-922.9246 396.9611 1972.4005 0.4064 0.1413 -0.9027 232 234 236
-1043.7710 369.7196 1826.7358 0.0493 -0.2045 -0.9776 234 236 237
185.8556 63.5844 311.8366 -0.5167 -0.3826 -0.7659 190 189 192
170.5317 67.0623 330.0425 -0.6885 -0.2820 -0.6681 236 236 238
149.5829 74.5132 367.0852 -0.4424 0.2375 -0.8648 151 152 159
141.6453 77.1599 378.2556 -0.6151 0.4415 -0.6533 83 82 85
-905.3790 403.2503 1975.9448 0.3665 -0.3694 -0.8539 243 245 246
-953.5149 377.1234 1889.9087 0.3252 0.3272 -0.8872 230 232 234
-1029.3267 375.7592 1837.7230 0.0053 -0.1545 -0.9880 228 230 231
-1075.3722 355.5870 1739.9131 -0.4745 0.3440 -0.8103 229 231 232
188.5425 64.1803 309.7662 -0.6770 -0.2520 -0.6915 203 201 201
179.3580 65.5348 319.4844 -0.7133 -0.3382 -0.6138 243 240 243
164.0124 69.2143 338.2333 -0.8088 -0.2411 -0.5364 149 62 78
157.3675 71.7301 348.4936 -0.5265 -0.2822 -0.8020 255 255 255
153.4821 75.4924 366.7848 -0.4243 0.0212 -0.9053 157 157 159
133.8960 80.5665 396.6714 -0.8363 0.3338 -0.4350 100 102 103
101.7825 75.8803 370.7616 -0.4169 0.4640 -0.7816 64 74 82
-1008.6477 380.0903 1828.2272 -0.3188 -0.4657 -0.8255 224 226 228
-1068.1694 363.5054 1762.2687 0.1767 0.1813 -0.9674 217 219 221
181.3004 66.0156 316.6431 -0.6763 -0.3118 -0.6673 212 211 214
172.3768 67.4557 326.7120 -0.7084 -0.2921 -0.6426 214 214 216
166.4155 69.8386 336.5221 -0.7915 -0.2626 -0.5519 196 110 123
145.3289 78.0206 376.3486 -0.7567 0.2657 -0.5973 132 131 136
137.6143 81.3046 392.8247 -0.8151 0.3478 -0.4632 162 161 164
131.6395 85.6977 415.4487 -0.8740 0.0593 -0.4823 142 146 150
111.6768 78.7075 376.9838 0.2781 0.6322 -0.7232 75 78 84
106.1310 77.0557 372.7682 0.1947 0.6212 -0.7591 112 113 122
-980.2765 412.3391 1989.9872 -0.1637 0.2366 -0.9577 230 232 234
-1063.7124 372.5329 1790.5082 0.2181 0.1931 -0.9566 227 229 230
188.6738 64.3198 306.0164 -0.6838 -0.2113 -0.6984 165 129 139
174.2275 67.8208 323.5724 -0.6969 -0.2263 -0.6805 198 195 201
159.7686 72.2524 346.5474 -0.5971 -0.3478 -0.7228 255 255 255
148.0956 78.5345 371.3280 -0.7988 0.0260 -0.6011 84 83 90
141.0176 81.9521 389.1990 -0.7880 0.3866 -0.4792 104 102 110
135.4156 86.5002 411.4173 -0.9134 0.2108 -0.3481 154 153 158
-895.4633 391.4966 1897.2211 0.2423 0.2025 -0.9488 231 233 235
-946.4706 369.3917 1803.2313 0.4428 -0.3508 -0.8252 222 224 226
-1059.9265 382.1372 1793.9048 0.1623 -0.1380 -0.9771 231 233 235
190.6456 64.8557 304.9648 -0.4564 -0.1358 -0.8793 179 90 109
182.5921 66.2986 312.6305 -0.5483 -0.2002 -0.8120 204 203 208
177.3045 68.5533 321.6456 -0.6892 -0.2040 -0.6953 251 248 251
168.2380 70.1951 332.1583 -0.7844 -0.1863 -0.5916 192 187 191
162.3099 72.7241 343.0014 -0.5945 -0.3656 -0.7162 157 147 152
157.0044 76.0599 365.4336 -0.6120 0.0821 -0.7866 141 140 145
147.8347 78.0946 365.0257 -0.4646 -0.1986 -0.8630 107 108 112
99.3696 80.3231 381.3343 -0.7494 0.3602 -0.5556 85 91 98
-587.1557 386.6286 1825.3311 0.0000 0.0000 0.0000 235 239 243
-871.9940 394.5752 1911.4160 0.2423 0.2025 -0.9488 231 233 235
-993.5880 398.3353 1873.9307 -0.2104 0.4129 -0.8861 228 230 231
-1052.1660 355.6243 1682.8853 0.2664 -0.3998 -0.8771 225 227 229
184.9862 66.8446 311.8720 -0.5288 -0.1186 -0.8404 204 203 206
170.5300 70.6641 330.0440 -0.7441 -0.2397 -0.6236 217 215 215
154.2647 74.9004 355.6659 -0.7023 0.0997 -0.7048 132 128 136
142.0660 81.5943 382.0342 -0.7803 0.2809 -0.5587 61 58 63
135.5693 85.7945 401.2036 -0.8996 0.1535 -0.4087 121 125 131
101.1711 80.2230 374.9491 -0.3244 0.6131 -0.7203 109 112 118
-912.0453 425.3696 2034.6564 0.0379 -0.0209 -0.9991 232 234 236
-982.4548 406.4730 1912.6796 0.0255 0.3699 -0.9287 230 232 234
-1031.7911 394.9691 1818.8076 -0.4823 -0.2916 -0.8261 221 223 224
-1005.9160 374.7560 1771.0820 -0.3206 0.2451 -0.9150 230 232 234
-1023.2135 356.2479 1714.0414 0.5654 -0.6464 -0.5124 227 229 230
186.8876 67.2888 310.3335 -0.7513 0.0328 -0.6592 229 229 229
178.9583 68.9604 319.6947 -0.7984 -0.1355 -0.5867 253 250 253
172.5641 71.0920 327.6674 -0.7180 -0.2724 -0.6405 186 183 186
164.9757 73.3050 339.9204 -0.6230 -0.4440 -0.6440 146 48 63
157.9417 75.8973 351.2469 -0.5397 0.0260 -0.8414 255 255 255
153.4216 79.3304 364.7167 -0.4833 -0.2946 -0.8244 119 116 120
145.8992 82.5442 378.8523 -0.8318 0.1311 -0.5393 45 46 53
131.6244 90.5749 418.9088 -0.8961 0.0187 -0.4434 168 167 170
107.2348 82.0983 378.8811 0.1886 0.6735 -0.7147 204 203 206
-960.5828 410.5557 1912.4863 0.0960 0.3764 -0.9215 229 231 232
-1120.7247 398.3748 1777.7794 -0.1665 -0.3145 -0.9345 227 231 235
180.4200 69.2279 315.8379 -0.8233 -0.1168 -0.5554 173 170 175
167.3696 73.8195 337.7802 -0.7195 -0.3489 -0.6005 170 84 90
161.4229 76.6154 349.2047 -0.4933 0.1307 -0.8600 255 255 255
138.3380 86.1076 395.7454 -0.8705 0.0816 -0.4853 119 121 127
130.0983 97.2187 442.3449 -0.4418 0.6242 -0.6444 195 197 199
-979.4039 387.4034 1788.9521 0.0107 -0.2249 -0.9743 225 227 229
-1029.9598 378.7795 1775.6357 -0.1436 0.0532 -0.9882 224 226 228
-1197.1594 408.5215 1668.4761 0.0000 0.0000 0.0000 0 0 0
189.0459 67.8543 307.7630 -0.7723 0.0628 -0.6322 162 152 160
175.0084 71.6156 324.7460 -0.6761 -0.3091 -0.6688 212 209 215
168.7499 74.0034 333.1182 -0.6954 -0.3292 -0.6388 199 193 200
155.2077 79.6115 363.3540 -0.5477 -0.4137 -0.7272 159 156 161
146.8630 82.3143 370.0165 -0.8576 -0.1409 -0.4946 115 111 117
140.2279 86.0658 390.3275 -0.8761 -0.0108 -0.4820 158 154 160
134.1201 90.8470 412.9849 -0.9331 -0.1320 -0.3345 97 100 108
-941.2662 429.1122 1964.2123 0.2611 -0.5407 -0.7997 227 229 230
-959.9193 391.7375 1792.4569 0.6362 0.2423 -0.7325 220 222 223
-1070.0050 403.5502 1792.8878 -0.0174 0.0544 -0.9984 227 229 230
191.0122 68.2515 305.2985 -0.6128 0.1159 -0.7817 149 142 144
181.7725 69.5097 312.9001 -0.6006 -0.0105 -0.7994 172 168 174
177.5437 72.1614 323.2943 -0.5482 -0.3640 -0.7530 190 187 193
130.5489 96.3108 431.0407 -0.7675 0.4375 -0.4685 158 158 160
-966.9008 406.2712 1829.0504 -0.1985 0.1357 -0.9707 231 233 235
-1024.2162 363.1196 1637.9590 -0.5848 0.2156 -0.7820 227 228 232
185.5821 70.4112 313.7000 -0.5203 -0.0296 -0.8534 145 142 147
169.8333 74.1526 329.9314 -0.6889 -0.3538 -0.6327 215 212 215
163.7467 76.7953 339.1249 -0.4742 -0.5603 -0.6791 126 106 104
153.6660 78.8621 355.0387 -0.4221 -0.0354 -0.9059 111 110 113
147.9697 82.2501 366.1300 -0.6608 -0.3389 -0.6697 140 139 144
141.6411 85.8781 383.3479 -0.8740 -0.1669 -0.4565 38 39 46
135.0928 90.1779 401.8669 -0.9196 -0.1478 -0.3640 137 138 145
-918.8383 447.3859 2029.2202 0.0541 -0.1760 -0.9829 231 233 235
-1001.2699 432.6440 1920.1605 0.3675 0.1467 -0.9184 237 239 241
-1030.4409 400.9039 1778.3312 -0.2159 0.2290 -0.9492 232 234 236
-1063.5643 386.1987 1681.2760 -0.2660 0.0373 -0.9633 225 227 231
192.6210 68.5895 304.2797 -0.5436 0.1642 -0.8231 210 203 203
187.4501 70.8523 311.1206 -0.6051 -0.0500 -0.7946 130 122 130
178.4458 72.3157 320.2493 -0.5808 -0.3056 -0.7545 224 221 224
171.9976 74.5978 327.6618 -0.6739 -0.3779 -0.6349 236 233 236
158.3665 79.9264 351.4308 -0.5481 -0.4341 -0.7150 255 255 255
151.3567 83.0200 364.2501 -0.5881 -0.4128 -0.6955 71 68 74
131.2780 95.3303 419.3633 -0.9351 -0.1914 -0.2983 155 155 155
125.8051 101.8788 460.8145 -0.7163 -0.5293 -0.4546 255 255 255
-977.3153 436.0124 1914.2206 0.0956 -0.0172 -0.9953 229 231 232
-988.0774 396.6068 1791.2592 -0.1726 0.1724 -0.9698 229 231 232
-1085.5320 404.4153 1775.2896 -0.0227 -0.1003 -0.9947 222 224 226
180.8263 72.8129 317.5874 -0.6307 -0.2978 -0.7166 194 188 195
163.5647 76.4839 333.9352 -0.6452 -0.4373 -0.6266 210 120 141
143.7227 86.0736 379.1373 -0.8583 -0.2079 -0.4692 132 133 140
136.4738 89.5310 395.8006 -0.9016 -0.2421 -0.3585 67 68 75
129.7339 102.4935 450.8210 -0.8921 -0.0357 -0.4505 160 162 166
-967.7000 445.5253 1919.4154 0.1397 -0.4385 -0.8878 228 229 233
-971.0430 401.5747 1783.6885 0.2514 0.4106 -0.8765 236 238 239
188.3188 71.0739 308.3551 -0.6579 -0.0956 -0.7470 178 171 175
182.2505 73.1881 314.4789 -0.4577 -0.2804 -0.8437 238 235 238
172.8245 74.6271 322.9789 -0.6577 -0.4491 -0.6048 153 150 155
156.3407 78.9141 345.1447 -0.5065 -0.2610 -0.8218 255 255 255
152.5419 82.8625 360.9945 -0.7397 -0.4644 -0.4870 90 87 90
145.5503 86.1482 369.7938 -0.8447 -0.2320 -0.4824 126 125 128
132.5406 94.7414 410.6335 -0.9417 -0.2183 -0.2560 39 42 48
-973.5765 414.5114 1791.4833 0.4117 0.6479 -0.6409 225 227 229
-1015.9175 390.8208 1744.0308 0.5201 -0.1118 -0.8468 231 233 235
190.2247 71.4701 306.5151 -0.4596 -0.1683 -0.8720 185 169 158
185.1826 73.8433 313.9136 -0.4300 -0.3676 -0.8246 255 255 255
165.5610 76.8454 330.5797 -0.6872 -0.4093 -0.6002 229 131 144
138.1098 89.6506 388.0667 -0.8534 -0.3715 -0.3656 45 43 55
130.5386 101.5796 435.6474 -0.9410 0.1552 -0.3006 168 167 172
-983.1778 430.7766 1840.5551 0.3540 0.5681 -0.7429 228 230 231
-1066.2167 432.0254 1796.9117 0.1077 0.3792 -0.9190 230 232 234
-1019.4441 402.9883 1775.0011 -0.3284 0.2711 -0.9048 230 232 234
193.1431 72.1556 305.2174 -0.3247 -0.1963 -0.9252 171 84 90
173.2620 74.6398 320.0240 -0.5632 -0.4620 -0.6851 187 184 187
168.2204 77.4483 328.8215 -0.7038 -0.3597 -0.6126 236 213 212
158.3145 79.2224 338.1165 -0.4203 0.2331 -0.8769 255 255 255
153.0542 82.5530 352.1786 -0.7259 -0.3332 -0.6017 152 151 159
146.8419 86.0288 366.2555 -0.7851 -0.2418 -0.5702 35 34 39
140.3703 90.0252 383.2380 -0.8530 -0.3755 -0.3624 123 122 131
134.5539 94.6214 402.1411 -0.9207 -0.2777 -0.2742 94 95 99
-919.0251 466.5927 1995.9742 0.1028 -0.0046 -0.9947 229 231 232
-958.8893 433.4612 1864.5068 0.3540 0.2210 -0.9087 229 231 235
-1006.8495 383.0267 1641.4283 -0.4424 0.4955 -0.7475 235 237 238
186.6456 74.0891 310.6758 -0.4836 -0.5248 -0.7005 195 183 189
176.5343 75.3875 318.0008 -0.5452 -0.4270 -0.7214 177 174 180
161.1416 79.7854 336.5574 -0.5380 0.0394 -0.8420 167 155 161
-990.6304 460.3558 1869.9087 -0.3549 -0.1687 -0.9195 227 229 230
-1033.8787 431.6884 1821.0708 0.0314 0.6285 -0.7771 230 232 234
179.0006 75.9366 315.9016 -0.5553 -0.3655 -0.7470 187 184 187
169.3840 77.4559 325.2359 -0.6899 -0.2573 -0.6766 238 235 238
163.7824 80.2895 334.6492 -0.6703 -0.3213 -0.6689 156 135 142
153.7682 82.3405 348.2292 -0.7304 -0.1706 -0.6614 128 130 131
148.9558 86.1808 362.9619 -0.7391 -0.3433 -0.5796 21 18 24
142.5761 89.9491 376.9753 -0.8779 -0.2560 -0.4046 100 99 104
135.8892 94.2916 394.7122 -0.8993 -0.2149 -0.3808 101 103 104
129.5301 99.3637 418.2128 -0.8750 0.2338 -0.4239 163 163 165
128.5048 106.9969 448.2917 -0.8505 -0.1221 -0.5116 223 225 227
-865.5080 455.5398 1991.8419 0.2774 0.3179 -0.9066 234 236 237
-1049.9928 450.5606 1833.6793 0.0366 0.2936 -0.9552 225 227 229
-1017.3443 397.2348 1666.9795 -0.4717 0.4408 -0.7637 230 232 234
187.6857 74.2756 307.9102 -0.4316 -0.5190 -0.7378 183 108 117
171.8118 77.9984 322.0825 -0.6491 -0.1264 -0.7502 208 205 208
155.6605 82.4937 343.9320 -0.5095 -0.0050 -0.8605 155 154 157
150.8682 86.2412 358.0314 -0.8455 -0.2706 -0.4604 128 125 131
131.5306 99.2260 411.2743 -0.9395 0.0428 -0.3399 189 187 187
-929.1468 460.7521 1907.0743 -0.4934 0.0484 -0.8684 230 232 234
-893.3309 430.8213 1850.9655 0.0552 0.6842 -0.7272 224 226 228
-981.1142 435.0558 1817.2041 -0.3108 0.4392 -0.8429 229 231 232
190.9710 75.0300 306.8400 -0.3151 -0.4829 -0.8170 183 103 121
179.2342 75.9144 312.7571 -0.5068 -0.3550 -0.7856 237 237 239
165.1952 80.4668 331.1353 -0.7472 -0.1417 -0.6493 165 65 92
143.7532 89.6471 370.6487 -0.8652 -0.1693 -0.4721 52 51 58
136.9156 93.4992 386.1143 -0.8891 -0.0687 -0.4525 137 137 139
131.2153 107.0361 439.4727 -0.9532 0.0067 -0.3022 193 192 197
-1054.4572 479.1145 1887.9957 0.0000 0.0000 0.0000 223 225 229
191.2336 75.1023 304.4675 -0.2908 -0.4515 -0.8435 128 85 111
180.4213 76.0826 310.9376 -0.5660 -0.3573 -0.7429 182 178 186
172.9299 78.1172 319.3074 -0.5909 0.0074 -0.8067 182 179 184
167.1935 80.8281 328.5583 -0.7755 -0.0696 -0.6275 207 138 145
152.8383 86.4235 353.6100 -0.8461 -0.1991 -0.4945 126 123 129
145.5862 89.6426 365.3621 -0.8539 -0.1787 -0.4889 151 151 155
132.0713 98.1412 400.2876 -0.9283 0.0979 -0.3588 179 179 179
-889.0027 455.8958 1983.9840 -0.3284 -0.5412 -0.7741 236 238 239
-961.4225 452.1656 1853.2842 -0.0622 -0.3251 -0.9436 228 229 233
-1039.0876 439.3106 1782.7357 -0.3598 -0.2134 -0.9083 225 227 229
174.7435 78.4017 316.5349 -0.5937 0.0026 -0.8047 213 212 217
154.8673 86.7018 348.8747 -0.8247 -0.0891 -0.5585 111 113 119
137.8018 92.9847 379.6914 -0.8696 -0.0693 -0.4888 64 65 69
131.7494 105.6473 428.4621 -0.9270 0.3403 -0.1575 173 173 175
-961.5589 465.8279 1851.1832 -0.2088 -0.0631 -0.9759 225 227 229
-976.1889 425.8234 1752.8090 -0.3162 -0.0534 -0.9472 229 231 235
191.3427 75.0254 300.8404 0.0243 -0.3085 -0.9509 123 112 113
182.2062 76.3775 306.9651 -0.4987 -0.4127 -0.7622 255 253 255
177.6977 79.1217 315.0021 -0.6411 -0.0213 -0.7671 215 209 216
169.0108 80.9215 325.4909 -0.6894 0.1105 -0.7159 173 168 172
148.2434 90.0442 362.9858 -0.8215 -0.0617 -0.5669 67 69 73
140.7182 93.4389 375.5444 -0.8663 0.0623 -0.4956 155 154 159
133.9166 97.8117 393.8893 -0.8065 0.2324 -0.5437 141 138 142
128.3736 112.4039 449.9932 -0.8443 -0.0213 -0.5355 255 255 255
-902.5587 492.6817 2034.8667 0.2678 0.5592 -0.7846 235 236 240
-979.2830 488.2798 1911.0680 0.2594 0.1249 -0.9577 234 235 239
-1025.1091 458.4455 1834.1937 -0.0631 0.2281 -0.9716 237 239 243
-1074.9164 435.1628 1694.0815 0.2972 -0.9514 -0.0806 222 224 228
184.5564 76.8490 304.9072 -0.3825 -0.3005 -0.8737 195 192 195
171.4699 81.4811 323.7362 -0.6523 0.2317 -0.7217 181 175 184
161.8862 83.4186 334.4707 -0.7664 -0.0301 -0.6416 142 136 141
156.1028 86.5998 344.0627 -0.5198 -0.0386 -0.8534 159 159 161
149.9844 90.0779 357.2440 -0.8162 -0.0094 -0.5777 122 124 125
132.0708 104.3013 415.5738 -0.9178 0.3248 -0.2284 180 180 184
-862.0139 487.2917 2020.3824 -0.2672 0.4232 -0.8658 234 235 239
-892.5125 460.9821 1891.3315 -0.5158 0.3592 -0.7777 231 233 235
-1024.5105 471.2379 1838.1660 -0.1909 -0.1249 -0.9736 230 232 236
186.5920 77.3108 304.2075 -0.3224 -0.2985 -0.8983 229 226 229
180.3410 79.6509 313.9442 -0.6810 -0.0633 -0.7296 224 221 224
174.2988 82.0980 322.2551 -0.6991 0.2767 -0.6593 158 152 159
164.4787 83.9703 331.0572 -0.7491 -0.1155 -0.6523 199 116 126
159.3968 87.4585 343.8543 -0.5354 0.1041 -0.8382 255 255 255
142.6584 93.4139 371.4019 -0.8513 0.1209 -0.5106 197 196 201
136.7239 98.1085 389.5312 -0.8512 0.3075 -0.4254 169 168 173
130.3406 111.4044 441.3829 -0.9389 0.0854 -0.3333 178 177 182
-933.0937 495.7199 1969.4878 0.4619 0.7552 -0.4652 231 233 235
-959.2277 455.7386 1802.3724 -0.0239 0.0995 -0.9948 229 231 232
181.7881 79.8890 311.5611 -0.7708 -0.0205 -0.6367 255 255 255
176.5088 82.5604 319.5572 -0.7355 0.1917 -0.6499 209 206 209
167.0080 84.4337 328.9995 -0.7621 -0.0661 -0.6441 195 111 123
162.8861 88.2058 344.1582 -0.5928 -0.2372 -0.7697 255 255 255
151.9328 90.2120 354.5602 -0.8191 0.1276 -0.5593 116 115 122
145.7659 93.9409 366.6607 -0.8392 0.1785 -0.5137 108 108 110
139.2402 98.1619 383.4510 -0.8505 0.3610 -0.3826 52 50 62
132.9738 103.4833 406.4442 -0.9017 0.3583 -0.2420 197 194 198
132.3086 111.2625 433.7187 -0.9627 0.1534 -0.2228 152 152 155
-954.6943 466.8048 1825.0162 -0.1614 0.1681 -0.9725 232 234 236
-1062.0571 466.1952 1785.7230 -0.3245 0.0020 -0.9459 228 230 231
-1095.6226 448.8245 1774.1040 0.5294 0.7801 -0.3333 222 224 228
183.3736 80.2285 308.3415 -0.8038 0.0137 -0.5948 255 255 255
169.2818 84.8073 326.9124 -0.6177 0.0351 -0.7857 202 156 158
135.2980 103.4013 397.9915 -0.8130 0.4679 -0.3466 173 173 175
-984.3999 494.6093 1889.8501 -0.3396 0.7335 -0.5888 232 234 238
-1013.7093 458.4904 1773.1195 -0.2854 0.0534 -0.9569 234 235 239
-1107.3356 465.1779 1793.7778 0.5294 0.7801 -0.3333 231 233 237
178.0947 82.7374 316.4437 -0.6976 0.0255 -0.7161 179 179 181
150.5314 89.0075 349.1249 -0.8289 0.1808 -0.5293 112 111 118
145.8820 93.1922 361.3128 -0.7834 0.2461 -0.5707 148 147 152
142.0303 98.4865 378.6848 -0.7844 0.4298 -0.4472 141 140 145
134.3390 110.7273 423.0213 -0.9423 0.2930 -0.1617 132 134 136
-986.1345 459.1535 1772.3203 0.1739 0.3113 -0.9343 230 232 236
184.5438 80.3816 306.1661 -0.6481 -0.0426 -0.7604 200 200 202
171.8508 85.3166 325.7323 -0.5157 0.0690 -0.8540 204 201 205
160.0629 86.5486 332.9431 -0.6772 0.1459 -0.7212 122 120 132
155.1787 90.3085 345.6240 -0.5914 0.2422 -0.7692 89 86 91
150.2183 94.2975 359.4289 -0.6760 0.3683 -0.6383 140 142 146
137.2948 103.2176 394.8123 -0.7293 0.5490 -0.4083 106 105 110
133.1993 119.1160 442.0457 -0.9533 0.0454 -0.2987 147 146 151
-968.6157 516.7817 1964.6289 0.3373 0.4646 -0.8188 231 233 235
-982.9547 470.5628 1793.9404 -0.0435 0.3715 -0.9274 237 239 243
-1096.0865 485.4132 1801.4349 -0.6338 -0.2514 -0.7315 230 232 236
-1031.6392 446.7175 1717.2461 0.0118 0.5661 -0.8242 227 228 232
178.9266 82.7876 314.0324 -0.6743 -0.1035 -0.7312 132 129 134
175.0545 86.0113 324.1005 -0.6634 0.0281 -0.7478 245 242 245
164.1507 87.5773 332.1000 -0.7109 0.1194 -0.6931 127 114 123
158.8900 91.1764 345.1848 -0.5266 0.2423 -0.8148 160 157 162
142.4281 97.6941 374.1908 -0.7671 0.4582 -0.4491 130 131 138
134.2585 109.0901 413.5911 -0.8862 0.3840 -0.2594 220 220 222
-985.8047 485.1547 1810.2119 -0.3080 0.1413 -0.9408 229 231 235
181.8681 83.3964 312.6090 -0.7223 -0.0771 -0.6873 161 157 166
175.5883 85.8733 320.2672 -0.7877 -0.0579 -0.6134 212 211 214
165.8575 87.7048 328.9049 -0.7699 0.0642 -0.6349 215 169 169
152.2645 94.3356 355.9258 -0.6972 0.4218 -0.5797 130 129 136
145.8411 98.2220 369.8677 -0.7643 0.4859 -0.4239 120 120 122
139.6804 103.1432 389.6136 -0.7783 0.5224 -0.3484 161 163 167
131.9426 116.1650 436.3030 -0.9531 -0.0147 -0.3022 150 151 155
-1046.6902 477.2452 1774.9214 -0.0173 0.2743 -0.9615 220 221 225
-1153.9714 489.0411 1826.1188 0.0000 0.0000 0.0000 225 227 231
189.1377 81.2284 303.6893 -0.3697 -0.0834 -0.9254 241 239 242
182.5407 83.3000 309.6489 -0.7869 -0.0141 -0.6170 180 177 180
159.5585 90.8429 340.4965 -0.7381 0.2209 -0.6375 255 255 255
154.8504 94.7948 353.0912 -0.8090 0.3706 -0.4563 175 172 177
148.1121 98.4642 365.9079 -0.7495 0.4645 -0.4717 149 151 152
141.7170 102.8395 383.1649 -0.7582 0.5237 -0.3884 130 130 134
136.9882 108.8974 405.3723 -0.8168 0.4814 -0.3178 157 158 162
-1009.1440 473.5946 1769.6859 -0.0535 0.2431 -0.9685 230 232 236
192.0300 81.9765 303.0387 -0.1022 -0.0959 -0.9901 207 207 207
177.1112 86.1527 316.1406 -0.7583 -0.1090 -0.6428 108 104 112
167.5791 87.8593 326.0808 -0.6366 0.0353 -0.7704 163 87 104
161.1167 90.8286 335.7952 -0.7004 0.3474 -0.6236 255 255 255
156.7360 94.8560 348.3896 -0.6618 0.3595 -0.6579 162 159 163
133.6568 115.4664 428.9796 -0.9667 0.0178 -0.2553 170 169 174
-935.5987 488.8365 1826.3158 0.1430 0.3413 -0.9290 228 229 233
-1008.2999 486.1082 1799.1635 0.1452 0.6821 -0.7167 225 227 231
-1017.9517 445.9692 1700.1704 -0.5398 -0.4786 -0.6925 227 228 232
184.2471 83.5280 306.0446 -0.7473 -0.0362 -0.6635 211 208 212
170.5415 88.5549 325.5719 -0.5006 -0.0054 -0.8657 168 128 126
150.0796 98.4914 361.8384 -0.6062 0.5399 -0.5839 112 114 120
144.4999 103.1336 379.4482 -0.7125 0.5723 -0.4060 173 173 177
138.2617 108.2437 399.4588 -0.7209 0.5588 -0.4100 183 182 187
130.2713 123.0398 451.5290 -0.1961 0.8832 -0.4260 248 248 250
-936.0938 503.3958 1887.8330 -0.3694 0.3639 -0.8551 232 234 238
-1014.7914 502.5502 1821.0879 0.1322 0.3306 -0.9345 224 226 230
186.8141 84.2673 304.7975 -0.5630 -0.1247 -0.8170 206 204 207
178.1966 86.0365 313.3249 -0.6429 -0.0925 -0.7603 167 164 169
172.4727 88.8237 323.2416 -0.6329 -0.0058 -0.7742 252 237 242
163.5029 91.1077 332.7990 -0.5767 0.5194 -0.6306 255 255 255
158.7646 95.0653 345.6384 -0.5861 0.4074 -0.7003 139 138 141
153.5364 99.2110 361.5995 -0.5327 0.6054 -0.5915 120 119 126
147.0176 103.3466 376.1082 -0.7023 0.5928 -0.3941 190 189 194
142.0380 109.0942 397.0094 -0.7697 0.5109 -0.3827 150 151 157
135.1955 114.6539 416.9745 -0.9455 0.1476 -0.2901 171 171 171
-526.5190 498.0191 1947.8154 0.0000 0.0000 0.0000 255 255 255
-963.1204 548.4887 2035.3613 0.5929 -0.7528 -0.2857 237 239 243
-993.6124 506.3957 1832.4292 -0.0821 0.5155 -0.8530 227 228 232
-1043.6176 480.4800 1753.7744 0.4964 0.4755 -0.7263 230 232 236
179.8525 86.2343 311.5879 -0.6456 -0.0025 -0.7637 232 229 232
166.1586 91.7908 331.8881 -0.6851 0.4251 -0.5915 107 101 108
160.5788 95.1421 343.6963 -0.6976 0.4268 -0.5755 119 116 122
130.8649 120.9255 435.1049 -0.9415 -0.0888 -0.3251 209 211 213
-849.2576 550.1151 2071.0188 0.0000 0.0000 0.0000 238 240 244
-1049.0358 495.4802 1770.7506 0.0947 0.1053 -0.9899 229 231 235
188.0946 84.2907 302.9737 -0.3880 -0.2210 -0.8948 201 198 201
182.5589 86.7158 309.5980 -0.7311 0.0566 -0.6799 209 206 209
172.9833 88.5779 318.8839 -0.7656 0.0426 -0.6420 223 218 222
167.2416 91.4613 326.3319 -0.6493 0.2326 -0.7241 158 128 141
153.4404 98.2657 354.9526 -0.7870 0.4649 -0.4056 149 148 153
148.2165 102.8415 370.3149 -0.7306 0.5872 -0.3485 168 167 172
143.3435 108.3887 388.7767 -0.7918 0.4856 -0.3705 154 153 158
137.9284 114.5783 411.3265 -0.8944 0.2593 -0.3643 136 135 140
-989.8204 533.5779 1858.0381 -0.1459 0.5634 -0.8132 230 232 236
-935.8101 492.0524 1833.9320 0.0749 0.4359 -0.8969 223 225 229
-1037.3329 503.3678 1797.4857 -0.0387 0.4103 -0.9111 230 232 236
190.4457 84.7745 301.0311 -0.1376 -0.2660 -0.9541 139 134 140
175.0179 88.9495 315.9378 -0.7271 0.1802 -0.6625 238 235 238
167.7509 96.6609 338.4403 -0.5419 0.5882 -0.6003 96 91 97
162.4034 95.1700 339.9893 -0.6038 0.5350 -0.5910 255 255 255
155.8757 98.5922 350.7020 -0.7388 0.4190 -0.5278 142 139 145
139.1202 113.5197 404.1255 -0.7992 0.3641 -0.4782 178 179 183
133.6299 120.6528 429.7307 -0.9663 -0.0187 -0.2567 154 153 158
-986.8478 547.4294 1898.5397 0.1126 0.1925 -0.9748 232 234 238
-1078.8983 536.4247 1873.3351 0.2459 0.5302 -0.8115 230 232 236
184.4320 87.0083 306.9886 -0.7610 0.0771 -0.6441 175 172 175
176.8176 89.2246 313.5688 -0.6445 0.2418 -0.7253 255 255 255
170.2799 92.0689 325.0728 -0.5498 0.2115 -0.8081 138 40 57
150.1805 102.7586 365.1041 -0.5526 0.5888 -0.5900 109 109 113
144.9366 107.9999 385.0346 -0.7200 0.5151 -0.4649 176 175 180
-878.3920 550.7874 2037.5450 0.5105 -0.2900 -0.8095 232 234 238
-1064.5400 544.1572 1860.1938 -0.1239 0.3651 -0.9227 218 220 224
-1080.2998 500.8391 1746.5651 0.1016 -0.2488 -0.9632 225 227 231
172.8581 92.5794 323.8737 -0.6582 0.2622 -0.7057 133 27 61
166.9871 95.9139 334.3719 -0.6009 0.5921 -0.5370 97 89 96
158.4139 98.8632 348.0229 -0.6109 0.5205 -0.5965 120 118 121
160.3915 105.6815 363.6572 -0.5906 0.5206 -0.6165 134 131 135
153.3890 103.3399 363.8358 -0.5321 0.6208 -0.5757 147 146 151
148.0744 108.4437 381.6741 -0.7269 0.4940 -0.4770 178 178 180
143.2108 114.4693 401.8423 -0.8198 0.3001 -0.4876 138 140 144
135.5195 119.9379 420.8602 -0.9570 0.0789 -0.2790 74 76 80
-1008.7745 531.3760 1820.3931 0.0653 -0.2567 -0.9643 228 229 233
-1053.6521 501.7566 1749.0482 0.1256 0.3630 -0.9233 227 228 232
184.1974 86.6414 303.1147 -0.6467 0.0661 -0.7599 229 226 227
179.7537 89.7186 312.4110 -0.6327 0.2767 -0.7232 206 204 207
175.0316 92.8906 322.1761 -0.7264 0.2725 -0.6309 180 134 152
161.2241 99.3453 346.0966 -0.6136 0.5379 -0.5781 255 255 255
151.4036 108.9345 377.5946 -0.7441 0.4702 -0.4746 97 99 101
131.3597 126.4517 436.6184 -0.9516 0.0522 -0.3028 133 135 141
-1019.7988 551.7806 1881.8545 -0.1193 -0.1528 -0.9810 225 227 231
-1074.2747 524.2579 1783.0704 -0.2068 0.4314 -0.8781 224 226 230
186.7397 87.1653 301.2906 -0.4703 -0.0488 -0.8811 240 238 239
182.0106 90.1015 310.0298 -0.6815 0.3071 -0.6643 223 220 223
167.4902 95.3954 330.2333 -0.7314 0.4881 -0.4761 149 135 138
163.1726 99.4115 344.9189 -0.5753 0.5576 -0.5985 255 255 255
143.7078 113.2207 394.0912 -0.8849 0.2711 -0.3788 159 160 167
137.1068 119.0432 413.6603 -0.9286 0.1376 -0.3445 126 125 128
-979.9170 546.3311 1870.3517 -0.2341 -0.3329 -0.9134 210 212 216
-1052.5753 527.8176 1839.8475 -0.4407 0.2639 -0.8580 234 235 239
176.8349 93.1044 318.4491 -0.7235 0.4003 -0.5624 219 216 220
170.8118 96.0723 327.3398 -0.6600 0.4370 -0.6110 125 14 38
157.9042 103.5634 355.5181 -0.7169 0.5622 -0.4124 179 176 179
153.7948 108.9950 373.6667 -0.6286 0.5865 -0.5108 113 110 116
146.4176 113.3633 388.6782 -0.8154 0.3134 -0.4868 122 122 124
138.9177 118.3121 406.7387 -0.9041 0.1084 -0.4133 119 116 122
132.6987 125.2096 430.8795 -0.9610 0.0342 -0.2746 165 165 169
-917.1841 574.7017 2004.5132 0.4114 -0.5037 -0.7596 235 236 240
-1024.6039 528.1976 1856.0522 -0.3017 -0.5675 -0.7661 232 234 238
184.0103 90.4855 308.9999 -0.7402 0.3448 -0.5772 218 217 220
178.9189 93.4925 317.0563 -0.6310 0.4659 -0.6204 251 248 251
164.9557 99.4204 339.9756 -0.5982 0.5528 -0.5801 130 124 133
155.2265 108.5996 369.0153 -0.5390 0.6116 -0.5792 179 176 179
-927.2661 533.3036 1842.7401 -0.0118 0.1427 -0.9897 227 228 232
-1003.2304 482.9254 1704.0402 0.0613 -0.4962 -0.8660 227 228 232
185.4800 90.4637 305.7931 -0.8077 0.3344 -0.4855 215 212 215
180.3422 93.5445 314.2071 -0.6057 0.4633 -0.6469 230 230 232
172.1541 96.0200 324.6735 -0.6569 0.3631 -0.6608 206 140 156
167.7532 99.8914 337.3891 -0.5952 0.5561 -0.5801 162 123 127
161.9970 103.8517 350.0266 -0.6164 0.5212 -0.5903 255 255 255
148.5493 113.2356 384.9509 -0.7657 0.3169 -0.5597 121 123 122
142.2823 118.6574 402.7391 -0.9172 0.0092 -0.3984 105 107 113
133.9481 124.0453 421.0452 -0.9523 -0.0412 -0.3024 183 182 185
-950.0596 561.3870 1908.0209 0.1369 0.4831 -0.8648 236 238 239
-966.8384 513.4174 1766.1558 -0.3205 -0.9098 -0.2638 228 229 233
174.8293 96.4996 323.4654 -0.7126 0.3348 -0.6165 202 178 188
170.5288 100.4273 335.2871 -0.6878 0.5522 -0.4713 182 97 114
156.6070 108.2749 364.6278 -0.6626 0.5380 -0.5210 151 151 151
150.3385 112.9119 379.6105 -0.8056 0.2936 -0.5146 125 127 131
143.7109 118.0060 395.8472 -0.9308 -0.0433 -0.3629 157 161 167
137.0055 124.0499 416.7794 -0.9501 -0.0118 -0.3117 118 117 122
-926.4826 564.2917 1925.4244 -0.3014 0.5873 -0.7512 232 234 238
-1014.1367 566.8335 1862.8314 0.1662 -0.1260 -0.9780 229 231 235
-1052.3873 531.2770 1792.0326 -0.3370 0.1607 -0.9277 231 233 237
182.3769 93.8285 312.6273 -0.6452 0.4421 -0.6231 247 245 246
164.8889 104.3700 348.1640 -0.6063 0.5082 -0.6117 196 192 200
-943.8188 591.3700 1969.9762 0.0404 -0.1249 -0.9913 231 233 237
-1081.5026 559.2669 1848.4845 -0.2916 -0.2185 -0.9312 230 232 236
189.2393 91.1478 301.4420 -0.7002 0.3440 -0.6256 194 191 194
184.4887 94.2899 311.1632 -0.7090 0.4094 -0.5742 230 230 232
176.3172 96.5031 320.3363 -0.7018 0.3595 -0.6151 234 232 235
170.9130 99.9284 330.3384 -0.7381 0.5232 -0.4259 185 101 116
166.5502 104.1879 343.7992 -0.6467 0.4868 -0.5872 109 96 105
152.0176 112.4861 375.5667 -0.7405 0.3183 -0.5920 128 132 138
145.7872 117.5665 389.8185 -0.8772 0.0063 -0.4801 36 34 46
139.1198 123.1801 408.8452 -0.9186 -0.1281 -0.3737 158 158 162
132.4294 130.3135 433.5667 -0.9534 0.1254 -0.2744 190 189 192
-941.5595 542.9982 1805.9351 0.4833 0.1243 -0.8666 230 232 236
178.5550 96.8389 318.2695 -0.6333 0.4377 -0.6382 190 189 194
155.7770 113.2574 373.9176 -0.7010 0.3857 -0.5999 168 165 168
-951.9957 564.1266 1858.0160 -0.1422 0.1565 -0.9774 234 235 239
-1010.7252 552.5235 1809.7584 -0.0190 -0.7174 -0.6964 230 232 236
-978.1471 521.8903 1750.6742 0.1994 -0.1555 -0.9675 231 233 237
-1078.7476 533.8286 1718.9017 0.4364 0.1365 -0.8893 225 229 232
186.2368 94.2841 308.5403 -0.8099 0.3590 -0.4638 233 230 234
180.9676 97.2918 317.0222 -0.6143 0.4569 -0.6433 232 231 234
171.9483 99.7110 326.3910 -0.6731 0.4775 -0.5647 167 150 158
168.1403 104.0406 339.7933 -0.6223 0.5030 -0.5998 180 119 130
162.9772 108.3910 352.8185 -0.6330 0.4302 -0.6435 153 149 157
159.3386 113.9299 370.8861 -0.7280 0.3791 -0.5712 106 100 106
147.5985 117.2180 386.1411 -0.8276 0.0524 -0.5589 124 126 130
141.3827 123.0400 402.9237 -0.9238 -0.1957 -0.3290 125 124 129
134.4580 129.4546 425.3737 -0.9609 0.1077 -0.2549 85 84 91
187.1849 94.2306 304.5483 -0.8260 0.3369 -0.4519 230 227 230
183.1484 97.6381 314.4003 -0.6449 0.4633 -0.6079 219 218 223
174.6327 100.2456 325.1084 -0.6734 0.4479 -0.5882 226 220 226
170.5417 104.2886 338.1479 -0.7158 0.4926 -0.4949 159 66 89
151.1396 117.8150 382.7592 -0.8637 0.0207 -0.5036 111 109 117
129.9566 136.3135 442.9860 -0.9349 0.0824 -0.3453 189 191 193
93.2462 99.4689 323.8584 0.0000 0.0000 0.0000 194 196 198
-933.8764 586.2075 1898.1136 0.0558 0.4073 -0.9116 232 234 238
-1038.9080 541.3828 1747.2373 0.2812 0.0020 -0.9596 229 231 235
177.0489 100.6150 322.9413 -0.6611 0.4368 -0.6101 208 204 210
173.3616 104.8094 335.8678 -0.8174 0.4157 -0.3988 189 170 174
165.2991 108.5001 349.9479 -0.7152 0.3668 -0.5949 149 132 135
159.4041 112.8714 364.0260 -0.8783 0.3537 -0.3216 246 244 244
153.7247 117.9436 377.7109 -0.7950 -0.0554 -0.6041 117 119 123
141.8528 121.5610 395.2163 -0.9023 -0.2802 -0.3276 98 97 104
135.1278 127.9444 416.7846 -0.9384 -0.1065 -0.3287 158 158 160
-839.3368 597.3740 1985.7632 0.0000 0.0000 0.0000 235 236 240
-923.7448 597.1636 1930.4420 -0.0472 0.3521 -0.9348 232 234 238
-1041.6321 556.6375 1783.8398 -0.1738 0.2185 -0.9602 225 227 231
184.8863 97.8172 312.4375 -0.7025 0.4408 -0.5587 219 216 220
178.9155 100.7150 320.6687 -0.5642 0.4878 -0.6661 195 192 197
167.4127 108.5173 346.5004 -0.7505 0.3195 -0.5785 160 90 96
145.0514 121.8074 390.3904 -0.8430 -0.2696 -0.4656 139 136 141
137.9420 127.7793 408.4441 -0.9240 -0.2277 -0.3072 121 123 122
131.8013 135.3585 436.7245 -0.9311 0.0879 -0.3539 107 109 110
-982.3000 582.6907 1830.0029 -0.3439 0.4145 -0.8426 227 228 232
-1034.1873 567.1110 1790.6229 -0.2104 -0.1835 -0.9603 235 236 240
-1099.8525 547.5366 1779.0273 0.7200 0.6409 -0.2662 225 229 232
186.0898 97.7519 310.1411 -0.7756 0.4180 -0.4730 241 239 242
174.5292 104.5337 330.7938 -0.7442 0.4532 -0.4906 182 179 184
169.9833 108.8899 344.7589 -0.6789 0.3638 -0.6377 145 57 80
160.3578 112.1936 357.8923 -0.8351 0.2594 -0.4851 255 255 255
155.7830 117.7395 375.3177 -0.6510 -0.0987 -0.7526 39 36 41
148.2345 122.1433 387.3427 -0.7953 -0.2678 -0.5438 100 94 101
135.6156 135.7364 428.9070 -0.9404 -0.0678 -0.3332 120 119 126
-1061.1978 596.5361 1784.1549 -0.0077 -0.0887 -0.9960 229 231 235
-1134.0819 577.3935 1758.3418 -0.6638 -0.7118 -0.2297 226 230 233
181.6181 101.1509 318.8251 -0.5714 0.5015 -0.6496 180 177 180
175.7447 104.3912 327.7769 -0.6977 0.4345 -0.5696 169 168 171
162.6964 112.3450 355.0614 -0.7892 0.2695 -0.5518 94 81 92
159.1205 118.2121 372.1951 -0.6335 -0.0991 -0.7673 157 157 157
139.1259 126.4104 401.0950 -0.9129 -0.2938 -0.2835 83 80 86
131.0429 143.7026 445.3954 -0.9043 -0.0231 -0.4262 179 181 182
-1123.9459 586.6442 1709.6724 0.0000 0.0000 0.0000 0 0 0
187.8393 97.9624 307.3820 -0.8101 0.4007 -0.4280 206 204 207
183.6450 101.3834 317.3448 -0.6505 0.4913 -0.5792 205 202 206
171.5135 108.7238 341.1538 -0.7252 0.3104 -0.6146 156 136 145
161.3915 118.2730 369.1178 -0.6458 -0.2677 -0.7151 255 255 255
149.9466 121.7260 382.6485 -0.7928 -0.3058 -0.5272 47 49 55
135.3438 133.2648 416.5883 -0.8738 -0.1128 -0.4730 186 183 186
-959.0900 618.9443 1936.2885 0.0365 0.6152 -0.7875 234 235 239
-966.9013 560.5289 1742.0059 0.0242 0.2338 -0.9720 231 233 237
-1039.1732 558.2014 1741.6302 0.2015 0.5167 -0.8321 225 227 231
177.3319 104.3528 324.8457 -0.6443 0.4142 -0.6429 166 166 168
173.2833 108.5849 337.3685 -0.8510 0.2003 -0.4855 209 204 208
163.9839 111.9417 351.2147 -0.8054 0.1603 -0.5707 113 75 81
152.4348 121.7380 377.5291 -0.7495 -0.4228 -0.5094 84 81 85
140.7093 125.6864 394.5856 -0.8746 -0.3564 -0.3286 123 123 127
69.8887 79.9743 255.4495 0.0000 0.0000 0.0000 225 229 232
-963.5494 639.9814 1995.4581 0.3012 0.8360 -0.4587 239 241 245
-963.7625 573.7314 1785.0660 -0.1648 0.0239 -0.9860 229 231 235
188.9263 97.9400 303.6349 -0.7384 0.4431 -0.5083 215 212 213
185.4175 101.5959 315.1752 -0.6841 0.4876 -0.5424 215 212 215
179.5926 104.6544 322.9329 -0.5825 0.4325 -0.6883 188 185 188
166.5502 112.1851 346.8365 -0.8122 0.0428 -0.5818 171 95 105
162.2978 117.5969 361.7411 -0.7266 0.1710 -0.6655 55 32 47
143.8983 126.0100 390.8126 -0.7889 -0.4024 -0.4644 75 72 77
136.3835 131.3731 408.0016 -0.9058 -0.3145 -0.2840 62 61 68
132.0287 140.8399 438.8255 -0.9286 -0.0081 -0.3710 111 110 113
-838.3692 633.5248 2047.5791 0.0000 0.0000 0.0000 238 240 244
-993.1639 606.3395 1872.6058 -0.5140 0.4684 -0.7186 231 233 237
-1023.4166 564.0173 1746.7358 -0.1335 0.3807 -0.9150 229 231 235
187.4668 101.7953 312.4674 -0.7494 0.4459 -0.4895 158 154 160
182.6775 105.2345 322.6225 -0.5883 0.3914 -0.7076 223 220 223
173.9939 108.1647 333.0318 -0.8364 0.2389 -0.4933 187 183 189
168.9053 112.1845 344.8873 -0.7582 -0.0191 -0.6518 224 220 221
152.9046 120.1592 372.7815 -0.5449 -0.5880 -0.5978 59 56 57
-976.7678 613.2036 1926.8143 0.3290 0.5173 -0.7900 235 236 240
-1026.9760 595.3663 1781.3209 -0.0947 0.0970 -0.9908 232 234 238
-1004.5466 568.3413 1760.8014 -0.1308 0.0878 -0.9875 230 232 236
175.6204 108.1024 329.4199 -0.7209 0.3150 -0.6173 166 163 168
163.1498 116.6983 356.6613 -0.6291 0.1357 -0.7654 144 87 104
156.7860 121.5971 370.6338 -0.4361 -0.7130 -0.5490 255 255 255
145.4956 125.1546 383.7313 -0.7607 -0.4421 -0.4752 99 99 101
138.8795 131.2232 401.2604 -0.9065 -0.3223 -0.2727 157 156 163
132.1112 138.4709 427.2227 -0.9028 -0.1325 -0.4091 98 95 101
-988.2744 637.2634 1963.0746 -0.4053 0.3517 -0.8438 234 235 239
-1007.0396 531.3940 1686.9277 0.0000 0.0000 0.0000 229 231 235
189.2281 101.9446 309.7079 -0.7638 0.4743 -0.4377 209 204 206
184.7115 105.4795 319.2300 -0.6360 0.3870 -0.6676 181 176 180
178.1018 108.4364 327.6947 -0.6691 0.3101 -0.6754 130 129 136
171.3492 112.5341 342.1230 -0.8277 -0.1056 -0.5511 209 206 209
165.5789 116.9251 354.0960 -0.6856 -0.0256 -0.7275 157 89 100
147.9001 125.0511 380.5519 -0.7251 -0.5793 -0.3723 94 90 96
-937.3872 623.2117 1936.0494 0.0832 0.4490 -0.8896 241 242 246
-967.5928 577.2975 1761.4662 -0.1538 0.2582 -0.9538 230 232 236
190.6183 102.0255 307.3933 -0.7036 0.5040 -0.5010 184 182 185
186.4074 105.5392 317.4085 -0.6239 0.3759 -0.6852 178 171 175
173.2764 112.6714 339.1513 -0.8589 -0.1504 -0.4895 208 205 208
158.2866 120.8144 366.2812 -0.4231 -0.7323 -0.5336 255 255 255
139.2579 129.3411 392.6135 -0.8533 -0.4130 -0.3182 166 166 168
133.6093 137.1460 414.8542 -0.9539 -0.1880 -0.2338 174 171 174
-968.8141 661.5046 2040.0326 0.0000 0.0000 0.0000 236 237 241
180.1609 108.6349 324.6956 -0.6340 0.2650 -0.7265 232 229 232
166.5200 116.3602 348.4105 -0.6314 -0.3380 -0.6979 181 178 181
160.0189 120.3953 360.6444 -0.5288 -0.3169 -0.7874 97 77 84
150.5865 125.1657 376.1678 -0.7406 -0.5996 -0.3035 166 166 168
142.5023 129.6357 387.9745 -0.8089 -0.4626 -0.3629 114 113 118
130.0641 144.7835 438.4196 -0.7353 0.1374 -0.6637 175 174 177
-1013.6406 635.9390 1908.1079 0.5101 0.6653 -0.5451 231 233 237
187.8977 105.4852 315.3792 -0.6992 0.4038 -0.5900 118 54 64
182.8844 109.1162 324.2316 -0.6311 0.1151 -0.7671 168 163 169
172.8192 111.4610 333.2656 -0.7951 -0.0565 -0.6039 214 214 216
168.3449 116.2402 345.5999 -0.6339 -0.4015 -0.6610 120 119 126
134.2755 134.7796 406.7163 -0.9443 -0.2201 -0.2448 175 172 177
-1085.1293 586.9240 1715.5363 -0.0074 0.2930 -0.9561 227 231 235
-1107.1354 584.3411 1709.2383 0.2732 0.1972 -0.9415 231 233 237
189.3829 105.5683 311.9692 -0.6906 0.4718 -0.5482 200 195 197
175.7730 111.9958 330.7581 -0.6802 0.0018 -0.7330 219 218 223
162.8954 120.8319 357.4732 -0.5002 -0.3448 -0.7943 160 85 99
149.5317 122.8049 368.5772 -0.5799 -0.6830 -0.4441 121 119 122
144.6805 129.3704 383.3127 -0.7830 -0.5364 -0.3148 84 77 90
137.4308 135.1514 399.5191 -0.9064 -0.3416 -0.2487 142 142 142
130.3142 142.1577 425.4086 -0.2164 0.3099 -0.9258 168 170 172
-966.9205 641.5772 1881.4186 -0.4523 -0.1604 -0.8773 235 236 240
-998.8381 596.3216 1766.0629 -0.0180 0.0235 -0.9996 228 229 233
-1123.4550 621.3619 1706.3271 0.6310 0.3773 -0.6778 0 0 0
182.8918 108.3369 320.1510 -0.6283 0.0856 -0.7733 200 195 197
178.2513 112.2919 329.3415 -0.7381 0.0444 -0.6732 204 203 206
169.7582 115.8607 341.7986 -0.7515 -0.4242 -0.5052 172 168 174
151.9116 123.0438 363.9611 -0.4420 -0.7681 -0.4634 119 118 123
146.5761 128.7861 378.3840 -0.7230 -0.6164 -0.3119 65 64 71
132.9508 141.6252 415.6579 -0.9758 -0.0879 -0.2000 180 177 180
-998.5764 680.1683 1902.7448 0.0000 0.0000 0.0000 232 236 239
-1011.0307 618.8591 1816.5890 0.0944 0.5253 -0.8457 227 228 232
191.0254 105.6362 310.0487 -0.5665 0.5138 -0.6442 187 187 189
186.9811 109.3674 319.1159 -0.5688 0.1029 -0.8160 201 113 125
171.8381 115.9469 337.9669 -0.8447 -0.3390 -0.4142 125 123 131
161.3790 118.7690 348.1731 -0.5189 -0.6622 -0.5406 170 126 141
155.0791 123.1939 361.2782 -0.3559 -0.8042 -0.4761 234 232 233
138.4032 133.5016 392.5232 -0.8822 -0.3891 -0.2652 87 83 89
131.9012 151.9043 440.6079 -0.9633 0.0081 -0.2683 176 175 180
-971.6053 611.4216 1809.0092 -0.3391 0.3711 -0.8644 234 235 239
