ply
format ascii 1.0
comment PCL generated
element vertex 607
property float x
property float y
property float z
property uchar red
property uchar green
property uchar blue
property float nx
property float ny
property float nz
property float curvature
element camera 0
property float view_px
property float view_py
property float view_pz
property float x_axisx
property float x_axisy
property float x_axisz
property float y_axisx
property float y_axisy
property float y_axisz
property float z_axisx
property float z_axisy
property float z_axisz
property float focal
property float scalex
property float scaley
property float centerx
property float centery
property int viewportx
property int viewporty
property float k1
property float k2
end_header
134.07895 42.912018 389.35577 189 152 128 -0.22972316 0.57513541 -0.78512424 0
90.401886 38.937206 346.96332 221 183 166 0.13173477 0.41011918 -0.90249544 0
56.456924 39.056908 346.19699 255 222 206 -0.085524395 0.24282083 -0.96632487 0
41.748795 39.600845 349.32947 255 222 206 -0.22605203 0.27102375 -0.93563694 0
26.645287 40.094379 351.66666 238 206 194 -0.086489812 0.38672519 -0.91809398 0
-9.852356 39.197376 343.7608 146 138 134 0.38440293 0.31230417 -0.86874461 0
-13.408688 38.414932 342.49466 231 205 198 0.13069448 0.34363595 -0.92998928 0
-27.859959 38.863159 344.61789 255 229 213 -0.23122355 0.40887445 -0.88284969 0
-42.628677 39.353436 348.19598 255 236 221 -0.24713872 0.42985347 -0.8683539 0
-58.93663 40.016808 357.061 207 184 172 -0.50046057 0.39212334 -0.77187669 0
-951.30042 223.31543 2077.8218 221 226 227 0.075340457 0.49805868 -0.86387599 0
-1029.2574 214.64517 1890.2634 0 0 0 0 0 0 0
204.84779 33.233234 292.35196 183 175 180 -0.61299813 0.47857144 -0.62864643 0
180.7383 35.352032 313.51743 156 154 155 -0.39687943 -0.043744467 -0.91681945 0
161.6286 37.100689 326.2879 132 128 136 -0.8273645 0.26797038 -0.49368727 0
154.99303 38.49184 337.98907 103 105 109 -0.47521937 0.44973248 -0.75624073 0
137.20035 38.185966 342.99701 74 78 81 -0.35387692 0.068175174 -0.93279445 0
137.67346 43.721199 388.34064 173 131 109 -0.34840056 0.4611991 -0.81604171 0
94.305008 39.745335 348.35849 222 185 170 0.19865797 0.519835 -0.83085424 0
75.04702 39.359734 346.26538 237 204 186 0.097664833 0.35811517 -0.92852825 0
60.205292 39.865532 347.22504 251 217 202 -0.001822699 0.28156129 -0.95948827 0
45.280861 40.340622 348.35638 255 222 206 -0.16060379 0.21667886 -0.96292466 0
-6.8160057 40.065071 346.58539 142 129 125 0.52004218 0.27262634 -0.80943245 0
-24.494862 39.617496 343.79382 255 244 229 -0.20236692 0.40554622 -0.89137471 0
-39.28727 40.126629 347.73859 255 228 213 -0.22015031 0.47544146 -0.85177487 0
-54.959381 40.731869 354.90439 243 215 204 -0.48845053 0.39208823 -0.77949822 0
-939.24841 229.10075 2085.1445 227 228 232 -0.056318361 0.59835333 -0.79921365 0
210.96899 32.792175 282.93005 222 219 220 -0.65043777 0.06101634 -0.7571221 0
206.46992 33.882286 290.23746 199 197 200 -0.63202804 0.39229727 -0.66821635 0
198.16437 34.343559 297.97839 191 104 119 -0.56053811 0.33670354 -0.75661647 0
184.09779 36.090065 312.29919 255 255 255 -0.29782817 -0.17328145 -0.93877017 0
177.24011 37.348118 319.65271 136 135 140 -0.36965457 0.45684022 -0.8091622 0
170.39658 36.497761 317.48441 103 105 109 -0.2998015 0.49504387 -0.81552398 0
158.6156 39.27951 335.13443 117 119 121 -0.66751093 0.39249226 -0.63275349 0
140.56781 38.960728 342.31451 109 105 115 -0.15290654 0.14899082 -0.97689754 0
133.77649 40.485497 350.99063 28 29 33 -0.78580159 -0.425567 -0.4487682 0
141.25662 44.516945 387.19006 67 47 44 -0.30059385 0.43416029 -0.84925264 0
126.55641 45.365219 391.78632 178 143 121 0.11085486 0.66731989 -0.73646343 0
111.01807 42.789223 366.45929 178 147 127 0.5241316 0.69160217 -0.49695805 0
98.468506 40.576786 350.03448 214 180 164 0.27531075 0.58643728 -0.76178348 0
78.952164 40.147163 346.69815 243 209 193 0.066668175 0.35207188 -0.93358469 0
63.824123 40.659615 347.74734 255 225 207 -0.042778108 0.32932863 -0.94327694 0
48.916122 41.144596 348.61887 255 223 211 -0.1225088 0.19694404 -0.97274083 0
30.502525 40.86311 351.34033 252 222 207 -0.10772093 0.36606938 -0.92438269 0
-3.3262215 40.895401 349.29025 203 171 159 0.44101262 0.20014973 -0.87490129 0
-20.971031 40.372356 343.73557 255 237 222 -0.14437135 0.42808291 -0.89215481 0
-35.976521 40.910156 347.90387 255 227 213 -0.21002257 0.48742467 -0.84748417 0
-942.05878 238.23718 2075.927 230 232 236 -0.364245 0.67823541 -0.63823807 0
-913.80658 202.70409 1796.8545 235 237 238 0 0 0 0
208.72189 34.544876 289.13367 210 208 208 -0.66763282 0.27310583 -0.69260263 0
200.95312 35.021183 296.90775 221 207 210 -0.49247 0.3265391 -0.80674314 0
163.36172 37.772522 322.81439 129 128 133 -0.53784227 0.39974254 -0.74216664 0
149.92337 40.654728 341.8252 87 88 95 -0.25081313 0.50108683 -0.82821977 0
130.30453 46.214092 393.00269 170 132 111 -0.42564252 0.45987242 -0.77931571 0
115.51981 43.604858 375.69574 181 150 131 0.58104062 0.6750344 -0.45475042 0
102.75825 41.405487 354.69595 185 146 134 0.44663164 0.64302969 -0.62212837 0
82.611359 40.951256 347.59348 239 205 189 0.014309258 0.36847198 -0.92951035 0
67.424431 41.42168 347.44449 247 213 195 -0.049787752 0.37810594 -0.92446864 0
34.114056 41.682434 352.28537 255 233 220 -0.10263554 0.36411139 -0.92571127 0
18.823236 42.187237 353.07721 224 203 194 0.042997111 0.41383928 -0.90936017 0
0.24201965 41.669178 349.47498 235 207 196 0.06004186 0.11525171 -0.99153912 0
-17.630608 41.13258 342.92181 254 226 215 -0.070383824 0.41533867 -0.90695369 0
-50.9119 41.413498 351.3418 255 233 214 -0.43528923 0.39678857 -0.8081966 0
203.00255 35.676712 295.75992 230 225 227 -0.62264287 0.25880441 -0.73850739 0
194.22684 36.186157 302.07306 184 109 121 -0.62647766 0.25394753 -0.73689032 0
184.16644 36.68573 309.27676 255 255 255 0.13047895 -0.094571352 -0.98693025 0
178.34224 37.98703 317.5314 122 121 126 -0.68358171 0.20318693 -0.70099962 0
166.65436 38.498608 323.14377 86 87 93 -0.30311543 0.50308043 -0.80941808 0
159.71297 39.893658 332.48758 173 173 177 -0.77752137 0.22282749 -0.58800048 0
135.11113 41.13089 346.05969 104 106 108 -0.71736354 -0.21026531 -0.66420454 0
133.56985 46.984859 390.44598 129 87 62 -0.4654384 0.38812941 -0.79546535 0
86.181122 41.729763 347.63773 238 202 186 0.070230074 0.41172662 -0.90861732 0
71.174408 42.187504 347.23087 250 217 198 -0.0091651399 0.41983721 -0.90752339 0
52.354225 41.899563 348.21637 238 201 188 -0.11906008 0.21310455 -0.96969539 0
37.753036 42.46381 351.83676 255 234 219 -0.14435402 0.36328796 -0.9204368 0
22.388268 42.971897 353.41858 227 197 187 -0.054749884 0.36756343 -0.92838442 0
3.7086334 42.486595 350.02573 232 202 189 -0.31241626 0.15080692 -0.93794197 0
-14.398602 41.917568 343.51935 222 199 187 0.042405341 0.39324775 -0.91846895 0
-32.451416 41.661419 347.21362 255 235 220 -0.22834709 0.47623461 -0.84908539 0
-47.449684 42.176788 350.93253 255 237 222 -0.32727981 0.43926239 -0.83659089 0
209.88046 35.159027 286.47131 203 200 203 -0.79473555 0.16441977 -0.58423591 0
196.36444 36.848156 300.67908 195 110 125 -0.66450566 0.19777444 -0.72065508 0
186.43681 37.359741 308.67999 255 255 255 0.15084176 -0.15681258 -0.97606033 0
170.85609 39.290871 323.75647 90 88 96 -0.22590502 0.54639691 -0.8064509 0
152.47769 41.344349 341.33066 118 120 124 -0.20754917 0.52819091 -0.82335371 0
137.7962 41.832413 343.46292 99 100 106 -0.19425423 0.033358485 -0.98033124 0
90.082253 42.553345 348.64722 222 188 175 0.24156082 0.5352369 -0.80941617 0
74.670235 42.964561 347.55688 242 207 189 0.059988018 0.4611395 -0.8853249 0
55.85228 42.659489 347.66177 255 222 208 -0.040547665 0.2599057 -0.96482515 0
41.122108 43.203281 350.78265 255 238 223 -0.20746969 0.34260893 -0.91631854 0
26.057568 43.729912 352.99377 244 214 201 -0.074182734 0.34728709 -0.9348222 0
-28.814693 42.383163 346.03308 255 227 211 -0.22202258 0.45396522 -0.86288559 0
-43.544868 42.900967 350.3107 255 232 216 -0.22035672 0.49234167 -0.84210283 0
-60.165222 43.674152 359.38013 190 176 169 -0.4628256 0.3849003 -0.79859686 0
-856.59723 238.81549 2074.2825 228 230 231 0.11204033 0.86323732 -0.4921695 0
-950.81226 242.44273 2035.6265 230 232 236 -0.011429787 -0.057037849 -0.99826044 0
-979.64545 225.257 1885.1733 222 224 226 0.20290579 -0.82690519 -0.52458268 0
204.37177 36.308033 293.42944 209 206 209 -0.69200724 0.22258003 -0.68672734 0
173.34415 39.971012 322.48175 88 90 94 -0.22642112 0.57189846 -0.78841335 0
161.96863 40.551056 329.44189 173 173 177 -0.77844721 0.28663239 -0.55844003 0
157.05652 42.192646 342.39737 97 99 105 -0.47534889 0.45733294 -0.75160426 0
142.68196 42.717064 345.20316 61 57 67 0.0048823883 0.19968584 -0.97981906 0
137.29359 47.81609 389.32639 85 74 73 -0.3679702 0.33493245 -0.86745894 0
121.25764 48.545048 387.14075 156 118 97 0.64844555 0.30301872 -0.69835252 0
94.162704 43.401817 350.70886 216 183 167 0.24060175 0.60073644 -0.76239073 0
78.640671 43.810017 348.97308 243 209 193 0.068715572 0.48513648 -0.87177068 0
59.582272 43.467464 348.57153 242 208 192 0.046925616 0.34319919 -0.93807536 0
44.538811 43.941956 349.57257 254 222 210 -0.20224445 0.32815021 -0.92269206 0
29.594124 44.536053 353.47479 246 216 201 -0.096074656 0.30803946 -0.94649857 0
6.7804718 43.095375 345.06726 188 180 174 -0.62143707 -0.011112142 -0.78340858 0
-10.534187 42.666668 343.92264 157 146 143 0.30833107 0.3448846 -0.88655967 0
-25.367744 43.147045 345.85992 255 237 222 -0.18612131 0.46975461 -0.86294079 0
-40.406906 43.714272 350.51944 254 225 209 -0.19477978 0.50734854 -0.83949429 0
-56.283558 44.390659 357.39761 227 199 190 -0.50990671 0.40432826 -0.75923461 0
-1007.1835 238.75041 1937.1711 228 229 233 -0.59663296 0.01441149 -0.80239671 0
210.51872 35.757206 283.0217 179 178 183 -0.58959436 0.20773619 -0.78055656 0
207.448 36.976643 291.53152 220 218 221 -0.650213 0.20991457 -0.73025703 0
197.68474 37.476078 298.52905 219 192 192 -0.57902825 0.19471791 -0.79168719 0
174.90201 38.414955 311.72766 140 137 141 -0.71550161 0.076242395 -0.69449496 0
177.02551 40.742565 321.84918 105 104 109 -0.34900358 0.5696891 -0.74410486 0
164.35052 41.247051 325.99124 115 114 121 -0.51784354 0.48720595 -0.70317757 0
145.74168 43.467136 344.59317 126 125 132 -0.086045071 0.33032373 -0.93997866 0
132.93808 44.211983 350.01144 106 111 111 -0.719769 -0.32516238 -0.61337793 0
126.66086 49.587196 398.06329 169 129 108 -0.31960431 0.55845839 -0.76552939 0
111.06609 46.648975 373.15613 176 145 126 0.5943433 0.59910434 -0.53653175 0
104.59396 45.413467 364.34418 170 136 120 0.53260571 0.66541207 -0.52298355 0
98.24408 44.239342 353.77966 187 156 137 0.34895611 0.68925703 -0.63491827 0
82.057999 44.610695 349.22308 239 204 191 0.023427889 0.50335425 -0.86376661 0
63.127304 44.229378 348.23758 251 217 202 0.0059738695 0.37746701 -0.92599595 0
-4.189167 44.477764 349.79871 203 176 165 0.39723122 0.2604574 -0.87991267 0
-7.1198044 43.474892 345.95441 109 100 100 0.45955712 0.31222987 -0.83144468 0
-21.896896 43.907936 345.74414 255 232 216 -0.16296387 0.48818839 -0.85731691 0
-37.060593 44.501503 350.36267 255 236 221 -0.22152923 0.4907552 -0.84270978 0
-52.288292 45.07666 355.10699 245 214 204 -0.43034032 0.44482735 -0.78546691 0
-922.43964 246.24141 2062.9075 229 231 235 -0.29623869 0.4315111 -0.85202646 0
212.9704 36.380798 282.51837 199 197 200 -0.24698825 0.35195819 -0.90288526 0
200.94077 38.16267 297.98019 210 205 209 -0.5223524 0.13188091 -0.84243953 0
194.88794 39.416592 302.65292 167 77 87 -0.67400134 0.23327905 -0.70095474 0
184.27832 39.969624 309.69131 217 214 217 -0.016935851 0.24103557 -0.97032505 0
178.01291 39.117611 309.69455 255 255 255 -0.31468979 0.15753281 -0.93603843 0
157.18561 42.725574 337.11356 103 105 107 -0.71525764 0.31433171 -0.62416738 0
130.33435 50.438629 395.68909 152 114 95 -0.44055244 0.5058338 -0.74169159 0
66.935646 45.027782 348.75626 248 214 198 -0.017843932 0.41473714 -0.90981853 0
48.028721 44.722408 348.93167 255 231 222 -0.19627473 0.30688322 -0.93124354 0
33.219891 45.26796 353.06833 255 229 214 -0.10912843 0.29948899 -0.94783229 0
18.063198 45.733932 354.13531 218 201 189 0.051199049 0.38074771 -0.92323023 0
-0.51439285 45.250526 350.25699 244 216 205 0.0085240956 0.18624409 -0.98244721 0
-18.227776 44.635273 345.26599 255 228 219 -0.11405852 0.50822777 -0.85363144 0
-33.343086 45.209602 349.21646 255 226 209 -0.25993899 0.47569388 -0.84033781 0
207.60565 37.546341 289.54092 160 157 160 -0.60834539 0.31874052 -0.72687531 0
203.58188 38.824089 296.91983 221 221 223 -0.63849127 0.057582591 -0.76745212 0
186.77843 40.657852 309.25092 130 125 129 -0.16399094 0.27131647 -0.94842386 0
177.15315 41.274742 317.66431 198 197 202 -0.81035292 0.34087437 -0.4765445 0
167.17041 41.951424 324.90158 130 129 136 -0.27389219 0.52464563 -0.80610079 0
158.98871 43.377209 333.04932 71 75 81 -0.74857998 0.27750406 -0.60227782 0
148.47311 44.163506 342.6763 112 114 120 -0.10075108 0.45588198 -0.88430709 0
133.62186 44.604649 344.40872 24 26 30 -0.6163367 -0.10367768 -0.78054035 0
133.38931 51.204033 391.26395 63 58 59 -0.50646132 0.38449165 -0.7717889 0
89.989281 46.27631 351.76624 230 193 180 0.27287552 0.6287567 -0.72811151 0
85.699081 45.355434 348.81204 243 209 197 0.112543 0.57301956 -0.81178361 0
70.577766 45.830593 349.2883 248 212 195 0.0037769238 0.46748403 -0.88395357 0
51.608849 45.397274 348.40421 239 200 188 -0.11405651 0.3261441 -0.938357 0
36.490936 46.085365 352.59366 247 216 201 -0.11837898 0.31999379 -0.9400124 0
21.733908 46.558723 354.04889 219 191 178 -0.02813556 0.41095534 -0.91117513 0
3.0264053 45.966423 349.49835 232 202 189 -0.29103389 0.26376304 -0.91960585 0
-14.778725 45.400051 345.03485 234 212 204 -0.045447487 0.52444088 -0.85018486 0
-48.688034 45.813271 353.48358 255 232 216 -0.31912318 0.50356179 -0.80286825 0
-922.11011 264.522 2110.0745 232 234 238 0.43315053 0.026937194 -0.90096188 0
209.85309 38.168247 287.64148 215 210 212 -0.71975154 0.33767888 -0.60660452 0
196.55228 40.03244 301.78751 193 161 167 -0.74959016 0.19332038 -0.63300794 0
180.23412 42.006516 314.23099 255 255 255 -0.62061089 0.35617411 -0.69851315 0
170.80713 42.709568 324.92233 97 95 103 -0.21611622 0.50079226 -0.83812976 0
156.9053 45.858223 344.78293 82 83 92 -0.6318177 0.31520319 -0.70817024 0
152.11848 44.951183 343.19165 74 75 82 -0.13218576 0.50193554 -0.85474104 0
137.02975 45.386189 343.90717 34 40 42 -0.0717315 0.074961074 -0.99458081 0
122.84458 53.064976 400.78229 152 114 97 0.3185204 0.20737155 -0.92491275 0
107.28545 49.925953 371.34702 167 138 120 0.52185953 0.59615993 -0.61008161 0
100.87798 48.487034 364.17914 192 163 148 0.57293808 0.61985099 -0.53612977 0
94.88858 47.303894 356.25461 214 180 166 0.38186577 0.69217241 -0.61246455 0
74.19101 46.636559 350.07477 241 207 191 0.073158905 0.50048351 -0.862688 0
55.353416 46.266499 348.98608 246 211 198 0.013743207 0.35087961 -0.93630946 0
40.33326 46.883171 352.57153 255 231 220 -0.15607144 0.3714211 -0.91523737 0
25.329609 47.385658 354.31036 240 210 200 -0.07108137 0.41534665 -0.9068957 0
-11.474785 46.206463 345.79083 181 171 167 0.16027889 0.49258152 -0.85539299 0
-29.850967 45.977211 348.91522 255 229 214 -0.21484408 0.50237757 -0.83753109 0
-44.994186 46.553905 353.05225 255 226 214 -0.21515761 0.52447808 -0.82382959 0
-974.68756 242.76601 1866.085 225 229 232 -0.27226135 -0.84337831 -0.46321374 0
203.48241 39.367344 293.71271 175 172 175 -0.68374968 0.09188921 -0.72390747 0
198.07788 40.64819 299.69977 232 230 230 -0.58096212 0.20283948 -0.78830487 0
188.76166 41.181046 306.26605 189 142 151 -0.41835243 0.15970755 -0.89410037 0
173.70306 43.407188 324.68524 112 109 115 -0.25349042 0.47892019 -0.84046859 0
161.71857 44.040279 330.55826 100 99 104 -0.68695211 0.35271344 -0.63540244 0
128.40996 46.888733 351.64316 11 13 17 -0.74464977 -0.24116844 -0.62243921 0
127.29617 54.150562 402.09616 84 40 30 -0.43235409 -0.12845142 -0.89250475 0
77.961777 47.458076 350.65372 235 200 189 0.098024413 0.5567894 -0.82484615 0
58.947548 47.078327 349.61563 234 198 185 0.054243859 0.41690981 -0.90728122 0
44.037109 47.589386 351.55579 252 220 208 -0.2116988 0.43354985 -0.87591213 0
28.914738 48.18594 354.50385 255 227 212 -0.15494616 0.39800623 -0.90415835 0
10.323391 47.759533 354.08746 125 132 118 0.44180644 0.47522047 -0.76082122 0
6.8614559 46.570873 347.45834 162 156 149 0.13869712 0.42713749 -0.8935197 0
-26.283901 46.714767 348.00729 254 225 209 -0.15021211 0.54763466 -0.8231799 0
-41.475952 47.316631 352.69635 255 225 213 -0.18920496 0.52578235 -0.82929748 0
-57.466496 48.068134 359.28326 198 179 172 -0.42695078 0.39819428 -0.81189865 0
210.33836 38.723694 283.83084 211 208 212 -0.59890127 0.44062075 -0.66870123 0
206.21973 40.031635 292.10733 230 227 230 -0.56050032 0.21190956 -0.80053109 0
192.2319 41.951168 306.68265 181 102 113 -0.59427625 0.18398911 -0.78290713 0
181.51257 42.602173 312.50058 255 255 255 -0.30553663 0.48371047 -0.82017928 0
177.25851 44.177559 324.41013 123 125 129 -0.53438592 0.42830029 -0.72867 0
164.29189 44.708164 328.02814 124 125 132 -0.47417459 0.49781358 -0.72616208 0
144.94318 46.975002 344.95038 28 31 42 0.081768274 0.42799249 -0.90002304 0
139.70335 46.034019 344.67377 29 33 37 0.066712812 0.25267544 -0.96522492 0
130.89957 47.602623 349.29337 90 92 98 -0.71894854 -0.075829305 -0.69089228 0
109.40038 50.367954 371.26703 134 100 84 0.51981819 0.59628391 -0.61171788 0
81.815254 48.293526 351.61102 236 202 191 0.080409132 0.62188023 -0.77894473 0
62.626152 47.890842 350.07703 240 205 192 0.013665021 0.45917147 -0.88819832 0
47.6591 48.466927 351.50497 247 216 201 -0.23292905 0.45748892 -0.85816097 0
13.751873 48.65258 354.96201 197 203 194 0.22476709 0.39714733 -0.88977832 0
-5.0372696 48.01833 350.37555 189 169 155 0.30623305 0.37720656 -0.87400103 0
-7.9945068 47.010082 347.07129 128 123 123 0.33025891 0.44362178 -0.83316636 0
-22.817726 47.484283 347.9657 255 231 217 -0.14191982 0.57793498 -0.80366093 0
-37.888191 48.082867 352.33978 255 228 215 -0.21390191 0.52096421 -0.82634676 0
-53.592594 48.771641 357.84998 230 204 195 -0.37575904 0.4700076 -0.79870343 0
-1028.2455 271.12552 1965.605 225 227 231 0.19757974 0.11816864 -0.97317046 0
-924.41595 240.48882 1833.8525 229 231 235 0 0 0 0
213.61554 39.383671 284.10895 194 189 193 -0.30495071 0.49360248 -0.81449556 0
207.89674 40.611713 290.70807 195 192 193 -0.53030819 0.3844597 -0.75565714 0
200.04039 41.272125 298.21213 179 178 183 -0.52147794 0.15967129 -0.83816159 0
195.20349 42.660194 305.62439 200 189 186 -0.66926026 0.22802642 -0.70717579 0
184.07364 43.270962 312.15628 141 138 142 -0.19717027 0.53817123 -0.81938732 0
167.91071 45.487087 327.82373 108 109 113 -0.28582305 0.55207658 -0.783198 0
157.40466 46.310066 337.49374 87 89 90 -0.81613094 0.13055573 -0.56293303 0
148.63498 47.801994 344.44647 80 81 90 0.049838584 0.46545562 -0.88367248 0
129.19458 50.674313 364.68448 102 104 108 -0.74625778 -0.61746693 0.24850701 0
129.42407 54.450932 397.4707 51 44 47 -0.39355937 0.20042698 -0.89721346 0
66.486633 48.726212 351.04617 244 212 200 0.018591957 0.48781168 -0.87271661 0
32.45871 48.947594 353.48752 248 218 206 -0.1766375 0.36905584 -0.91242635 0
17.263399 49.514656 355.60733 211 202 186 0.13028915 0.43923315 -0.8888914 0
-1.3354607 48.853058 351.50385 232 207 195 -0.023680128 0.3137106 -0.94920015 0
-19.449589 48.308479 347.78271 255 234 224 -0.13973361 0.59200758 -0.7937901 0
-34.228432 48.796726 351.2045 255 235 220 -0.24410369 0.52580708 -0.81489825 0
-49.91785 49.521347 356.96707 255 230 216 -0.33034131 0.53158456 -0.77992368 0
210.81877 41.266716 289.90854 176 173 177 -0.65910637 0.47648436 -0.58186698 0
202.08046 41.882687 296.66986 206 204 207 -0.64340788 0.15923943 -0.74885005 0
188.72314 44.067654 312.30753 139 96 109 -0.40527484 0.48413917 -0.77545923 0
160.05873 46.968582 335.39407 93 94 100 -0.7167573 0.21195562 -0.66431272 0
154.04703 48.845158 348.76431 73 74 81 -0.15800081 0.5463236 -0.82253391 0
132.72473 48.176933 345.11075 102 106 109 -0.42402321 0.091670409 -0.90104175 0
90.369713 50.135204 356.23404 226 194 182 0.34226447 0.67543894 -0.65314406 0
85.426865 49.034779 352.74628 233 201 189 0.17950004 0.66122955 -0.7283321 0
70.13414 49.517101 351.43958 243 209 195 0.039955597 0.50706404 -0.86102217 0
51.03532 49.115067 349.99197 249 215 201 -0.131511 0.47583103 -0.86958158 0
35.860233 49.761284 353.37436 252 228 218 -0.10385381 0.3920233 -0.91403425 0
21.036407 50.27739 356.08255 220 199 186 0.00088936824 0.53050917 -0.84770858 0
2.1982422 49.617989 351.19852 242 212 202 -0.16932714 0.3735722 -0.91202503 0
-15.988995 49.072842 348.09949 232 212 200 -0.09877564 0.62023449 -0.77819461 0
-30.767899 49.574223 350.83813 255 230 215 -0.20143659 0.57131433 -0.79560941 0
195.95779 43.208809 302.25214 198 193 194 -0.70535648 0.26692593 -0.65666062 0
170.30196 46.115448 325.92593 112 114 120 -0.29388964 0.51827347 -0.80314153 0
162.8093 47.679607 333.254 131 128 131 -0.54672444 0.43233815 -0.71710253 0
157.02278 49.541679 344.88034 90 89 94 -0.69862592 0.22635351 -0.67874652 0
136.52258 49.013927 345.14941 31 34 40 -0.047039945 0.31247821 -0.94876426 0
128.5719 50.875473 352.13837 46 49 55 -0.83824295 -0.2057323 -0.50503331 0
101.21973 52.570511 368.57678 183 156 138 0.55173063 0.62060124 -0.55714357 0
94.561142 50.947845 359.36224 196 164 150 0.4613944 0.65315384 -0.60046428 0
73.814438 50.357128 351.82587 236 202 191 0.1126927 0.56791866 -0.81531471 0
54.684914 49.937744 350.6655 243 209 197 0.00093537342 0.49511334 -0.86883056 0
39.783031 50.573956 354.25375 255 231 218 -0.091324843 0.42887697 -0.89877272 0
24.586315 51.145233 356.69626 239 213 204 -0.093551032 0.55588639 -0.82597458 0
-12.613308 49.895172 348.74704 195 182 175 0.0047814474 0.60045302 -0.79967606 0
-46.179268 50.242943 356.01089 255 237 225 -0.23795979 0.5680303 -0.7878601 0
-833.13708 273.27249 2131.1204 232 234 236 0 0 0 0
211.86536 41.81176 286.89941 176 173 177 -0.60682511 0.50139815 -0.61668748 0
203.53073 42.463074 294.35776 238 235 238 -0.65921408 0.20581515 -0.72329229 0
190.54227 44.642258 309.84482 194 115 114 -0.5959053 0.40239269 -0.69498914 0
174.2623 46.912132 326.09091 109 109 113 -0.33433294 0.44714144 -0.82957214 0
141.43311 49.951393 346.60449 86 89 100 0.070700377 0.42312017 -0.90332347 0
127.14902 54.144367 373.7099 78 72 79 -0.82431012 -0.32061255 -0.46650308 0
77.789795 51.237068 353.73203 234 199 190 0.13286597 0.63167429 -0.76372707 0
58.588467 50.81741 351.95209 223 184 172 0.052355658 0.50712168 -0.86034739 0
43.421162 51.356964 354.03961 249 216 204 -0.16094315 0.47526696 -0.86502743 0
28.196857 51.918633 356.55597 243 215 204 -0.20297062 0.55763412 -0.80493194 0
9.9185028 51.309303 354.40439 175 159 142 0.4247742 0.23983787 -0.87289768 0
-9.0366707 50.692429 348.99216 135 129 126 0.15452617 0.54614025 -0.82333714 0
-27.379211 50.379837 351.06641 255 240 227 -0.14135915 0.60612345 -0.78269917 0
-42.758636 51.033485 355.38977 255 230 216 -0.20367393 0.56884027 -0.79683137 0
-58.588318 51.802479 362.15543 169 162 162 -0.10133739 0.50508279 -0.85710168 0
-1058.3167 287.77426 1928.5168 0 0 0 0 0 0 0
-865.76056 237.43675 1790.2981 224 228 231 0 0 0 0
214.45218 42.463646 285.99347 227 225 228 -0.41812873 0.53197652 -0.73629779 0
206.28603 43.111546 293.39432 206 206 208 -0.51643014 0.28161156 -0.80872196 0
196.69434 43.723938 300.04135 205 199 203 -0.53563958 0.33862382 -0.77363604 0
191.78625 45.189873 307.31696 151 69 87 -0.54303521 0.34270653 -0.76659369 0
181.3696 45.900784 314.42767 135 132 138 -0.43530387 0.53137028 -0.72674227 0
164.26633 48.169231 329.98715 85 85 94 -0.35953516 0.54481268 -0.75751013 0
144.98236 50.71917 346.23264 75 75 89 0.12928353 0.47784048 -0.86888963 0
130.22299 51.260715 348.41983 119 121 123 -0.59434885 0.0078854747 -0.80420065 0
123.52886 57.383583 399.08298 61 59 59 0 0 0 0
81.905807 52.201122 355.84692 237 206 196 0.14163251 0.69005954 -0.70979309 0
62.261902 51.569664 352.4743 244 212 200 0.039890829 0.51086432 -0.85870391 0
46.980431 52.166904 353.74347 247 216 201 -0.21094914 0.52573001 -0.82407755 0
12.896715 52.308628 355.27045 127 145 132 0.41526622 0.2653476 -0.87006724 0
-5.8308868 51.638084 351.8161 187 172 164 0.19350113 0.44540375 -0.8741715 0
-24.03796 51.227333 351.50772 247 219 208 -0.11388993 0.65919864 -0.74327177 0
-39.200928 51.810509 355.18442 244 201 200 -0.20827942 0.5896889 -0.78026593 0
-54.738068 52.530128 361.11722 216 194 188 -0.20101249 0.55161285 -0.80951774 0
-956.55066 292.63235 2024.0192 219 223 226 -0.0015757272 -0.0074469834 -1.0000194 0
-1025.5674 291.03372 2024.376 221 225 229 -0.54973412 -0.37947178 -0.7441892 0
209.05501 43.754265 292.41879 189 186 191 -0.50857288 0.28742281 -0.81157547 0
200.09164 44.425079 299.29605 227 225 228 -0.5557881 0.30455253 -0.77350962 0
194.42502 45.854988 306.6524 184 179 180 -0.62680745 0.30804774 -0.71572065 0
186.43311 46.725628 314.26422 178 160 161 -0.32308334 0.46791148 -0.82265395 0
168.35199 49.017448 330.54929 121 120 125 -0.30047584 0.62222892 -0.72288603 0
156.7644 49.812881 337.6683 112 114 118 -0.80546319 0.0066351853 -0.59257829 0
155.64471 52.820328 352.55115 57 57 59 -0.64160025 0.37740591 -0.66784084 0
149.98737 51.680111 350.50119 50 50 59 0.17786415 0.61505872 -0.76819307 0
120.0245 61.285355 414.79706 23 19 25 -0.35128799 -0.2718893 -0.89591897 0
85.93306 53.031754 357.17371 222 189 180 0.21840845 0.69287181 -0.68717432 0
65.98069 52.444023 352.93381 240 205 194 0.043361086 0.54801911 -0.83536339 0
31.812599 52.612972 355.78677 253 223 212 -0.22326374 0.52666998 -0.82024264 0
16.667753 53.187469 357.86566 208 194 183 0.26056376 0.57051104 -0.77884048 0
-2.0517616 52.424847 352.27704 215 192 180 0.0604572 0.43013725 -0.90075666 0
-20.314812 51.947002 351.16983 255 244 234 -0.11732168 0.68253225 -0.72138208 0
-35.636902 52.570942 354.73041 255 234 223 -0.20644946 0.61556304 -0.76061678 0
-51.05352 53.249084 360.04507 253 227 220 -0.2921313 0.60733759 -0.73875129 0
-910.59534 290.9075 2020.3433 232 236 239 -0.1830724 0.14963503 -0.97167879 0
212.34001 44.42765 291.78525 208 208 210 -0.62688851 0.26525155 -0.73252672 0
202.53168 45.073151 297.7948 217 214 217 -0.70757794 0.27534997 -0.65074527 0
187.85796 47.280087 313.1907 198 131 135 -0.43508837 0.39108685 -0.81103039 0
171.59596 49.751495 329.67215 99 101 102 -0.37014252 0.61211902 -0.69884282 0
159.31685 50.485981 336.11459 172 172 174 -0.60083395 0.24616086 -0.76050681 0
133.01604 51.90366 347.1413 43 48 58 -0.14653185 0.21691827 -0.96509796 0
125.06546 53.813286 361.3374 24 26 30 -0.44749233 0.10933619 -0.8876279 0
119.5037 56.380962 387.19016 56 54 55 -0.68592948 0.46468386 -0.56008428 0
96.152237 55.297337 365.46875 178 148 149 0.51332968 0.68063402 -0.52276576 0
90.321732 54.049309 360.10538 217 187 176 0.37357718 0.67517424 -0.63618118 0
69.625168 53.2327 353.47684 233 198 187 0.083284326 0.60665017 -0.79054254 0
50.399868 52.738396 352.35522 250 218 206 -0.14348608 0.54605812 -0.82534677 0
35.652649 53.418564 355.28253 255 233 222 -0.14166835 0.5313397 -0.83525038 0
20.403721 54.14949 359.37738 225 206 195 0.0032305142 0.67245555 -0.74015021 0
1.5688286 53.194614 352.17719 234 209 199 0.01281076 0.40968609 -0.91217363 0
-16.950844 52.760712 351.38211 241 218 207 -0.12130387 0.6777789 -0.72517121 0
-31.999512 53.338432 354.29471 248 218 208 -0.17380641 0.64658475 -0.74282098 0
-47.406822 53.968346 358.7663 255 240 231 -0.26349455 0.6263088 -0.73368269 0
-63.687752 54.792076 363.57013 131 133 146 0.13504191 0.37748367 -0.91615844 0
-65.484863 53.530655 358.63147 122 127 141 0.27687213 0.44903979 -0.84959149 0
-932.59113 307.431 2073.8264 228 232 236 -0.15714042 -0.45633447 -0.87577647 0
-976.61829 288.07654 1953.9987 227 231 235 -0.2545442 -0.094864644 -0.96243793 0
203.80438 45.606895 295.68774 237 234 237 -0.62006551 0.24737613 -0.74455655 0
196.00562 46.424976 303.72159 217 212 216 -0.69266909 0.32917961 -0.64178091 0
181.40182 48.873268 321.11456 202 199 204 -0.66925967 0.52688462 -0.52386123 0
161.91695 51.023636 333.63464 132 131 136 -0.44328687 0.44137383 -0.78018022 0
136.93427 52.743263 347.80627 103 107 110 0.026636891 0.40442786 -0.91413295 0
122.36077 57.191391 376.34262 84 81 87 -0.85860765 -0.30943796 -0.40864727 0
120.42287 61.287113 398.32529 61 60 63 -0.60932904 -0.64680183 -0.45871162 0
73.42746 54.097805 354.82449 230 197 188 0.13917574 0.64029968 -0.75541031 0
58.116222 54.479874 353.70834 242 207 196 0.037341855 0.6081779 -0.79294139 0
54.461983 53.622105 353.172 233 198 187 -0.0125729 0.5963527 -0.80265337 0
39.248356 54.338871 355.94382 252 222 209 -0.07827574 0.5290159 -0.8449403 0
23.983593 55.034882 360.32852 247 223 215 -0.14478217 0.66464984 -0.73296916 0
-13.454868 53.591484 351.97394 207 193 181 -0.092786647 0.64816022 -0.75587827 0
-28.218803 54.05452 353.72385 255 230 221 -0.097283274 0.68600261 -0.72103709 0
-896.79431 308.45218 2084.8933 229 231 235 0.02725115 -0.24240316 -0.96980637 0
-951.41425 291.19263 1950.512 227 231 235 -0.0098357666 0.26495367 -0.96426195 0
213.15173 44.938877 289.69858 189 184 190 -0.57653147 0.22858909 -0.78442568 0
198.35971 47.056255 301.84735 200 195 199 -0.56265038 0.37512353 -0.73662335 0
189.5531 47.832355 310.00836 157 68 85 -0.53581125 0.41471803 -0.73549283 0
182.68706 49.37067 316.60754 143 118 122 -0.48108286 0.55658031 -0.67734605 0
173.19095 50.258335 327.88788 95 92 97 -0.40351528 0.60259765 -0.68855381 0
165.89548 51.909149 333.41129 92 92 105 -0.24168959 0.58846897 -0.77156872 0
155.33246 52.991776 345.82956 185 185 187 -0.84799945 0.30238965 -0.43523189 0
140.36197 53.471733 347.12314 79 79 92 0.079077333 0.49291638 -0.86650127 0
126.38963 54.049397 350.98471 102 109 111 -0.74436772 -0.22606871 -0.62836361 0
124.71623 57.752808 371.31763 105 102 108 -0.7280618 0.12988278 -0.67311156 0
77.516739 55.000301 357.13199 232 200 190 0.16716582 0.71395826 -0.67997587 0
42.890923 55.078697 356.09299 249 215 201 -0.097199857 0.53663111 -0.83823913 0
27.543591 55.79427 359.85266 247 217 206 -0.22577414 0.63627827 -0.73760945 0
5.0878754 53.876366 352.61206 232 206 197 0.057942703 0.41426757 -0.90829462 0
-10.04734 54.377243 351.73047 163 156 156 0.017572144 0.59540719 -0.80325484 0
-25.107346 55.019661 355.03357 249 219 211 -0.075303167 0.70254713 -0.70759118 0
-43.822987 54.773151 358.62152 255 236 228 -0.22503918 0.64176869 -0.73314798 0
-59.749088 55.494507 362.82999 126 128 132 -0.016955052 0.44392419 -0.89590687 0
-919.42053 292.47964 1962.7244 228 232 236 0.35350609 0.47744778 -0.80445069 0
-966.74011 276.64493 1835.2941 0 0 0 -0.63540787 -0.44293097 -0.63258666 0
214.15816 45.482803 287.22797 174 171 176 -0.4225958 0.27825338 -0.86248773 0
206.66061 46.24865 294.61652 184 182 185 -0.45949867 0.1851725 -0.86867023 0
201.53223 47.754185 301.97787 193 192 197 -0.58135635 0.3291375 -0.74405771 0
191.8654 48.491867 308.56952 233 230 234 -0.61002952 0.39405158 -0.68750346 0
176.79498 51.044449 327.02585 255 255 255 -0.43515009 0.53906715 -0.72112584 0
170.40735 52.831272 334.29379 78 79 83 -0.23333339 0.67505485 -0.69990343 0
152.60428 55.931698 357.92435 12 14 20 -0.32314283 0.55769855 -0.7645337 0
145.09808 54.459564 349.00952 18 19 26 0.29564831 0.5498082 -0.78128314 0
115.3445 65.100693 416.52496 42 39 45 -0.45651719 -0.81920284 -0.34721363 0
81.659286 55.994591 358.86087 242 214 205 0.12867454 0.70600474 -0.69645286 0
61.844524 55.326141 354.41275 239 209 198 0.027641973 0.63238436 -0.77414167 0
46.522293 55.920254 355.98737 254 224 211 -0.17656349 0.56093287 -0.80882955 0
31.283813 56.605572 359.73999 254 225 217 -0.20842318 0.64367938 -0.73633355 0
12.261839 56.137238 357.41928 164 154 133 0.42501223 0.47131678 -0.77277553 0
8.4375229 54.418392 349.62869 214 202 195 0.29715696 0.27681738 -0.91381478 0
-6.5537491 55.252258 352.56625 147 139 135 0.075611748 0.56504583 -0.82156682 0
-21.750992 55.910263 356.15604 235 207 198 -0.10133301 0.7171405 -0.68955314 0
-40.240723 55.533283 358.15271 255 234 227 -0.19383919 0.65391111 -0.73131168 0
-56.509972 56.400394 364.40842 176 167 166 0.027586125 0.54550064 -0.83766729 0
-909.76349 300.14676 1984.8547 227 231 235 0.691553 0.35870412 -0.62690771 0
216.53134 46.092598 286.13351 198 192 198 -0.26373044 0.30915096 -0.91368997 0
209.43918 46.884174 293.58582 225 222 226 -0.49226019 0.079640582 -0.86678421 0
194.44666 49.113918 307.33908 223 218 224 -0.67433965 0.42386311 -0.60455018 0
184.78157 49.953697 314.81128 157 59 69 -0.48586598 0.51494211 -0.70620245 0
179.62279 51.746067 325.25574 237 234 239 -0.655424 0.51263535 -0.55463201 0
156.166 53.384937 339.29434 90 92 94 -0.79637522 0.33252314 -0.50521219 0
128.71542 54.676022 347.53784 137 139 143 -0.43851915 -0.10767945 -0.89226633 0
120.63299 61.238449 386.25217 75 71 81 -0.89011902 -0.24838153 -0.38206592 0
90.66935 58.201534 365.06497 152 142 136 0.38654914 0.64143217 -0.66259038 0
85.760239 56.896511 361.27859 240 211 203 0.24233164 0.68089795 -0.69108588 0
65.618378 56.233582 355.7601 245 214 204 0.053399324 0.66348171 -0.74624044 0
50.221764 56.741608 356.22556 245 214 204 -0.10018165 0.62514967 -0.77405751 0
19.719532 58.17382 364.38483 241 222 213 -0.019979911 0.76159662 -0.64779443 0
15.989777 57.038784 361.19678 204 190 179 0.12908377 0.77907699 -0.61350757 0
-2.9673119 56.144241 353.92957 185 168 160 0.045149758 0.54609889 -0.83651811 0
-18.117817 56.630466 356.09122 255 244 234 -0.14027341 0.71228611 -0.68772596 0
-36.961853 56.393936 358.16309 255 228 219 -0.17510097 0.67529267 -0.71648616 0
-52.837688 57.268757 364.9599 221 204 198 -0.15457104 0.66566122 -0.73014694 0
-68.439201 57.646706 363.98111 139 147 156 0.27687213 0.44903979 -0.84959149 0
-953.97107 322.29868 2044.3783 218 222 225 0.22959177 -0.18322411 -0.95585108 0
210.19986 47.396057 290.9834 213 211 214 -0.62003267 0.013573715 -0.78439671 0
202.48596 48.224533 298.82318 190 187 193 -0.73100477 0.19871426 -0.65280938 0
187.87921 50.662155 314.12155 183 98 116 -0.47746289 0.47595403 -0.73856026 0
181.35742 52.298889 322.34296 125 109 112 -0.66314322 0.49702454 -0.55962956 0
172.20317 53.38707 332.06161 126 125 132 -0.36671707 0.67336476 -0.64195228 0
158.85489 54.046818 337.28333 148 147 152 -0.5442462 0.48450232 -0.68482989 0
153.4377 56.247967 352.24292 77 82 82 -0.70792097 0.40213874 -0.58061272 0
132.56247 55.563046 347.89548 5 7 13 0.080048405 0.25902209 -0.96261293 0
123.44521 57.362873 356.36139 15 16 20 -0.83283466 -0.3522301 -0.42710164 0
115.69794 64.643471 401.41483 50 48 49 -0.79910612 -0.55639726 -0.22757269 0
73.746567 58.199837 359.54477 234 206 195 0.1652891 0.74487066 -0.6464653 0
69.476517 57.102047 356.80029 232 202 191 0.085158266 0.69730824 -0.71171021 0
53.914356 57.544758 356.10477 228 195 186 -0.0014586827 0.68080729 -0.73252463 0
0.61513901 57.005753 354.7001 215 196 186 0.023847731 0.59733486 -0.80166703 0
-33.422958 57.211876 358.56918 246 220 215 -0.14604698 0.70555377 -0.6934759 0
-49.056789 57.988724 363.84808 253 236 228 -0.27882692 0.68426836 -0.6738317 0
-64.120529 58.380016 363.7467 157 161 169 0.13618717 0.42186686 -0.89642853 0
-888.16315 314.28406 2031.2933 232 236 239 0.46764049 0.19613974 -0.86186838 0
204.00545 48.770744 296.14987 191 190 195 -0.62511498 0.09993425 -0.77412921 0
196.40265 49.688034 306.14102 231 228 231 -0.70952559 0.29177028 -0.6414308 0
190.60283 51.316792 313.4541 207 200 203 -0.41470855 0.39085674 -0.82175648 0
174.8456 53.997566 330.39801 255 255 255 -0.41946536 0.62657154 -0.65679199 0
162.81003 54.846706 337.02954 123 123 127 -0.30467126 0.6008811 -0.73902124 0
137.22649 56.421577 349.81708 111 115 120 0.092885993 0.445263 -0.89058977 0
78.084297 59.261002 363.02582 240 215 205 0.10597529 0.75805068 -0.64352268 0
57.75853 58.417053 357.54233 241 213 202 0.033286035 0.71499968 -0.69834256 0
38.768677 58.123032 358.28888 250 220 210 -0.11756728 0.62344849 -0.77291495 0
23.467279 58.900238 364.24765 254 235 228 -0.19609876 0.70232445 -0.68430054 0
4.0310936 58.000954 355.89264 229 206 196 -0.058747645 0.629475 -0.77478826 0
-14.596016 57.467083 355.95999 229 213 202 -0.16468285 0.69906783 -0.69584799 0
-29.582359 58.002052 358.6842 236 208 199 -0.093260214 0.72964466 -0.67746449 0
-45.353905 58.725414 362.95758 255 241 233 -0.25057128 0.69234586 -0.67667276 0
-883.95471 323.74731 2044.7423 232 234 238 0.27037707 -0.051581245 -0.96138102 0
-923.04712 302.45416 1938.567 226 230 233 -0.17814425 -0.08413396 -0.98041761 0
-1069.8542 319.40729 1871.8229 0 0 0 0 0 0 0
211.7907 47.94025 289.20901 161 158 161 -0.6117506 0.041182436 -0.7899667 0
207.54446 49.468533 295.48349 167 164 169 -0.45845589 0.095559657 -0.88362318 0
198.26836 50.254025 303.60748 201 198 201 -0.61962461 0.18707308 -0.76233166 0
193.79958 52.008385 313.44043 237 234 237 -0.64195454 0.42880261 -0.63573509 0
184.37973 52.97076 320.89926 127 27 40 -0.59006029 0.54120266 -0.5991655 0
178.58884 54.783131 330.59296 255 255 255 -0.5608114 0.51648176 -0.64708608 0
165.47699 55.498455 336.17984 104 103 106 -0.16552548 0.65028965 -0.74149787 0
155.05096 56.648262 348.15945 106 110 115 -0.86875069 0.3304072 -0.36884776 0
148.08992 58.847767 357.58572 0 0 4 0.43055752 0.49744835 -0.75313395 0
140.81076 57.361351 350.08847 121 125 129 0.097455136 0.49720445 -0.8621037 0
125.02888 57.71756 350.0257 117 118 125 -0.67121822 -0.050358638 -0.73948234 0
117.5572 64.777489 394.17349 91 88 96 -0.78990448 -0.59513211 -0.14781061 0
109.17355 68.031197 412.77377 74 70 78 -0.43136084 -0.40130916 -0.80804706 0
87.664368 61.972042 364.77499 255 255 255 0.26729363 0.61912358 -0.7383967 0
81.946167 60.06197 364.21655 233 208 198 0.09697666 0.72086573 -0.68627185 0
61.545662 59.274166 358.18167 238 210 202 0.023950057 0.72960275 -0.6834991 0
42.263542 58.925636 358.81207 247 217 206 -0.065094218 0.6337468 -0.77084327 0
27.028244 59.655613 362.89236 238 207 197 -0.23296192 0.67265123 -0.70234567 0
11.691088 60.575481 369.02176 215 201 190 0.21122029 0.80001909 -0.56150872 0
7.8019886 58.875916 355.76712 200 195 187 0.23556662 0.71646637 -0.65666103 0
-10.807194 58.115292 354.45242 180 171 171 -0.11198422 0.67567301 -0.72865826 0
-26.149567 58.840576 359.48416 227 199 190 -0.05707923 0.74612623 -0.66339344 0
-41.677704 59.489147 362.54507 254 230 222 -0.18298067 0.70927334 -0.68076664 0
-57.799767 60.371368 367.62097 170 167 175 0.26786429 0.6123184 -0.74387151 0
-60.064102 59.036533 362.88071 139 140 151 0.096291557 0.41322687 -0.90556467 0
-919.78735 311.70285 1976.8977 230 234 237 0.17774604 0.54537255 -0.81914806 0
214.32129 48.564598 288.24023 229 226 229 -0.49786803 0.10200451 -0.86127174 0
201.28113 50.949158 302.91962 209 206 209 -0.63147998 0.13020593 -0.76432908 0
186.02911 53.489719 317.80319 165 84 95 -0.56096274 0.56177336 -0.60808116 0
169.89859 56.422245 337.28339 149 148 153 -0.19589238 0.68972552 -0.69697744 0
157.2177 57.217094 343.57425 125 127 131 -0.70809805 0.50011969 -0.49848965 0
152.84828 59.854492 360.49719 109 111 113 -0.64934075 0.28780085 -0.70393866 0
65.561081 60.309666 360.05338 236 208 199 0.068172723 0.72579575 -0.68457252 0
46.048 59.789104 359.07806 236 208 199 -0.099905625 0.65683955 -0.74734771 0
30.586708 60.480232 362.69315 255 231 221 -0.19017187 0.67486429 -0.71302575 0
15.267448 61.283268 367.98724 213 197 184 0.016572932 0.77357352 -0.63345903 0
-7.3176117 59.062141 355.32776 163 156 156 -0.024186704 0.66127247 -0.7497254 0
-22.670429 59.696705 359.57565 236 208 199 -0.076466598 0.7414493 -0.66660374 0
-38.150597 60.322891 362.74213 254 234 230 -0.1445297 0.72223175 -0.67632121 0
-54.643753 61.324059 369.35583 192 186 181 0.042065565 0.71509886 -0.69776803 0
-911.68408 319.77527 2001.1056 228 232 236 0.40605456 0.6538012 -0.63850814 0
217.2997 49.165825 287.5155 187 184 185 -0.41351101 0.19595277 -0.88913798 0
208.00038 49.863544 293.0672 176 175 180 -0.51546735 0.12820333 -0.84723133 0
203.3403 51.52153 299.49704 151 147 153 -0.70024431 0.028970636 -0.71328479 0
194.52649 52.42968 308.65515 220 219 224 -0.50646269 0.27799958 -0.81627864 0
132.7204 59.3815 350.25098 48 50 56 0.15812854 0.37521791 -0.91336507 0
127.92358 58.294201 347.3566 21 22 26 -0.067900456 0.26901859 -0.96073252 0
120.11959 60.583271 358.88922 5 7 13 -0.78375882 -0.47701091 -0.39782834 0
117.84631 64.52832 380.58514 87 88 95 -0.81924182 -0.54588312 -0.17551135 0
111.69048 68.247215 407.52457 48 47 52 -0.81425762 -0.43646353 -0.382797 0
69.592834 61.224228 362.33725 231 205 198 0.18798354 0.74760735 -0.63701004 0
49.612778 60.538548 358.88907 233 204 196 -0.036254305 0.7096985 -0.7036044 0
34.315491 61.395557 363.51572 250 222 213 -0.21031933 0.70218617 -0.68030852 0
18.88987 62.270687 368.90619 244 225 215 -0.062123898 0.77307498 -0.63123012 0
-3.730526 59.880276 356.19022 158 147 144 0.047508933 0.69044286 -0.72183365 0
-19.272453 60.600269 360.26889 238 212 203 -0.10856166 0.75881028 -0.64223778 0
-846.70361 335.52679 2092.0295 232 234 236 -0.57010102 -0.061392087 -0.81925094 0
-921.7934 333.19943 2033.3694 227 231 235 0.1244303 0.026807677 -0.99189013 0
-921.42572 300.97516 1858.7214 230 234 237 0 0 0 0
210.22836 50.462421 291.31567 210 209 212 -0.66385812 0.12726782 -0.7369554 0
197.08199 53.076775 307.30435 227 225 228 -0.71206158 0.095204562 -0.69555938 0
188.07663 54.001961 315.17532 199 194 198 -0.52558404 0.4945915 -0.69228911 0
172.33838 56.925068 336.19641 160 163 162 -0.37596881 0.66757059 -0.64259517 0
159.56171 57.765404 340.42807 127 126 133 -0.44694591 0.66147059 -0.60228217 0
153.99759 60.137615 354.58594 27 25 35 -0.72495657 0.39862755 -0.56174052 0
137.40512 60.389114 352.72348 66 66 70 0.16506054 0.47342876 -0.86524785 0
122.64413 61.027824 355.08792 85 86 92 -0.74632871 -0.24845135 -0.61749244 0
77.756287 63.486553 366.85129 255 255 255 0.067990318 0.77588195 -0.62729603 0
73.863991 62.242638 365.56433 228 200 191 0.19889666 0.75577843 -0.62395906 0
53.866474 61.583279 360.84088 233 205 194 0.05561414 0.78162217 -0.62124211 0
38.008781 61.996658 361.10138 241 213 202 -0.1537638 0.69884348 -0.69846213 0
22.523773 63.129498 369.14471 236 216 209 -0.23246707 0.71643353 -0.65777713 0
-0.29639816 60.842331 357.7807 174 161 154 0.038940981 0.7002387 -0.71277982 0
-15.628551 61.407879 360.45255 250 228 222 -0.14432348 0.78470886 -0.60280514 0
-34.669807 61.187263 362.94656 248 223 220 -0.11823756 0.74112624 -0.66082257 0
-50.761734 62.010059 368.8476 230 217 210 -0.27057448 0.69867074 -0.66225731 0
-982.03894 326.23163 1899.3943 223 227 230 -0.086923964 0.77965617 -0.62022847 0
202.72209 51.737438 295.89688 224 221 226 -0.65359092 0.051151156 -0.75506639 0
191.01514 54.798237 315.40601 213 210 216 -0.38790047 0.21156278 -0.89706767 0
175.74323 57.747726 335.14005 255 255 255 -0.50985163 0.58329684 -0.63237292 0
163.18025 58.560535 340.22061 123 119 129 -0.25548944 0.70399833 -0.66260177 0
156.4635 60.67889 350.07477 131 132 139 -0.7976563 0.3975248 -0.45354477 0
119.46203 64.701637 373.33362 104 106 108 -0.82464778 -0.5260089 -0.20825045 0
113.45066 68.158134 399.14816 99 100 104 -0.87211561 -0.43745506 -0.21924065 0
57.639385 62.638695 363.5224 234 209 199 0.020046754 0.8210156 -0.57046926 0
41.950535 62.973759 362.78198 233 204 196 -0.0040488811 0.74261993 -0.6696142 0
26.538013 63.85648 368.05264 248 226 218 -0.27686536 0.69174403 -0.66696101 0
3.3553963 61.715458 360.02042 199 183 168 0.14444266 0.79339433 -0.59128553 0
-11.946037 62.267216 360.73376 219 202 194 -0.1530754 0.79300535 -0.58972418 0
-27.636532 62.982124 363.88464 253 229 223 -0.059254494 0.76754415 -0.63819897 0
-30.933983 62.025219 363.43234 255 234 228 -0.070801288 0.75847912 -0.64788699 0
-46.899994 62.785912 367.71188 238 223 217 -0.242268 0.72744131 -0.64199644 0
-975.7215 336.0802 1983.3048 225 229 232 -0.73978412 0.24390925 -0.62703514 0
211.758 50.998859 289.68893 201 198 201 -0.64481789 0.12165505 -0.75460124 0
205.4238 52.394348 294.8793 194 188 195 -0.56378466 0.10484645 -0.8192609 0
198.68962 53.586361 304.95761 246 243 246 -0.66520286 0.0011781838 -0.74663925 0
193.89737 55.387764 314.40475 210 207 212 -0.43244529 -0.05684321 -0.8998304 0
179.53403 58.603039 333.88708 146 141 147 -0.73548591 0.38944522 -0.55435431 0
166.78145 59.352459 340.32974 82 85 91 -0.23644836 0.6397987 -0.73129863 0
140.21933 61.009708 352.66885 90 92 96 0.32178766 0.46181786 -0.826518 0
124.33598 61.289513 350.71106 95 98 106 -0.49293891 -0.057060175 -0.86820859 0
108.40732 72.266579 413.92673 170 171 177 -0.8079319 0.069565117 -0.58506703 0
61.545433 63.321018 363.90338 234 209 199 -0.081629768 0.79179126 -0.60530031 0
45.688164 63.936462 363.67783 233 204 196 0.0073151262 0.77967757 -0.62615889 0
14.517712 65.694412 374.36368 232 215 205 0.0012103283 0.70237118 -0.71184707 0
-8.3515511 63.136406 360.57901 194 185 183 -0.14324139 0.78639585 -0.60088605 0
-43.296989 63.59845 367.41513 244 224 219 -0.17320047 0.75604755 -0.63114625 0
-61.446682 62.862537 364.67548 152 155 163 0.23860803 0.3844884 -0.89174837 0
-966.58838 344.15665 2005.2549 225 229 232 -0.066053957 0.44548628 -0.89282525 0
-1006.5807 323.14362 1890.5226 0 0 0 0.10183067 0.45695886 -0.88359195 0
199.24945 53.960434 301.48416 212 209 215 -0.62043643 0.011678142 -0.78416485 0
186.9413 57.040092 320.7821 194 175 182 -0.66843754 0.39720187 -0.62885725 0
171.39169 60.196007 340.75513 135 137 136 -0.26624647 0.57844973 -0.77104467 0
158.4577 61.130482 347.90613 133 135 141 -0.62453747 0.57307714 -0.53063148 0
151.20694 63.399124 359.96875 7 6 11 -0.71144015 0.3643834 -0.6008392 0
127.76809 62.018253 349.9639 94 95 102 0.092111573 0.31468144 -0.94467944 0
114.50975 68.057793 387.19806 162 161 168 -0.90976411 -0.3754333 -0.17729656 0
70.137634 65.767845 368.70871 255 254 255 0.21178 0.80031246 -0.56085241 0
65.396706 64.339096 364.58224 233 207 200 0.062686101 0.80563188 -0.5889864 0
49.63818 64.699677 364.7066 229 203 193 0.060759611 0.80565411 -0.5892275 0
34.028622 66.047707 372.29678 243 219 214 -0.13413073 0.68922228 -0.71204835 0
30.032307 64.675186 367.9888 245 221 213 -0.1181672 0.7282294 -0.67509407 0
-23.964787 63.839546 365.16354 239 218 209 -0.04988556 0.78603059 -0.61617589 0
-39.656746 64.469345 368.09146 246 226 222 -0.13625851 0.77442074 -0.6178385 0
-56.28344 65.48362 375.05212 158 158 162 0.10813119 0.72463614 -0.68057173 0
-58.408001 63.958591 368.47403 154 156 162 0.31888521 0.6936059 -0.64595854 0
-835.15112 339.82837 2059.5579 232 234 236 0.11570082 0.052809473 -0.99183303 0
-970.23749 355.92865 2023.6774 225 229 232 0.30484429 -0.028178081 -0.95197499 0
-1066.3545 363.41724 2174.3958 224 228 231 0 0 0 0
-1010.4756 333.75754 1907.963 0 0 0 -0.090595581 0.19297926 -0.97700536 0
217.14655 52.253296 288.07751 233 231 232 -0.37698922 -0.073572323 -0.92332858 0
194.50098 55.746937 309.71988 225 222 226 -0.39491233 -0.15377799 -0.90578586 0
190.05174 57.758545 319.67896 216 211 217 -0.64240003 0.27512422 -0.71526915 0
179.31889 58.699303 327.35886 165 99 112 -0.76040936 0.20243971 -0.61714506 0
175.60498 61.211918 341.18976 255 255 255 -0.33865747 0.48388585 -0.80698884 0
161.53061 61.826012 345.74664 118 120 126 -0.39606196 0.67629451 -0.62114501 0
132.3168 63.129333 352.75226 34 39 46 0.21575588 0.46784431 -0.85702801 0
118.89907 64.086433 357.87262 31 35 38 -0.84994769 -0.36785164 -0.37733227 0
111.34267 72.59391 408.05872 116 118 122 -0.94285804 -0.16250174 -0.2907708 0
74.188728 67.283562 372.37912 255 255 255 0.28281826 0.8026861 -0.52511358 0
53.635269 65.93438 367.83151 236 213 205 0.10427844 0.86202747 -0.49604109 0
18.187017 66.552269 374.15457 245 226 216 -0.032787766 0.74454868 -0.66672003 0
-1.3308067 65.046547 363.22195 193 178 171 0.18341318 0.81303579 -0.55255663 0
-4.8000755 63.803864 360.46457 163 151 153 -0.016253579 0.79084378 -0.61184198 0
-20.409321 64.766273 365.95911 234 210 202 -0.039645776 0.80960441 -0.58558893 0
-36.123909 65.30777 368.14688 243 226 220 -0.12056901 0.77964008 -0.61452055 0
-52.661968 66.31749 374.36182 215 205 206 -0.18470165 0.68120044 -0.70845526 0
-943.43506 359.08517 2037.1084 228 232 236 0.26573917 -0.19144285 -0.94481933 0
211.11491 53.716843 293.47931 218 205 200 -0.52034944 0.20025836 -0.83017546 0
