ply
format ascii 1.0
comment PCL generated
element vertex 601
property float x
property float y
property float z
property uchar red
property uchar green
property uchar blue
property float nx
property float ny
property float nz
property float curvature
element camera 0
property float view_px
property float view_py
property float view_pz
property float x_axisx
property float x_axisy
property float x_axisz
property float y_axisx
property float y_axisy
property float y_axisz
property float z_axisx
property float z_axisy
property float z_axisz
property float focal
property float scalex
property float scaley
property float centerx
property float centery
property int viewportx
property int viewporty
property float k1
property float k2
end_header
167.17894 47.060913 295.29126 170 164 168 -0.50170684 0.13231088 -0.85485917 0
158.3421 46.865658 302.90826 171 170 175 -0.6691584 0.21202187 -0.71223694 0
141.04588 47.12339 316.55615 247 246 251 -0.40952873 0.2834256 -0.8671301 0
130.25436 46.706219 323.34955 152 154 158 -0.52418184 0.064932317 -0.84917998 0
121.5152 47.195251 330.6055 235 234 239 -0.6475063 -0.12794474 -0.7512117 0
86.742058 46.966209 356.36499 93 98 99 -0.36217481 0.633205 -0.68393648 0
76.708572 47.75808 362.96893 120 124 129 -0.53635693 0.38126639 -0.75297624 0
67.323303 49.229267 381.23862 40 41 52 -0.19725338 0.55389351 -0.80889952 0
61.140053 46.806393 368.43558 29 35 42 0.41758835 0.69820595 -0.58148432 0
41.059467 44.131523 364.40958 44 52 56 -0.69717848 -0.27687284 -0.66132057 0
-11.078497 39.417885 367.80743 236 208 201 0.015911013 0.87430918 -0.48507601 0
-30.533371 36.606468 362.50629 229 201 192 -0.011514768 0.82813543 -0.56035137 0
-47.080387 35.433533 363.19818 242 220 214 -0.26981771 0.6152764 -0.74068189 0
-66.321602 32.83305 365.35156 114 107 107 0.24340075 0.85002369 -0.46711755 0
-101.13192 27.561308 350.31787 230 208 202 -0.060748473 0.81189364 -0.58060431 0
-136.59801 24.077477 350.39212 168 172 177 0.046853222 0.72641987 -0.68562281 0
183.60431 47.535294 281.582 170 162 169 -0.25955367 0.34892616 -0.9005273 0
176.27872 47.426319 287.99551 206 201 205 -0.646478 0.22682279 -0.72849458 0
160.49167 47.681 301.01636 199 198 203 -0.68038112 0.2981241 -0.66940677 0
150.76299 47.338432 308.56332 150 151 157 -0.58953166 0.22771153 -0.77500647 0
132.43706 47.579872 322.03116 198 197 200 -0.52619612 0.132728 -0.83997232 0
113.25854 48.097366 340.25482 178 90 99 -0.61847186 0.18764715 -0.76305056 0
104.032 48.805328 348.40842 215 215 217 -0.61278522 0.12925895 -0.77961159 0
90.615463 48.262184 355.87238 131 135 138 -0.30980641 0.65098435 -0.69293308 0
70.67688 50.461464 378.8428 38 39 46 -0.77003467 0.33080441 -0.54550737 0
33.971413 46.836811 387.19937 206 206 208 -0.49493521 -0.46262676 -0.73555702 0
-4.4061022 42.693836 378.27469 255 255 255 0.18319213 0.90873742 -0.37486848 0
-7.5668869 41.035034 370.95767 231 210 203 0.09046495 0.88319635 -0.46020961 0
-23.876627 39.643604 369.25769 239 213 204 0.034228824 0.88678789 -0.4609673 0
-27.158224 38.019905 365.29645 231 203 195 0.0096166208 0.86294001 -0.50520396 0
-62.850174 34.284286 366.70917 236 220 209 0.093739673 0.7890079 -0.60721642 0
-82.978027 29.983612 351.18573 237 215 209 -0.18316415 0.84242761 -0.50680703 0
-98.579308 28.855827 353.16489 239 220 213 -0.03067534 0.85557753 -0.51671547 0
-114.63796 27.698982 353.254 228 211 205 -0.12783885 0.76620519 -0.62969279 0
-117.23273 26.415096 351.814 239 226 221 -0.11442287 0.77561647 -0.62073183 0
-132.29163 26.661026 356.9306 175 174 179 0.06233678 0.79277748 -0.60635567 0
-132.28333 25.240965 351.51642 176 175 180 0.15017714 0.81902695 -0.55371898 0
178.27998 48.220306 286.98145 191 183 190 -0.63593429 0.25807446 -0.72730082 0
169.41112 47.940048 293.50858 87 81 88 -0.56090063 0.1205088 -0.81904596 0
162.81638 48.58699 298.74878 184 183 188 -0.57452893 0.35741878 -0.73633188 0
153.24014 48.262753 306.71338 152 155 161 -0.65976608 0.21415776 -0.72029507 0
142.52463 47.77327 314.38446 199 198 203 -0.54710889 0.25756904 -0.79645824 0
123.99378 48.191063 328.40585 230 232 234 -0.61925459 -0.17412382 -0.76565641 0
116.47003 49.18935 338.33893 222 221 228 -0.62564695 0.00020443276 -0.78010917 0
79.614151 48.67334 361.20407 159 161 163 -0.47334036 0.44477123 -0.76039612 0
44.159401 44.969337 358.99097 117 119 121 -0.45621297 0.011540543 -0.88979834 0
25.486778 49.571594 401.86096 98 102 105 -0.84765846 -0.30223262 -0.4359487 0
-59.751602 35.644142 367.87506 243 224 214 0.023127012 0.8201108 -0.57163256 0
-78.785355 31.0877 351.9762 160 154 145 -0.018213771 0.86902207 -0.49448067 0
-95.662498 30.121132 355.23654 228 206 198 -0.060923196 0.85933924 -0.50767505 0
-147.71916 25.38612 355.67062 255 255 255 -0.23794064 0.61382705 -0.7527253 0
180.73317 49.123196 286.59824 190 178 180 -0.66336364 0.28084069 -0.69366598 0
171.97029 48.844696 293.0018 135 133 136 -0.54367912 0.18197186 -0.8192969 0
155.69717 49.187103 305.37927 205 204 209 -0.59761834 0.23494098 -0.76655418 0
145.39548 48.813232 311.86124 218 220 224 -0.54551959 0.23893377 -0.80332911 0
133.80003 48.20496 320.13907 139 141 145 -0.57780182 0.16570066 -0.79913372 0
125.96959 48.983807 325.06125 249 251 252 -0.54277915 -0.067878157 -0.83711016 0
106.80827 49.683949 346.28442 136 119 125 -0.72890043 -0.048127327 -0.6829865 0
83.401657 49.87318 361.81192 110 117 117 -0.4407461 0.53547251 -0.72036237 0
47.492294 46.029743 358.44238 11 12 21 0.24074854 0.27558196 -0.93062848 0
36.793804 47.278534 368.66843 37 44 46 -0.74180287 -0.49630898 -0.45099568 0
-16.693115 42.516579 376.39365 232 215 207 -0.10729931 0.8975693 -0.42756063 0
-19.945934 40.796814 371.71832 237 216 205 -0.0077102557 0.92318791 -0.38426372 0
-36.202923 39.477211 368.09552 229 209 202 -0.084290005 0.82289726 -0.56189954 0
-56.420994 36.919514 370.74716 246 226 222 -0.27326253 0.75786251 -0.59245336 0
-73.830917 33.898335 359.28525 235 218 212 0.22915238 0.88345349 -0.4086968 0
-76.026566 32.446468 354.8017 210 197 192 0.1364747 0.88522738 -0.44467667 0
-92.500443 31.358156 356.81882 255 233 230 -0.11818612 0.8379668 -0.53273821 0
-108.19263 30.183697 355.19968 235 220 213 -0.018711843 0.82194054 -0.5692926 0
-110.76756 28.853075 353.61795 229 207 203 -0.081793912 0.78827351 -0.60990351 0
-128.29816 27.830572 356.65906 198 192 196 -0.11173221 0.74921733 -0.65273023 0
174.1075 49.68224 291.68625 205 199 203 -0.59349626 0.2320859 -0.77067208 0
164.93829 49.410072 297.72812 213 211 214 -0.50826776 0.37218261 -0.77654642 0
148.929 49.975838 312.28464 160 157 162 -0.48693985 0.25354102 -0.83579367 0
136.7908 49.252319 318.07047 154 153 158 -0.5096032 0.12957276 -0.85063905 0
117.96184 49.751488 333.53619 203 205 207 -0.66333055 -0.13593641 -0.73590106 0
109.50222 50.636494 343.31604 104 17 17 -0.67404681 -0.099455684 -0.73192507 0
86.54541 51.025925 360.45605 80 87 89 -0.37455189 0.60266513 -0.70469087 0
72.335442 50.663731 370.06494 107 118 123 -0.80388278 0.32272366 -0.49963802 0
56.135414 49.325104 367.39615 27 32 39 0.57258463 0.51007009 -0.64182615 0
51.167221 47.543549 362.14316 117 125 131 0.49619144 0.41778299 -0.76104754 0
29.374649 50.011101 392.33093 163 168 168 -0.85422891 -0.32145983 -0.40855867 0
-13.636644 44.100533 377.25821 255 255 255 -0.060083888 0.90176088 -0.42802796 0
-32.558907 40.813564 370.15298 231 212 204 -0.034208253 0.86494595 -0.50062251 0
-71.370941 35.368561 365.09634 213 194 185 0.27850071 0.85706002 -0.43350297 0
-89.387947 32.659126 358.00894 230 210 203 -0.11236054 0.84649128 -0.52043957 0
-105.17761 31.44945 357.91876 216 201 195 0.0098773837 0.86659157 -0.49896067 0
-124.32524 29.015364 356.34897 214 209 209 -0.13384695 0.76087558 -0.63494515 0
-141.35629 26.443806 351.54233 230 230 232 -0.13942444 0.62870121 -0.76495987 0
181.72519 49.733337 284.0079 184 145 147 -0.57166284 0.35523334 -0.73961669 0
176.54143 50.584278 290.1716 156 148 153 -0.60247457 0.30578157 -0.73714668 0
167.4071 50.313133 296.51892 130 127 130 -0.6030069 0.26615778 -0.75204641 0
158.09236 50.04562 303.94473 205 204 209 -0.6437875 0.21131009 -0.73544711 0
151.53038 50.902279 311.25003 191 188 194 -0.56437773 0.13116521 -0.81504089 0
140.11899 50.329361 316.92487 222 222 226 -0.43018603 0.21083586 -0.87775725 0
128.56459 49.862839 323.32498 223 223 226 -0.47519186 0.0060347691 -0.87989587 0
90.441933 52.137299 361.37793 104 106 110 -0.3184852 0.65485257 -0.68531239 0
75.869415 51.721966 367.91977 57 63 68 -0.56764162 0.48823896 -0.66287541 0
65.915543 53.191921 384.06265 102 106 107 -0.57479548 0.36048222 -0.73458707 0
60.639519 51.084148 377.14493 30 37 39 0.54411417 0.64453328 -0.53712511 0
39.47588 47.602982 362.80508 65 73 79 -0.5755682 -0.25148937 -0.77809972 0
20.570229 53.242352 412.45129 211 215 216 -0.79002929 -0.42109135 -0.44549313 0
-29.115192 42.246853 373.02322 234 212 204 0.098397471 0.88704741 -0.45101261 0
-86.130814 33.968777 360.10562 237 215 209 -0.064898357 0.86944336 -0.4898636 0
-102.07818 32.741234 360.38089 209 194 188 -0.0046573132 0.87843454 -0.47782028 0
-121.16466 30.264614 358.2251 222 211 208 -0.08668144 0.80583298 -0.58577734 0
-139.13364 27.754269 353.00793 192 191 196 0.090942897 0.7149384 -0.69323123 0
183.76326 50.558445 283.34937 135 51 75 -0.31452987 0.43838531 -0.84199679 0
169.23447 51.065269 294.62375 216 213 218 -0.60772896 0.19471923 -0.76987153 0
160.6768 50.996872 302.54443 212 211 214 -0.63521439 0.23355551 -0.73613036 0
143.60219 51.490715 316.99011 184 182 185 -0.4612444 0.18706742 -0.86735231 0
131.44371 50.885239 322.86188 201 203 205 -0.47527838 0.047405202 -0.87856543 0
119.2991 50.281609 329.34399 246 249 248 -0.58414245 -0.11761143 -0.80312949 0
112.03244 51.5242 341.01199 234 227 229 -0.5945546 -0.079278089 -0.80013609 0
103.37256 52.445152 348.75516 142 107 112 -0.56380939 -0.047698151 -0.82453895 0
79.441742 52.853748 366.18729 165 171 176 -0.37552154 0.58280885 -0.72062981 0
69.530136 54.376625 379.83145 164 170 175 -0.78323364 0.14900672 -0.60368764 0
32.317513 50.806488 387.17532 176 179 180 -0.8516472 -0.38968527 -0.35046452 0
-22.602213 45.943943 384.81027 252 254 255 -0.027785018 0.8741805 -0.48482552 0
-25.702806 43.92733 380.23431 208 187 178 0.11514518 0.90232038 -0.41543445 0
-60.864788 41.921646 377.13931 181 191 195 0.28818029 0.83755118 -0.46424925 0
-83.397011 35.29512 362.0174 238 217 210 -0.04923588 0.89304858 -0.44725603 0
-98.964325 34.041462 362.97949 214 202 193 -0.081998333 0.85072702 -0.51907718 0
-117.43687 31.470633 358.16028 200 189 186 -0.15093398 0.80553359 -0.57302475 0
-134.9987 30.446651 360.08798 196 198 202 0.14689137 0.77676362 -0.61241072 0
-135.52991 28.908779 356.35181 183 182 185 0.28952032 0.7730341 -0.56442666 0
188.74377 51.944126 283.65475 0 0 0 -0.067025818 0.48547155 -0.87162995 0
177.5159 51.146805 288.0676 177 170 170 -0.5658012 0.34488696 -0.74896556 0
153.18272 51.632149 308.4942 197 196 203 -0.58746243 0.093789771 -0.803765 0
146.55983 52.51384 314.79971 206 201 205 -0.54843879 0.098774761 -0.83036959 0
134.39505 51.923424 321.28806 191 191 193 -0.59819943 0.013631385 -0.80127865 0
121.85011 51.224556 327.52167 216 218 222 -0.60199445 0.006690558 -0.79849255 0
114.10972 52.286697 335.85938 159 161 165 -0.66013563 -0.16803578 -0.73217225 0
93.888222 53.413376 360.47418 255 255 255 -0.66756451 0.34704024 -0.658629 0
42.858639 48.684296 360.22311 10 16 25 -0.24094489 0.046983495 -0.96936524 0
24.508116 53.981712 405.75171 157 161 165 -0.89474779 0.049716391 -0.44383764 0
-18.226963 46.949913 383.38129 255 255 255 -0.12630329 0.86365253 -0.48803967 0
-38.784294 44.055058 377.93307 239 225 216 -0.11318298 0.88069427 -0.46007022 0
-41.682796 42.166325 372.77972 255 244 238 0.016231075 0.88988984 -0.45597535 0
-76.49659 37.916843 367.18533 240 221 214 0.13263011 0.90398908 -0.40655169 0
-79.543236 36.508442 363.7066 229 209 202 0.016853258 0.90292472 -0.4294138 0
-95.857468 35.367802 363.58783 219 206 201 -0.14072038 0.82523489 -0.54696524 0
-114.07572 32.704086 359.00269 226 214 214 -0.099521764 0.81865931 -0.56565768 0
-131.05444 31.619986 360.07516 180 179 186 -0.031372648 0.74624878 -0.66483843 0
178.96442 51.833996 286.95364 173 123 138 -0.56572098 0.38948464 -0.72679156 0
171.58101 51.935226 293.71753 189 186 191 -0.52105898 0.21030958 -0.82717818 0
155.62798 52.502907 307.10483 192 191 196 -0.56603074 0.086361431 -0.81988215 0
137.09947 52.953045 319.88138 166 161 167 -0.57425511 -0.04741336 -0.81722963 0
124.71295 52.21196 325.72736 210 214 215 -0.58639127 0.098218411 -0.80402941 0
105.97266 53.329887 347.02048 144 41 42 -0.69845337 -0.10036078 -0.70855433 0
96.65654 54.234043 353.74811 166 166 168 -0.58754987 -0.043313533 -0.80801553 0
82.732498 53.931786 365.58273 89 95 102 -0.40658891 0.57094121 -0.71327358 0
71.910828 54.840595 373.74289 103 106 112 -0.77245265 0.29464734 -0.56262672 0
61.987648 56.544312 389.82553 107 111 115 -0.69776934 0.37295762 -0.61159629 0
46.417664 49.798664 360.04111 59 65 70 0.3362897 0.425915 -0.83994693 0
-73.816826 39.433144 371.33856 238 217 210 0.047645815 0.8752262 -0.48128214 0
-92.130417 36.577732 364.05933 215 200 194 -0.066500597 0.8468315 -0.52763146 0
-110.87387 33.967415 361.19284 190 183 181 0.015122242 0.86483145 -0.50178623 0
-127.46319 32.873421 360.46277 175 174 179 -0.0855048 0.78830659 -0.60933053 0
173.73132 52.729195 292.95206 168 164 165 -0.5162648 0.22413076 -0.82659495 0
157.98477 53.338753 305.26254 176 175 178 -0.60971636 -0.015047353 -0.79251802 0
147.26602 52.916969 312.51678 205 199 203 -0.5482561 0.022608925 -0.83594739 0
115.78297 52.862041 332.10464 225 230 228 -0.71993828 -0.1246296 -0.68283832 0
86.36071 55.152721 364.49173 110 114 117 -0.38361907 0.524423 -0.76012838 0
54.94598 53.050194 368.96243 103 106 114 0.63685012 0.39423078 -0.66256446 0
50.590149 51.288307 363.55383 101 106 116 0.46174085 0.42574066 -0.77817875 0
35.107422 50.485367 365.78458 70 75 85 -0.70662218 -0.41056585 -0.57642084 0
28.203346 54.715919 396.07687 177 182 182 -0.93790382 -0.048592824 -0.34342426 0
-31.687857 46.744938 383.19812 255 231 227 0.23462036 0.90015161 -0.36687881 0
-70.883148 40.899029 374.92493 243 219 214 -0.013114251 0.86176419 -0.5070762 0
-89.642601 38.041679 366.74985 216 202 193 0.026194699 0.8739059 -0.48538181 0
-108.48752 35.38752 365.46735 182 175 175 0.044491462 0.86033738 -0.50781798 0
-124.91269 34.234451 364.69385 168 165 168 -0.030589383 0.84685302 -0.53103238 0
-144.41821 30.190241 355.50797 255 255 255 -0.21556851 0.5422135 -0.81209248 0
181.46434 52.740044 286.0824 161 103 111 -0.57794261 0.36702687 -0.72894067 0
175.71344 53.520905 291.21265 243 232 229 -0.55017227 0.27723998 -0.78774488 0
166.71902 53.321259 297.86591 222 218 224 -0.60233855 0.35610375 -0.71440041 0
150.12761 53.965481 310.76089 219 126 135 -0.52722287 -0.13607654 -0.83878505 0
138.86864 53.527321 317.44394 152 60 80 -0.38665649 -0.086792618 -0.91811836 0
127.86118 53.240654 323.96622 149 153 159 -0.54154736 0.10362224 -0.83434314 0
119.18669 53.934662 330.59665 222 224 228 -0.62687814 0.022372544 -0.77880174 0
107.33396 53.739494 341.34631 207 202 206 -0.69736481 -0.1493018 -0.70089853 0
99.599915 55.096481 351.84064 74 74 77 -0.54476672 -0.022937654 -0.83829778 0
90.030548 56.432396 364.11124 147 149 151 -0.41050595 0.4255265 -0.80647975 0
74.80188 55.536007 369.86682 152 154 156 -0.54742211 0.52887928 -0.64854681 0
64.775787 57.103828 384.83347 63 69 74 -0.66321814 0.4083944 -0.62712163 0
38.323238 51.172615 361.19821 87 100 103 -0.45281115 -0.15127356 -0.87864101 0
-83.848106 41.051144 374.76065 237 217 210 0.031170927 0.92371511 -0.38191456 0
-86.792023 39.505207 370.60437 231 211 206 0.036699682 0.90760273 -0.41823801 0
-102.56807 38.181618 369.62936 182 178 179 -0.054769233 0.79996085 -0.59747791 0
-105.56678 36.760246 367.5784 188 181 181 0.0092507973 0.82863516 -0.55964971 0
-121.54671 35.506798 366.55405 177 176 181 -0.12268531 0.84675342 -0.51763415 0
-138.84492 32.749405 358.91281 255 255 255 0.35041583 0.76522893 -0.54010725 0
-141.32878 31.404181 357.10107 255 255 255 0.14790276 0.72004682 -0.67797261 0
183.85013 53.625626 284.1174 208 196 202 -0.384018 0.3971467 -0.83356607 0
177.75706 54.359989 290.06238 170 63 90 -0.53745687 0.3530122 -0.76581913 0
168.46312 54.089188 296.0892 202 199 204 -0.60748786 0.33119783 -0.72202021 0
159.9281 54.103157 303.47693 130 129 136 -0.53465718 -0.048302658 -0.84372038 0
142.43802 54.731705 317.20868 217 140 152 -0.31622961 -0.13390189 -0.93919915 0
130.57108 54.183983 323.22522 243 244 248 -0.47276497 0.0035762899 -0.88117492 0
109.83282 54.597321 339.09692 123 123 127 -0.68707728 -0.04998187 -0.72483712 0
101.7357 55.810402 349.23639 196 118 135 -0.55234206 -0.013393942 -0.83352685 0
94.164948 57.744873 364.2081 236 238 237 -0.68188995 0.07576146 -0.72753304 0
78.585632 56.823097 369.83789 141 145 148 -0.39359227 0.58718854 -0.70731789 0
-70.35363 61.200966 474.30762 222 201 201 0 0 0 0
-81.162491 42.607372 378.84717 237 220 215 -0.017551109 0.92128921 -0.3884972 0
-118.50993 36.884228 367.34598 162 161 166 -0.13350092 0.85902387 -0.49416009 0
-136.12793 34.081432 363.26401 213 211 212 0.12157147 0.78892726 -0.60235882 0
162.26979 54.961514 302.05576 159 159 164 -0.41515714 -0.002063781 -0.90977806 0
152.31166 54.770992 308.88336 202 192 200 -0.49153617 -0.20272681 -0.84693432 0
133.53484 55.222725 322.19519 237 237 241 -0.57971555 -0.18202192 -0.794236 0
121.91587 54.897507 329.47418 122 123 131 -0.60958517 0.051965192 -0.79106426 0
113.28331 55.772057 337.99286 220 221 225 -0.72951102 -0.021348611 -0.68363273 0
82.319962 58.056473 369.78677 97 101 104 -0.53648591 0.44971415 -0.71408892 0
68.071739 57.953732 379.92319 154 158 163 -0.74025786 0.24634762 -0.62558848 0
46.10096 54.051632 363.87665 48 52 67 0.34214237 0.51173437 -0.78805089 0
41.840206 52.179295 359.75659 127 134 134 0.057522427 0.16683011 -0.98425895 0
30.947628 53.721958 378.96011 189 193 196 -0.89273149 -0.42862958 -0.13910322 0
23.774551 58.223915 406.62851 219 223 226 -0.89723897 0.058928169 -0.43756968 0
-52.488991 55.102089 449.52963 239 196 194 -0.059398595 0.17805073 -0.98223507 0
-77.854279 44.011719 381.45111 239 231 225 -0.076827824 0.91066289 -0.40598175 0
-98.911514 39.401466 370.82147 159 155 154 -0.076122701 0.80538094 -0.5877896 0
-133.93272 35.48679 366.23676 197 194 198 0.054567739 0.78622836 -0.61549032 0
180.18004 55.216663 289.25937 196 188 182 -0.52009755 0.41809425 -0.74472076 0
170.36385 54.872292 294.08957 113 107 113 -0.5608961 0.30956715 -0.7678175 0
164.83812 55.882744 301.30801 212 210 211 -0.4092555 0.10617327 -0.90620989 0
154.87903 55.695187 307.53696 156 93 116 -0.51036376 -0.16269138 -0.84445524 0
145.09181 55.616322 315.92697 255 255 255 -0.50537908 -0.2339538 -0.83055878 0
124.87975 55.976322 328.07642 201 203 207 -0.57533944 0.030757532 -0.81731015 0
104.4445 56.69944 346.79077 138 60 77 -0.7399863 -0.054715104 -0.67035103 0
71.383484 58.982971 377.4888 178 183 184 -0.69283342 0.3439194 -0.63376939 0
61.529476 60.961716 395.0567 119 125 129 -0.71831089 0.42741853 -0.5489831 0
49.863823 55.377987 366.42371 138 141 147 0.4158802 0.57752824 -0.70242524 0
26.795288 58.990379 401.07651 188 196 200 -0.90238255 0.051654309 -0.42785969 0
-74.809433 45.611076 385.41513 158 152 152 -0.17488334 0.88503152 -0.43140388 0
-92.457413 42.218945 375.6008 202 199 200 0.11650229 0.89474338 -0.43106198 0
-95.189537 40.630783 370.73886 181 177 176 -0.027441457 0.84783947 -0.52948076 0
-112.39149 39.618301 372.01962 222 224 226 -0.047774427 0.83124936 -0.55380279 0
-113.86033 37.923706 368.40814 177 176 181 -0.048715413 0.87041402 -0.48996687 0
-130.67064 36.807819 368.44052 171 172 176 0.10306335 0.80623204 -0.58257157 0
182.14822 55.948139 287.85593 208 203 207 -0.57171428 0.41425326 -0.70825332 0
172.82645 55.727715 293.63419 77 74 80 -0.53924441 0.26170766 -0.8004598 0
156.61621 56.360409 305.4621 210 131 140 -0.60957617 -0.24156681 -0.75500351 0
146.59042 56.226891 312.44321 143 117 126 -0.5881924 -0.28791118 -0.75571257 0
135.65753 55.960117 319.4455 176 175 178 -0.5339343 -0.30436158 -0.78878975 0
127.37859 56.709183 326.02377 231 235 238 -0.51134914 -0.025316307 -0.85898542 0
115.37765 56.498005 333.45865 228 228 228 -0.75961095 -0.051317744 -0.64831889 0
107.33462 57.674057 343.83624 236 237 244 -0.79048496 -0.14724751 -0.59452736 0
93.839607 57.214417 350.93149 255 255 255 -0.61833692 -0.069179982 -0.78293866 0
85.86058 59.277664 367.483 103 105 109 -0.4720571 0.32678184 -0.81874388 0
74.81028 59.932144 374.72604 166 175 174 -0.49092108 0.52261966 -0.69704181 0
33.605026 53.764851 363.83823 36 43 52 -0.70539886 0.05066853 -0.70698953 0
-61.5075 60.045204 458.78186 210 160 158 -0.28755185 0.27521294 -0.91742736 0
-70.213074 46.656998 383.22635 212 186 179 -0.3305943 0.81548208 -0.47506753 0
-88.187767 45.78772 386.19742 185 185 187 0.12633991 0.88411707 -0.44979462 0
-90.331581 43.92532 379.6441 189 187 187 0.17817807 0.91334832 -0.36620942 0
-107.92751 40.741577 372.33911 190 193 192 -0.08959429 0.75059354 -0.6547448 0
-126.63339 39.906742 375.80615 206 207 211 0.10393877 0.84093189 -0.53113145 0
-128.51013 38.265549 371.28506 185 186 190 0.16610962 0.83246422 -0.52855128 0
175.55742 56.645554 292.66727 190 190 190 -0.51900089 0.24325275 -0.81939548 0
166.93539 56.696526 300.06598 192 190 193 -0.50214952 0.20350009 -0.84053749 0
137.75272 56.671394 316.48538 255 246 249 -0.33868042 -0.37119886 -0.86457157 0
118.75258 57.546967 332.28372 243 245 246 -0.61988533 -0.070556909 -0.78152561 0
96.912964 58.257225 351.95233 214 215 219 -0.62959439 0.0041947961 -0.77688032 0
88.753159 59.982895 364.80469 161 163 167 -0.52605033 0.10998119 -0.84326655 0
64.436234 61.50412 390.87262 139 143 144 -0.80708367 0.35695037 -0.47033051 0
52.743324 56.208954 364.33347 30 37 50 0.42589262 0.57929623 -0.69499588 0
-105.07475 42.166801 374.46329 182 184 186 -0.042492546 0.71876752 -0.69398052 0
184.08263 56.710331 286.11426 64 61 67 -0.54092956 0.42852443 -0.72377557 0
177.6221 57.44323 291.45868 120 114 118 -0.43652937 0.32780007 -0.83782887 0
169.21506 57.531433 298.69501 151 147 153 -0.56311613 0.27225533 -0.78025413 0
157.98552 56.95787 302.62543 244 157 177 -0.49283206 -0.19873114 -0.84705812 0
148.22711 56.88242 309.53497 214 185 181 -0.53045166 -0.25116643 -0.80958396 0
141.01749 57.79644 316.21686 221 158 168 -0.25246999 -0.32132223 -0.91272885 0
130.14841 57.662075 323.9588 255 255 255 -0.45846134 -0.14451365 -0.87684405 0
121.8679 58.628521 330.4827 207 208 212 -0.49959978 -0.22920145 -0.83541214 0
109.95449 58.512733 340.38583 238 240 242 -0.66929328 -0.15846728 -0.72586977 0
100.86189 59.47007 351.00314 198 193 194 -0.62434673 -0.054243576 -0.77922964 0
78.576256 61.20208 375.05731 79 83 87 -0.45590976 0.526622 -0.71747905 0
67.437233 62.318279 383.2944 93 101 107 -0.76695704 0.35605407 -0.53394175 0
36.911221 54.680031 360.57977 156 162 165 -0.39044186 0.26529574 -0.88163793 0
-53.551643 64.026138 453.59595 235 241 244 -0.53715813 0.020780262 -0.84328914 0
-56.146305 61.027534 453.04089 239 199 195 -0.4614417 -0.052633509 -0.88561481 0
-81.655464 48.712639 393.2951 165 166 170 0.026119664 0.8463465 -0.53194499 0
-84.431213 46.997414 389.78525 154 153 156 0.040079035 0.87236702 -0.48717269 0
-102.00272 43.625137 375.91196 206 208 207 0.059920937 0.7369529 -0.67323971 0
-121.57144 40.913422 375.82071 163 164 170 -0.12894168 0.83867753 -0.52911836 0
-138.94705 39.865639 371.84378 255 255 255 0.11472868 0.77517503 -0.62120622 0
-140.28491 38.200626 368.84329 255 255 255 0.18561752 0.79400152 -0.57893664 0
186.50856 57.605679 285.6738 133 124 127 -0.45842445 0.44932759 -0.76673049 0
170.98892 58.203259 296.83127 145 145 150 -0.58172458 0.25755924 -0.77157652 0
160.4174 57.837364 301.51776 229 227 225 -0.32103074 -0.10459597 -0.94123173 0
150.76126 57.771381 308.1572 128 81 106 -0.46264091 -0.26696324 -0.8454178 0
132.39931 58.417709 321.34875 94 93 100 -0.56566674 -0.2494058 -0.78606838 0
113.07153 59.541512 339.84442 210 212 214 -0.59566098 -0.17921425 -0.78298616 0
104.54644 60.750313 348.72894 155 61 75 -0.67333597 -0.21853083 -0.70635271 0
82.352798 62.461536 372.93918 153 157 158 -0.67362326 0.29308471 -0.6784054 0
44.768536 57.942097 366.18234 96 104 111 0.33018151 0.63476342 -0.69872206 0
40.67305 55.890228 361.44901 139 143 146 0.17604361 0.38199431 -0.90720123 0
29.684134 57.406487 370.38269 35 46 47 -0.88837475 -0.011337988 -0.45904583 0
-78.376068 50.472931 398.18393 196 199 198 0.0439867 0.84989142 -0.52514631 0
-98.776001 45.028343 379.19714 220 220 220 0.054422341 0.88905859 -0.45463037 0
-118.14416 42.238785 377.33643 142 142 151 -0.18202436 0.79860312 -0.57360715 0
180.33989 58.34473 291.05228 184 178 182 -0.46655425 0.35212845 -0.81142551 0
163.36186 58.749855 301.01376 192 190 193 -0.30041742 -0.11305737 -0.94714344 0
152.95253 58.548126 306.96729 222 136 147 -0.48529541 -0.20347697 -0.85036659 0
143.1373 58.563461 314.3252 103 21 60 -0.40940237 -0.33347964 -0.84920651 0
123.6769 59.158146 327.77066 199 200 204 -0.43705359 -0.30778921 -0.84513813 0
115.65558 60.417004 336.79099 121 126 127 -0.64768499 -0.28678572 -0.70582455 0
94.185684 61.548473 358.44952 255 255 255 -0.83401793 -0.095152996 -0.54339921 0
70.734299 62.986885 379.89352 183 187 188 -0.64423376 0.42901626 -0.63313007 0
60.29705 65.126099 397.98236 174 179 175 -0.7369976 0.40151286 -0.5438481 0
48.996326 59.677605 371.18491 106 112 115 0.20630972 0.68245238 -0.70119798 0
-46.246082 63.394569 444.44003 241 248 248 -0.68185961 -0.25119394 -0.68699837 0
-115.15585 43.612572 378.84943 156 158 159 -0.16654634 0.7767868 -0.60729676 0
-133.42346 40.822548 373.76044 255 255 255 0.15485218 0.79060721 -0.59238374 0
182.59059 59.186836 289.52612 194 190 196 -0.5948438 0.3258819 -0.73483813 0
173.07622 58.983913 294.87762 160 157 162 -0.57189995 0.24101232 -0.78408283 0
145.31892 59.321037 312.4053 126 45 81 -0.6087423 -0.30279648 -0.73329586 0
134.32707 59.131371 317.57684 164 97 133 -0.56294775 -0.22146013 -0.79626721 0
126.29066 60.108917 325.67313 182 186 187 -0.43407586 -0.28737652 -0.85383779 0
106.78969 61.420509 345.00192 145 59 72 -0.74671423 -0.27951756 -0.60357273 0
98.360832 63.049465 355.54828 133 132 137 -0.65706664 -0.13927433 -0.74086708 0
84.365707 62.617874 367.48862 127 131 134 -0.66928667 0.021943048 -0.7426703 0
74.306541 64.251549 379.3829 111 120 122 -0.49469811 0.45645773 -0.73952472 0
64.06662 66.292358 395.11719 82 91 90 -0.78275967 0.34603471 -0.51725703 0
32.588367 57.862091 366.62634 57 63 70 -0.6787836 0.36861587 -0.63512832 0
-64.499252 65.255386 460.44269 229 200 196 -0.19257842 -0.22606012 -0.95489162 0
-67.357666 62.68988 453.07074 241 205 199 0.032415271 0.46717238 -0.88360614 0
-90.675682 50.081047 393.63727 255 255 255 0.080306292 0.81297773 -0.57664007 0
-111.84224 45.136429 378.13754 178 179 183 -0.16589624 0.64881158 -0.74258071 0
-129.07263 43.944141 381.20508 189 188 191 0.2330448 0.8171429 -0.52725184 0
-129.92114 42.062401 376.32095 223 223 226 0.19974771 0.8256712 -0.52769381 0
174.81712 59.653259 293.259 170 167 175 -0.45940328 0.24172239 -0.85468686 0
166.19829 59.749527 300.47504 193 193 195 -0.41996676 -0.086627603 -0.90336263 0
155.49283 59.405045 304.95175 143 42 62 -0.60262024 -0.17009084 -0.77973306 0
136.37057 59.81144 316.2377 132 66 81 -0.40658066 -0.16437383 -0.89871532 0
117.06403 60.69994 331.17352 207 209 210 -0.59581846 -0.33383739 -0.7304436 0
88.011459 63.906425 365.97989 164 168 172 -0.67583364 -0.15233894 -0.72116268 0
78.29834 65.656189 378.73303 79 87 93 -0.64248174 0.26715288 -0.71825475 0
35.744698 58.705513 364.03427 109 112 118 -0.41860175 0.54415309 -0.72708517 0
-88.278427 51.854538 395.68314 240 244 247 0.15770864 0.79293942 -0.58860856 0
-107.51611 46.276253 375.63519 212 217 215 -0.061284661 0.69496435 -0.71642417 0
-126.20407 45.410835 384.25711 203 205 207 -0.050385341 0.80866086 -0.58614916 0
177.41014 60.567604 292.72644 223 220 221 -0.32228479 0.26838225 -0.90783465 0
168.82155 60.676529 299.23831 212 211 214 -0.40658796 0.011384521 -0.91357458 0
157.63432 60.159325 302.42865 230 225 229 -0.50726604 -0.072350122 -0.85876572 0
146.85802 59.901215 309.69974 175 129 133 -0.60711926 -0.19437765 -0.77045298 0
128.47902 60.699844 323.12939 220 221 225 -0.41787425 -0.098786533 -0.90315866 0
107.59856 61.426956 338.91849 229 229 231 -0.63360578 -0.33295438 -0.69838673 0
99.5271 63.040253 349.83014 134 132 133 -0.50137043 -0.23917747 -0.83150393 0
91.864365 65.246887 364.18884 117 121 124 -0.60580063 -0.23681313 -0.75951767 0
66.814362 66.583824 388.18381 139 141 145 -0.82533544 0.3240121 -0.46239308 0
56.16555 69.125664 407.09735 104 108 111 -0.76341099 0.4945313 -0.41551009 0
-84.602798 53.237656 399.52277 220 225 226 0.28269878 0.77893567 -0.55981702 0
-102.03455 52.124763 395.31104 255 255 255 0 0 0 0
-123.52979 47.015648 385.51187 232 234 236 -0.22182885 0.70457095 -0.67405921 0
170.90102 61.449654 298.30118 112 109 115 -0.49284002 0.025072504 -0.86980575 0
159.75702 60.93034 301.22327 192 189 195 -0.35214376 0.015692964 -0.93578726 0
150.13429 61.014744 308.55267 177 74 95 -0.51025885 -0.15875137 -0.84520715 0
138.56517 60.572201 314.22037 196 114 124 -0.34550312 -0.051670417 -0.93697739 0
131.07622 61.606567 320.67078 237 239 243 -0.56063443 -0.029260121 -0.82746619 0
119.17287 61.375271 327.91132 223 225 229 -0.48989406 -0.32106748 -0.81046784 0
81.014359 66.127663 374.62708 133 135 139 -0.81129438 0.021899752 -0.58415848 0
70.199051 67.612267 384.84769 112 116 119 -0.6905213 0.36181942 -0.62628382 0
59.549946 70.175262 404.18857 111 120 124 -0.77233601 0.38942617 -0.50190187 0
44.261299 62.109737 370.7843 70 79 83 0.31754532 0.69771749 -0.64215618 0
39.343365 59.94352 364.36597 83 88 95 0.1503365 0.7032479 -0.69483924 0
-52.762917 66.71196 447.55502 237 241 244 -0.31980398 -0.28256756 -0.90441859 0
-81.030067 54.864594 401.86218 163 167 170 0.33256948 0.76743126 -0.54813325 0
179.36415 61.270229 291.75705 223 220 223 -0.4204703 0.21024382 -0.88265568 0
162.74088 61.97805 301.41989 161 158 164 -0.30956197 -0.059759188 -0.9489848 0
152.51823 61.835758 306.98325 151 67 97 -0.46124646 -0.1345319 -0.87706226 0
141.78499 61.651253 313.72073 179 86 99 -0.43114817 -0.073203996 -0.89927202 0
121.66815 62.186562 325.25601 223 225 229 -0.41908145 -0.31115404 -0.85293365 0
110.02777 62.126305 337.12787 210 212 216 -0.53273058 -0.33991742 -0.77496362 0
102.02432 63.637779 346.66995 90 63 61 -0.5966996 -0.37735623 -0.70817614 0
93.640709 65.512093 359.31821 131 133 135 -0.73921007 -0.34558114 -0.5780558 0
31.964464 62.683876 373.38605 136 142 147 -0.58931452 0.62706733 -0.50933796 0
-135.70259 44.686771 378.46301 247 251 252 0.20179793 0.77881068 -0.59385026 0
181.33972 62.034233 290.6781 164 159 163 -0.52732259 0.1629748 -0.83386242 0
172.24481 61.994457 296.13104 212 209 215 -0.60263515 0.061248999 -0.79568255 0
154.9791 62.671959 305.64166 137 126 134 -0.548105 -0.078407302 -0.83273959 0
144.5757 62.584705 312.70123 193 118 132 -0.62928772 -0.12403094 -0.76722139 0
132.69054 62.119484 317.71997 197 194 198 -0.59433657 0.070977308 -0.80112153 0
113.0952 63.137367 333.84177 232 234 236 -0.65659338 -0.36427957 -0.66052818 0
104.78727 64.518448 343.18857 236 148 160 -0.72819263 -0.41898832 -0.54239851 0
83.539207 66.712265 368.49652 76 80 81 -0.75347948 -0.24723434 -0.60923004 0
73.562347 68.551109 381.7666 37 42 52 -0.60568732 0.22886638 -0.7620731 0
62.846581 70.452606 398.37973 75 78 84 -0.83533722 0.24809285 -0.49057531 0
-132.93387 50.652786 392.34958 233 237 240 -0.066319071 0.88231879 -0.465965 0
183.69621 62.9324 288.64038 153 150 153 -0.35738242 0.14200604 -0.9230684 0
174.2386 62.742889 294.25482 189 186 189 -0.46324426 0.10727255 -0.87973589 0
163.88019 62.439095 299.49594 190 187 193 -0.39643797 -0.13209569 -0.90850359 0
146.73158 63.33683 310.4549 229 134 161 -0.63313591 -0.13815235 -0.76162517 0
135.68677 63.111038 317.65567 219 219 219 -0.53206861 0.19282208 -0.82448608 0
123.90898 62.88393 323.99677 123 125 129 -0.46299255 -0.22532597 -0.85718238 0
94.847672 65.37648 350.88965 255 255 255 -0.62548691 -0.4033528 -0.66783577 0
86.617226 67.515282 365.68808 36 43 43 -0.67811388 -0.32468829 -0.65930253 0
77.059425 69.387985 379.3093 43 47 53 -0.72811389 -0.025615271 -0.68491489 0
66.570358 71.753899 394.69101 156 163 163 -0.87413222 0.15255609 -0.46123096 0
56.050247 74.715073 418.38788 207 212 213 -0.89521974 0.23610157 -0.37793005 0
35.195908 63.308334 371.84088 156 162 169 -0.37583384 0.68446523 -0.62469935 0
186.64497 63.929184 288.45364 255 255 255 -0.13731237 0.12466925 -0.98269761 0
176.8353 63.639038 293.5282 186 181 185 -0.28069139 0.029811796 -0.95930678 0
166.5282 63.345421 298.1344 246 243 246 -0.30960497 -0.11308925 -0.94416374 0
157.44046 63.528793 304.26703 133 126 126 -0.49076724 -0.013994731 -0.87114555 0
127.16724 64.000122 323.35651 213 214 218 -0.43044579 -0.035517074 -0.90190512 0
115.10719 63.723213 330.53851 199 201 202 -0.71455961 -0.29361933 -0.63488835 0
106.89478 65.063248 338.87695 241 236 237 -0.69555062 -0.42471957 -0.57941836 0
38.857689 64.386566 370.69315 111 120 124 0.010056563 0.79099357 -0.6117605 0
186.41107 66.696671 291.88242 126 126 126 -0.32761672 -0.15692301 -0.931669 0
180.41808 64.7827 293.80792 224 221 224 -0.28796962 -0.10856987 -0.95142996 0
169.62201 64.391815 298.25928 230 227 230 -0.37082189 -0.11585312 -0.92139918 0
159.14522 64.128029 302.64621 209 204 208 -0.40927804 0.0051775724 -0.91240102 0
148.79265 64.006798 308.17386 147 49 66 -0.52191466 -0.090206042 -0.84820521 0
137.75745 63.752163 315.91769 196 179 189 -0.43405592 0.20312364 -0.87768024 0
130.55055 65.068588 322.72272 159 156 161 -0.47567815 -0.0033614933 -0.87960631 0
117.50573 64.478096 327.43063 198 202 205 -0.58962888 -0.14429331 -0.79466099 0
109.51747 65.812538 337.19501 204 203 206 -0.55462486 -0.43038571 -0.71207494 0
97.637596 66.251511 347.62875 206 206 208 -0.53089744 -0.3164652 -0.78610289 0
88.91983 67.988899 361.04248 132 136 139 -0.68987018 -0.42812461 -0.58367372 0
80.418327 70.438118 375.81055 147 150 149 -0.83501768 -0.23134738 -0.49920708 0
69.353745 72.115631 388.64203 98 102 107 -0.83690941 0.091004878 -0.53966427 0
59.621769 75.303421 409.9046 138 142 145 -0.84630954 0.3482357 -0.40315861 0
42.903397 66.245522 373.79565 64 70 73 0.30277306 0.65035862 -0.69668782 0
162.29335 65.204224 302.30518 212 211 214 -0.41955251 -0.072597995 -0.90489191 0
150.86612 64.76516 306.56625 115 14 44 -0.43499669 -0.076623559 -0.89714009 0
141.01338 64.870033 315.34714 140 39 57 -0.50738859 0.11867674 -0.85352224 0
133.50003 66.051323 320.27176 226 223 227 -0.55557752 0.019216221 -0.83124673 0
120.87629 65.622307 326.95908 232 234 236 -0.49445322 -0.10762493 -0.86256713 0
101.05089 67.24073 346.43698 169 162 162 -0.65180176 -0.29573563 -0.69835645 0
52.251076 79.457291 429.84723 113 120 120 -0.90014505 -0.11726137 -0.41945833 0
171.06456 64.94236 296.47528 204 201 207 -0.58085299 -0.14878422 -0.800291 0
143.29025 65.629921 312.73492 196 114 126 -0.67344248 -0.0069484413 -0.73915732 0
123.86529 66.662895 325.73755 196 198 200 -0.5030098 -0.14669809 -0.85169631 0
112.60498 66.840683 335.02261 234 234 236 -0.59501731 -0.42114818 -0.68456179 0
104.19479 68.306808 344.23657 100 24 43 -0.68392986 -0.3955664 -0.61298174 0
90.687096 67.896492 353.53619 173 175 177 -0.71215886 -0.19271731 -0.67505741 0
82.178467 70.249191 367.65219 96 100 101 -0.77890688 -0.35292566 -0.5183593 0
72.384796 72.477356 383.51517 126 130 135 -0.75655383 -0.073706888 -0.64986491 0
62.264854 75.035843 403.72806 47 55 62 -0.85179889 0.20736897 -0.48117185 0
34.158138 68.091522 378.84882 165 178 183 -0.43581522 0.70885843 -0.55449897 0
182.935 65.775116 288.79218 115 112 115 -0.094741702 -0.24504721 -0.9648447 0
173.34146 65.760231 294.54181 218 215 219 -0.38977233 -0.095667735 -0.91597033 0
163.35342 65.652748 300.28528 158 150 158 -0.44984004 -0.1760492 -0.87561452 0
152.9622 65.379112 305.23297 148 78 79 -0.44568056 0.021080192 -0.89498329 0
135.07048 66.605164 318.88397 205 165 185 -0.41249019 0.13522184 -0.90087438 0
115.1606 67.550888 332.00647 141 145 150 -0.62190479 -0.32568628 -0.71222585 0
93.845123 69.166 351.54898 255 255 255 -0.74445903 -0.28421322 -0.60417682 0
85.016747 70.895157 363.82501 147 151 154 -0.72567374 -0.38781643 -0.56835657 0
75.771011 73.384598 379.875 130 132 134 -0.74616629 -0.23992069 -0.62098241 0
65.454819 75.860146 396.69638 47 51 54 -0.86711818 -0.086886689 -0.49043375 0
55.370033 79.719391 423.37338 121 127 132 -0.9084298 0.0062097237 -0.41811943 0
185.14259 66.546257 288.06467 138 136 134 -0.02630263 -0.20534293 -0.97837597 0
176.15048 66.73764 294.38687 205 202 206 -0.2224725 -0.29697371 -0.92860723 0
166.08243 66.564346 298.75769 232 229 232 -0.22260159 -0.18644354 -0.95690066 0
155.61359 66.337997 304.27655 196 97 128 -0.42969245 -0.03302525 -0.90238804 0
145.0636 66.265724 310.16617 166 116 131 -0.65402603 -0.1049946 -0.74919087 0
137.27374 67.338379 317.93179 235 159 169 -0.31282997 0.053356498 -0.94827634 0
126.02023 67.115044 322.88513 206 205 210 -0.31859636 -0.25822297 -0.91203326 0
105.3616 68.245438 338.52264 122 38 68 -0.75332916 -0.33365446 -0.56672513 0
97.925278 70.581757 350.06805 176 175 178 -0.59397507 -0.24107367 -0.76750481 0
169.1324 67.557991 298.96866 211 210 213 -0.2747727 -0.25495133 -0.92705023 0
157.80875 67.105728 302.73294 246 242 243 -0.43975225 -0.13741502 -0.88752115 0
147.52428 67.093918 308.37585 178 73 104 -0.53938633 -0.092369266 -0.83698905 0
130.12247 68.62487 323.02164 200 194 201 -0.30465251 -0.39398101 -0.86712682 0
117.40671 68.195786 328.91284 228 230 231 -0.45604086 -0.25849518 -0.85154003 0
87.774643 71.590401 360.83932 120 124 129 -0.75822544 -0.41037181 -0.50669301 0
78.336952 73.883186 374.38675 157 161 165 -0.81315064 -0.34492028 -0.46887577 0
68.499176 76.204063 388.49408 86 90 98 -0.83883774 -0.22453165 -0.49594465 0
58.379463 79.685097 414.74133 136 140 146 -0.9121331 0.01486931 -0.40963438 0
170.95137 68.217461 297.28656 183 180 184 -0.4173162 -0.36271819 -0.83322126 0
160.15982 67.891968 301.70053 187 182 186 -0.44122922 -0.1884495 -0.87744141 0
150.3373 68.043106 307.76004 179 149 150 -0.46031258 -0.086518019 -0.88346905 0
141.34082 68.600731 317.6022 187 150 154 -0.46590179 0.047183447 -0.88355249 0
133.42969 69.768669 321.30362 226 153 169 -0.31982964 -0.49803865 -0.80604321 0
120.40956 69.14859 328.4653 242 244 245 -0.40234545 -0.22038171 -0.88851047 0
107.48541 68.778763 335.41696 87 60 57 -0.56917578 -0.37261075 -0.73295891 0
99.524414 70.509659 345.84494 84 78 82 -0.5799123 -0.33249912 -0.74374026 0
90.754494 72.477165 355.89151 85 86 90 -0.69112915 -0.30673182 -0.65441805 0
62.220993 80.637802 407.26532 73 81 87 -0.92293829 -0.078501925 -0.37680724 0
50.554386 83.931625 432.68134 145 148 154 -0.90374202 -0.032194294 -0.42680374 0
178.47345 67.631012 288.77637 159 154 158 -0.24738719 -0.54726529 -0.79958284 0
152.84827 68.889351 305.71637 181 177 174 -0.41583997 -0.09515357 -0.90445226 0
142.04967 68.733185 313.85645 218 210 215 -0.68647993 -0.18710439 -0.70269406 0
110.3636 69.585693 333.45038 142 139 145 -0.56989175 -0.33261853 -0.75143927 0
102.66648 71.570076 343.55228 195 172 175 -0.57815319 -0.39546978 -0.71367061 0
81.015099 73.859085 368.07178 97 99 101 -0.81412184 -0.25794584 -0.52036005 0
70.957947 75.99308 382.80026 89 93 94 -0.78431934 -0.24224931 -0.57105458 0
172.04201 68.617928 293.88177 209 206 209 -0.24026087 -0.36858386 -0.89796656 0
161.80124 68.422684 299.52951 158 83 106 -0.38002008 -0.36305812 -0.85075772 0
156.28424 70.015457 305.74866 212 205 207 -0.4155719 -0.21177712 -0.88454157 0
145.03856 69.790863 311.30539 246 239 239 -0.54293799 -0.29502374 -0.78629434 0
133.34885 69.572998 317.42841 191 167 173 -0.13947941 -0.41130427 -0.90077823 0
122.78776 69.843582 324.77673 137 138 145 -0.44972432 -0.23744416 -0.86109698 0
94.275497 73.457298 354.23141 145 142 145 -0.63713562 -0.35116154 -0.68614703 0
53.903557 83.688156 423.1196 75 79 80 -0.89794374 -0.17889754 -0.40208369 0
164.84244 69.417603 298.47952 159 95 124 -0.2347797 -0.38561851 -0.89228946 0
138.22215 71.17572 318.38641 197 189 196 -0.15347657 -0.41159347 -0.89840835 0
124.92507 70.46067 323.1539 193 194 200 -0.34071949 -0.38698465 -0.85683131 0
112.36935 70.077873 328.60745 217 218 225 -0.52143204 -0.26463491 -0.81123233 0
83.58773 74.511597 364.01865 143 148 151 -0.77349699 -0.22915047 -0.5909037 0
73.490013 76.428375 378.1897 110 118 122 -0.77025431 -0.33119673 -0.5449577 0
63.528309 79.04509 393.96786 93 99 104 -0.86488581 -0.10868228 -0.48995551 0
46.096046 89.140823 445.45126 174 178 181 -0.92149895 0.22670186 -0.31532064 0
186.63345 70.319954 287.47003 138 134 133 0.25631228 -0.28520301 -0.92359209 0
183.90227 69.379143 287.54907 130 127 128 -0.00019420777 -0.31032708 -0.95061827 0
167.20232 70.281166 298.02203 133 130 134 -0.2274451 -0.37830058 -0.89734042 0
157.802 70.534187 303.66568 198 196 199 -0.48392174 -0.30092916 -0.8217302 0
147.20374 70.475739 309.3685 220 179 197 -0.40087125 -0.29450136 -0.8674801 0
115.21192 71.002647 328.04324 250 252 253 -0.45803446 -0.2447786 -0.85452676 0
103.89163 71.419846 337.38467 214 127 145 -0.71882766 -0.24163532 -0.65184587 0
94.444542 72.566536 347.30215 255 255 255 -0.60454887 -0.27333224 -0.74820536 0
86.1959 75.086006 360.66882 69 73 78 -0.81845903 -0.19355592 -0.5409587 0
77.007278 77.603676 374.31796 161 165 166 -0.80978459 -0.30229384 -0.50290632 0
66.893829 79.768036 389.99399 91 97 99 -0.8789807 -0.10478881 -0.46512419 0
57.35413 84.196045 416.02536 78 82 88 -0.90416372 -0.20765656 -0.37332189 0
175.45403 69.814651 290.02975 219 216 220 -0.52688444 -0.37682205 -0.76174533 0
149.46933 71.195374 308.21356 126 73 91 -0.39431971 -0.25919178 -0.88166076 0
126.32935 70.762108 319.62369 255 254 255 -0.35927171 -0.42200252 -0.8324101 0
106.64301 72.400864 334.93851 220 150 160 -0.63585341 -0.19318831 -0.74727118 0
49.301178 88.997177 436.39798 133 139 141 -0.92703402 0.15370582 -0.34195217 0
177.36436 70.460472 288.56134 182 179 182 -0.48049033 -0.41465759 -0.77273625 0
167.91222 70.541664 294.07535 225 222 226 -0.25162596 -0.35548756 -0.90017831 0
158.31158 70.669861 300.30518 250 247 248 -0.42889062 -0.2748166 -0.86058033 0
139.58795 71.54026 316.34879 116 105 113 -0.37714833 -0.46752891 -0.79953402 0
143.09167 77.395271 316.29871 168 165 170 0 0 0 0
128.9825 71.668144 316.74753 225 224 227 -0.33132631 -0.47926325 -0.81268102 0
117.82788 71.763908 325.89178 255 255 255 -0.5146628 -0.20800821 -0.83184671 0
109.03027 72.813316 331.9736 196 194 202 -0.61330909 0.017217819 -0.78963506 0
97.006798 73.347549 342.46915 255 255 255 -0.49784544 -0.12459771 -0.85821658 0
87.945404 75.028961 352.03192 155 160 160 -0.65139872 -0.28335777 -0.70380777 0
79.303009 77.545341 368.04398 120 125 125 -0.79611111 -0.14195774 -0.58824843 0
69.698776 80.033752 382.07162 99 106 106 -0.83569336 -0.12780599 -0.53418106 0
59.527908 83.212463 404.38876 157 163 168 -0.94416934 -0.11593324 -0.30835259 0
170.36893 71.408348 292.97757 252 249 252 -0.23023519 -0.28080079 -0.93175012 0
161.03477 71.600311 299.42041 234 232 233 -0.36176488 -0.27528957 -0.89070362 0
151.20964 71.711128 305.36896 226 147 173 -0.32172406 -0.28720719 -0.90223986 0
139.61145 71.370041 312.42908 164 73 85 -0.5609014 -0.50141144 -0.65874511 0
120.91782 72.737 323.67926 242 241 246 -0.48985121 -0.17694102 -0.8537398 0
100.64867 74.543312 342.1236 162 160 161 -0.61320025 -0.11844822 -0.78096747 0
91.930038 76.097397 351.62845 179 181 182 -0.72723293 -0.25957239 -0.63550657 0
82.511909 78.457878 365.95877 121 120 125 -0.76118767 -0.13366449 -0.6346361 0
73.141571 81.165459 378.50629 151 152 159 -0.82779694 -0.09178827 -0.55348033 0
52.234962 88.05423 424.25119 143 148 151 -0.93318617 0.053425692 -0.35531658 0
172.94489 72.275131 292.19724 255 255 255 -0.56027985 -0.14515656 -0.81545001 0
162.6425 72.100647 297.48843 214 209 213 -0.50677156 -0.30872157 -0.80487955 0
153.38884 72.443626 304.64203 225 151 155 -0.40911505 -0.35063303 -0.8424294 0
142.4073 72.308235 309.17545 239 232 230 -0.47202802 -0.44282743 -0.76225823 0
130.76949 72.081825 316.08099 178 177 182 -0.19421038 -0.50653893 -0.8400107 0
123.91329 73.749268 323.26624 213 212 217 -0.40221715 -0.0080578402 -0.91550857 0
111.89768 73.73201 329.94717 161 159 167 -0.52024209 0.06113334 -0.85180598 0
102.93366 75.045593 337.95471 126 113 122 -0.77258724 -0.1287311 -0.62174731 0
62.237583 83.185257 395.42581 81 89 93 -0.84539497 0.099407561 -0.52478749 0
45.004559 94.882118 453.02692 235 239 243 -0.93655908 0.073913366 -0.3426857 0
154.7235 72.861816 301.26831 255 255 255 -0.51302969 -0.36318368 -0.77774566 0
145.23476 73.214355 308.28955 255 251 255 -0.37430406 -0.40140685 -0.83585489 0
134.01012 73.223473 315.26669 222 222 226 -0.17905951 -0.4367322 -0.88162589 0
114.77548 74.763062 329.18808 143 147 153 -0.58562809 0.076430038 -0.80692339 0
106.61002 76.334785 337.17337 165 66 86 -0.72722661 -0.019482009 -0.68615413 0
93.701157 76.262695 346.78101 111 110 115 -0.66170669 -0.1043312 -0.74253082 0
85.123871 78.682358 360.69214 166 172 177 -0.8393752 -0.0061421171 -0.543558 0
75.764969 81.041298 373.76666 55 59 60 -0.8204037 -0.051042818 -0.56960851 0
66.425751 84.530472 392.94104 169 174 174 -0.83529615 0.16169259 -0.52548909 0
55.679802 88.381821 416.29965 127 133 138 -0.90353775 0.015978009 -0.42829293 0
48.657112 94.932693 443.66922 175 179 182 -0.94085371 0.088942729 -0.32710579 0
164.40007 72.653564 295.08716 236 236 238 -0.33979431 -0.25788194 -0.90441352 0
147.70239 74.027298 306.12665 248 243 242 -0.40909261 -0.4116323 -0.81440127 0
136.53799 73.895103 313.5799 227 225 228 -0.37737134 -0.50152105 -0.77845812 0
125.2482 73.982292 318.74185 189 191 195 -0.60056639 0.050932761 -0.79795521 0
96.908478 77.334099 344.19147 255 255 255 -0.504583 0.20294259 -0.8391968 0
40.536945 102.33714 485.11572 255 255 255 0 0 0 0
177.1707 73.56414 289.30048 86 86 86 -0.59965086 -0.16805558 -0.78236568 0
167.11777 73.57972 294.28085 230 227 230 -0.28220677 -0.24672991 -0.92710018 0
157.20157 73.705872 300.32758 199 198 203 -0.42749947 -0.29032174 -0.85610431 0
139.80124 75.042015 311.55026 222 217 221 -0.53422195 -0.47176588 -0.70149839 0
127.71719 74.704521 316.81882 177 181 186 -0.61661434 0.059232399 -0.78503275 0
117.45988 75.415909 326.70099 185 186 192 -0.66128415 0.018907227 -0.74986708 0
108.32184 76.359619 333.02838 201 113 127 -0.58568513 0.058159363 -0.808456 0
87.709785 79.188622 354.36786 101 107 112 -0.77267289 0.042249463 -0.63336515 0
77.9907 81.327293 368.99564 104 107 115 -0.78716892 0.047001451 -0.61491674 0
68.825851 84.23233 385.86972 71 75 79 -0.85689765 0.20674026 -0.47207797 0
58.686157 87.957031 407.65585 204 210 212 -0.91873658 0.11114153 -0.37876761 0
51.954651 94.137482 431.48413 130 134 137 -0.92926353 0.16537544 -0.33025652 0
170.48868 74.698158 294.67126 203 200 203 -0.26992351 -0.24073683 -0.93236464 0
160.16888 74.644241 299.57382 248 248 250 -0.36612189 -0.20684128 -0.90724903 0
150.41628 74.90947 305.18982 186 181 185 -0.3281388 -0.46433794 -0.82265532 0
119.93597 76.043007 323.76236 225 224 227 -0.55349869 -0.05061692 -0.8312791 0
112.36462 77.931694 332.59723 214 214 216 -0.49793154 0.068009362 -0.86455667 0
100.31059 78.465851 343.73123 140 137 141 -0.59624404 0.12934428 -0.79233658 0
90.527092 79.857323 352.91998 125 128 134 -0.79550308 0.070015319 -0.60185671 0
81.863266 82.449608 366.70508 157 161 165 -0.78125554 0.048888654 -0.62220991 0
62.251713 88.890579 400.69247 149 153 159 -0.86937892 0.21288159 -0.44594905 0
44.187485 101.07014 457.3989 255 255 255 -0.90262163 0.023826331 -0.42981091 0
171.77272 75.089333 292.61282 190 187 195 -0.46799845 -0.26904485 -0.84173888 0
162.34872 75.302055 298.00369 186 183 186 -0.62777531 -0.2212562 -0.74628687 0
152.77649 75.676453 304.14682 232 228 229 -0.41244268 -0.44945845 -0.792413 0
141.53383 75.4767 308.66 241 239 242 -0.45741272 -0.3408646 -0.82125711 0
130.63744 75.678421 315.90088 139 141 145 -0.47552168 -0.11599641 -0.87204581 0
123.01374 77.011299 323.35068 165 165 169 -0.39488488 0.12290506 -0.91047758 0
