ply
format ascii 1.0
comment PCL generated
element vertex 602
property float x
property float y
property float z
property uchar red
property uchar green
property uchar blue
property float nx
property float ny
property float nz
property float curvature
element camera 0
property float view_px
property float view_py
property float view_pz
property float x_axisx
property float x_axisy
property float x_axisz
property float y_axisx
property float y_axisy
property float y_axisz
property float z_axisx
property float z_axisy
property float z_axisz
property float focal
property float scalex
property float scaley
property float centerx
property float centery
property int viewportx
property int viewporty
property float k1
property float k2
end_header
0.16488811 0.080273181 0.31391922 180 180 182 -0.63300002 -0.080300003 -0.76990002 0
0.13771267 0.084917702 0.34474683 114 115 121 -0.77509999 0.091399997 -0.62510002 0
0.1319107 0.088049777 0.35781896 130 130 132 -0.79329997 -0.17829999 -0.58219999 0
0.12535182 0.091565877 0.37277588 107 111 115 -0.80669999 0.2481 -0.53640002 0
0.11732761 0.09471187 0.38878414 119 123 126 -0.80159998 0.28920001 -0.52329999 0
0.095248178 0.085603304 0.35760084 64 69 79 0.3626 0.3506 -0.8635 0
0.08017011 0.085447587 0.35533255 51 52 56 -0.34439999 0.0265 -0.93849999 0
-0.016745154 0.088460773 0.38825902 225 210 206 0.3276 -0.018100001 -0.94459999 0
-0.042729616 0.079994507 0.35698971 230 209 200 -0.0748 0.82800001 -0.55580002 0
-0.058936279 0.079766966 0.35735807 225 201 193 0.1313 0.80290002 -0.58149999 0
-0.078389391 0.077876657 0.35466236 245 225 220 -0.13150001 0.74919999 -0.64920002 0
-0.097102337 0.075932272 0.35254243 142 142 151 0.011 0.68260002 -0.73070002 0
-1.0673246 0.37202832 1.8225352 229 231 232 0.31569999 0.0060000001 -0.94880003 0
0.18168148 0.077913903 0.2985355 161 157 158 -0.098999999 -0.2173 -0.97109997 0
0.17384565 0.079166941 0.30638963 145 142 145 -0.62840003 0.070600003 -0.77469999 0
0.15954614 0.082606547 0.32460725 191 177 182 -0.65380001 0.037099998 -0.75569999 0
0.14575358 0.082492419 0.32650229 158 158 162 -0.37529999 -0.2098 -0.90280002 0
0.1498322 0.088570982 0.3428452 255 255 255 -0.2599 -0.088 -0.96160001 0
0.14156766 0.085912168 0.34059697 117 114 119 -0.32600001 0.27250001 -0.90530002 0
0.13539454 0.088934034 0.35591105 93 93 93 -0.77060002 -0.23469999 -0.59249997 0
0.12720975 0.091639198 0.36832437 81 87 92 -0.83359998 0.0052 -0.55229998 0
0.12065739 0.095364556 0.38590536 103 105 109 -0.79960001 0.2322 -0.55379999 0
0.11366285 0.10009786 0.4042404 110 114 117 -0.89960003 0.12909999 -0.41729999 0
0.083399601 0.08628048 0.3542169 117 120 126 -0.17550001 0.2604 -0.94940001 0
-0.038569897 0.08047542 0.35549596 199 186 186 0.087099999 0.82300001 -0.56129998 0
-0.055524427 0.081117533 0.35936934 228 206 198 0.077 0.81559998 -0.57349998 0
-0.074386068 0.078814216 0.35451877 243 223 218 -0.1119 0.76480001 -0.63450003 0
-0.091519371 0.078963585 0.35786185 154 150 159 0.2181 0.72530001 -0.653 0
-0.093220972 0.076717943 0.35211781 138 139 150 0.1726 0.71149999 -0.68110001 0
-0.12949862 0.086421676 0.39394042 255 255 255 0 0 0 0
-1.0948367 0.3925727 1.8428553 224 226 228 -0.37130001 -0.039900001 -0.92769998 0
0.17525695 0.079485439 0.30320713 199 194 198 -0.7245 -0.093500003 -0.68290001 0
0.16511972 0.080171265 0.30957717 222 219 222 -0.63770002 -0.0211 -0.76999998 0
0.15080753 0.084013462 0.32787138 143 129 134 -0.2859 0.078000002 -0.9551 0
-0.012281848 0.087839946 0.37669915 191 202 205 -0.25979999 0.75929999 -0.5966 0
-0.032275945 0.084705159 0.36720619 226 207 200 0.28870001 0.83579999 -0.46700001 0
-0.035360996 0.082261272 0.36137074 221 206 197 0.30230001 0.84069997 -0.44929999 0
-0.051687501 0.082240485 0.36106166 229 206 198 0.0147 0.82550001 -0.5643 0
-0.07102906 0.080066003 0.35502121 233 213 209 -0.0125 0.79500002 -0.60640001 0
-0.088554092 0.080498092 0.36047423 174 167 167 0.040399998 0.70520002 -0.70789999 0
-1.0594152 0.39339283 1.8885487 231 233 235 0.72780001 -0.1568 -0.66759998 0
-1.120928 0.37206557 1.7858533 225 227 229 0.099200003 -0.29660001 -0.94980001 0
0.18413229 0.078596972 0.2966409 220 218 219 -0.071699999 -0.1364 -0.98809999 0
0.16866443 0.081157804 0.30926499 238 235 236 -0.4172 0.13609999 -0.89859998 0
0.15184648 0.084102839 0.32585827 118 98 105 -0.42719999 0.1166 -0.89660001 0
0.13575979 0.088493966 0.34810132 87 87 89 -0.8107 -0.082599998 -0.57969999 0
0.12916316 0.091653012 0.36298868 123 127 130 -0.88959998 -0.1024 -0.44510001 0
0.12327628 0.095853083 0.38216212 76 80 85 -0.83499998 0.1637 -0.52539998 0
0.11523741 0.099545412 0.39902017 123 124 131 -0.96219999 0.080799997 -0.26010001 0
0.091150418 0.08870738 0.35792455 128 132 136 0.33930001 0.37279999 -0.86369997 0
0.086832248 0.087141968 0.35320765 120 125 125 0.1221 0.27669999 -0.95319998 0
-0.028484501 0.086496182 0.37230149 235 213 207 0.23450001 0.86080003 -0.45159999 0
-0.048257373 0.083670288 0.36285365 228 204 197 -0.0104 0.8513 -0.52450001 0
-0.067477278 0.081428811 0.35806569 229 209 204 0.1012 0.81379998 -0.57230002 0
-0.084605329 0.081519775 0.36026686 208 197 194 -0.0113 0.72079998 -0.69309998 0
-1.0894969 0.373806 1.8124321 228 230 231 -0.32539999 -0.62110001 -0.713 0
-1.0809714 0.33517456 1.6052072 0 0 0 0 0 0 0
0.17557888 0.079533368 0.30029374 216 213 216 -0.6067 -0.1807 -0.77410001 0
0.17176794 0.082107991 0.30961639 159 156 161 -0.4181 0.19149999 -0.88800001 0
0.16123272 0.08273977 0.31546533 222 219 222 -0.491 0.054299999 -0.86949998 0
0.15542071 0.085128888 0.32595325 163 60 92 -0.48570001 0.069300003 -0.8714 0
0.14459743 0.086192764 0.33587632 229 229 229 -0.27070001 0.3849 -0.88239998 0
0.13951245 0.089633137 0.34782901 106 105 110 -0.7895 -0.024 -0.61330003 0
-0.041290417 0.087209702 0.36987466 242 220 214 0.1038 0.90429997 -0.41409999 0
-0.044941504 0.085262857 0.36570781 232 208 200 0.0187 0.87540001 -0.48300001 0
-0.064410701 0.083011143 0.36052263 237 217 212 0.1542 0.81980002 -0.55150002 0
-0.080917247 0.08271604 0.36141655 238 225 218 -0.047699999 0.7489 -0.66100001 0
-0.098356232 0.082892828 0.3592045 156 162 169 0.2314 0.68220001 -0.6936 0
-0.100073 0.080660574 0.35766688 207 208 214 0.098499998 0.69950002 -0.70779997 0
-0.11901084 0.084589347 0.37966383 255 255 255 -0.1092 0.75239998 -0.64960003 0
-1.1463596 0.40333739 1.8624181 228 230 231 -0.1957 0.0638 -0.97860003 0
0.17825171 0.080149226 0.29864338 181 178 183 -0.40509999 -0.081900001 -0.91060001 0
0.17301403 0.082365394 0.30715314 206 204 207 -0.7184 0.1101 -0.68690002 0
0.16420943 0.083550669 0.31425792 242 242 244 -0.64490002 0.15459999 -0.74849999 0
0.13096231 0.091727041 0.3576847 86 86 88 -0.81590003 -0.1487 -0.55879998 0
0.12414079 0.095283695 0.37267917 45 47 51 -0.89179999 -0.0148 -0.4522 0
0.11685094 0.099167414 0.38976327 63 72 78 -0.83929998 0.022700001 -0.54320002 0
-0.038084008 0.089018449 0.37289467 231 212 204 0.1154 0.91259998 -0.39219999 0
-0.057789613 0.086275816 0.36702415 218 199 192 0.126 0.83969998 -0.52829999 0
-0.061080247 0.084501788 0.36348259 224 205 195 0.1505 0.81809998 -0.55510002 0
-0.077217929 0.08384648 0.36179197 230 208 202 -0.068800002 0.77410001 -0.6293 0
-1.113167 0.40480784 1.8652037 227 229 230 -0.054699998 0.18520001 -0.98119998 0
0.18251304 0.081569389 0.29908806 210 207 210 -0.25209999 -0.0031000001 -0.9677 0
0.15591469 0.084973752 0.32124364 211 129 141 -0.63859999 -0.091899998 -0.764 0
0.14626481 0.086408064 0.32883126 255 255 255 -0.3405 0.46470001 -0.81739998 0
0.14066374 0.089489385 0.34247562 136 137 141 -0.3935 0.1107 -0.91259998 0
0.13342498 0.092140503 0.35421044 94 95 99 -0.80159998 -0.073799998 -0.59329998 0
0.12665007 0.095611542 0.36929882 69 73 76 -0.91119999 -0.0506 -0.40880001 0
0.12014794 0.099895351 0.38768178 94 95 102 -0.86729997 -0.044300001 -0.49579999 0
0.11215521 0.10434903 0.4080655 30 31 35 -0.736 0.2428 -0.63200003 0
-0.034550779 0.090956539 0.37977976 241 222 215 0.1277 0.89880002 -0.41929999 0
-0.054434329 0.087964289 0.37070164 213 194 185 0.064999998 0.83340001 -0.54890001 0
-0.073423527 0.084971681 0.36268365 215 198 190 0.0162 0.80790001 -0.5891 0
-0.094075538 0.083549559 0.3621833 144 145 154 0.2113 0.62360001 -0.75269997 0
0.18454006 0.082100876 0.29867452 192 190 193 -0.43419999 -0.0814 -0.89709997 0
0.17465711 0.082717143 0.30344647 228 228 228 -0.83179998 0.083400004 -0.54869998 0
0.16555606 0.083805256 0.31080326 201 197 203 -0.62660003 0.2076 -0.75120002 0
0.14984173 0.087448284 0.32903406 222 222 224 -0.24240001 0.5402 -0.80589998 0
-0.02739064 0.094211504 0.38670635 220 209 206 0.26620001 0.78490001 -0.55949998 0
-0.030915469 0.092687927 0.38248038 230 210 205 0.077299997 0.88090003 -0.46689999 0
-0.047625534 0.091430344 0.37643984 207 191 187 0.2378 0.74790001 -0.61979997 0
-0.050897811 0.089514747 0.37322706 212 195 187 0.1066 0.79079998 -0.60280001 0
-0.070195712 0.086485215 0.36463565 218 203 197 0.091700003 0.8186 -0.56699997 0
-0.090075672 0.08462432 0.36305723 165 164 171 0.16230001 0.64880002 -0.74339998 0
-1.1287979 0.43603748 1.9583207 227 229 230 0.66109997 0.34349999 -0.66710001 0
-1.0755043 0.40431052 1.8499966 227 229 230 0.1451 0.3382 -0.92979997 0
0.16787252 0.084407479 0.30997437 169 166 172 -0.42519999 0.2288 -0.8757 0
0.15237652 0.088003539 0.32664406 139 131 136 -0.48519999 0.33669999 -0.80699998 0
0.14632972 0.090847515 0.3365202 195 192 195 -0.36149999 0.1797 -0.9149 0
0.14061916 0.088928267 0.33666584 156 155 160 -0.60600001 0.1902 -0.77240002 0
0.13558514 0.092380807 0.34867629 143 145 146 -0.80769998 -0.061900001 -0.58630002 0
0.12961888 0.096196041 0.36434904 131 134 140 -0.90509999 -0.087399997 -0.41620001 0
0.1206232 0.098959327 0.37843975 26 28 32 -0.87910002 0.015799999 -0.4763 0
-0.044094384 0.093586341 0.38144147 172 163 159 0.36680001 0.7683 -0.52460003 0
-0.066538163 0.087737642 0.36699536 207 196 193 0.1375 0.82200003 -0.55260003 0
-0.086766414 0.0860269 0.36440602 145 142 145 0.1031 0.6904 -0.71609998 0
-1.1110917 0.39776623 1.7930557 225 227 229 0.2079 0.18799999 -0.95990002 0
-1.043978 0.36437115 1.6357597 222 224 226 0 0 0 0
0.1760501 0.083017059 0.30080029 215 212 215 -0.6789 0.1238 -0.72369999 0
0.17209184 0.085631743 0.31024241 209 206 209 -0.4271 0.1208 -0.89609998 0
0.16120912 0.086242221 0.31644323 227 221 226 -0.45050001 0.3082 -0.83789998 0
0.15590544 0.089019887 0.32520008 158 88 100 -0.66790003 0.2376 -0.70529997 0
0.13908356 0.093393661 0.34813833 135 136 140 -0.78119999 0.063199997 -0.62099999 0
0.10981464 0.10967385 0.42088115 150 149 154 -0.81209999 0.5625 -0.1551 0
-0.040328939 0.094984718 0.3875683 190 177 172 0.25440001 0.6954 -0.67210001 0
-0.063269429 0.089401163 0.37013239 204 190 190 0.1798 0.8251 -0.53560001 0
-0.083403632 0.087478884 0.36717352 190 181 182 0.0232 0.73210001 -0.68080002 0
-0.10161278 0.084793076 0.35982308 208 210 210 0.271 0.61650002 -0.7392 0
-1.0328941 0.41449618 1.9128041 224 226 228 0.36649999 -0.2067 -0.90719998 0
0.17864187 0.083721772 0.29959708 219 216 220 -0.44299999 0.12530001 -0.88770002 0
0.17301233 0.085753039 0.30788943 219 216 220 -0.75150001 0.072499998 -0.65570003 0
0.16413452 0.087057315 0.31587619 202 199 204 -0.60070002 0.30579999 -0.73869997 0
0.14722203 0.090781696 0.33313102 255 255 255 -0.53039998 0.3888 -0.75330001 0
0.12979302 0.095282696 0.35737538 121 122 128 -0.83560002 0.074900001 -0.54430002 0
0.12365612 0.099751256 0.37588069 112 114 118 -0.86750001 0.0134 -0.49720001 0
0.11599328 0.10348543 0.39192185 125 127 131 -0.82550001 0.094300002 -0.55650002 0
-0.036789335 0.097085044 0.3914465 188 186 184 0.13789999 0.62910002 -0.76499999 0
-0.056640968 0.093156397 0.37813959 213 209 205 -0.0491 0.73509997 -0.67610002 0
-0.060114045 0.091326773 0.37483504 183 171 173 0.16069999 0.8039 -0.57270002 0
-0.079317562 0.088512555 0.36720932 205 196 197 0.0241 0.76209998 -0.64709997 0
-0.098453194 0.086058386 0.36170986 155 159 162 0.27160001 0.57529998 -0.77149999 0
-1.1016707 0.41864422 1.841969 224 226 228 -0.41240001 -0.2841 -0.86559999 0
0.18064405 0.084252283 0.29869905 192 187 191 -0.30019999 0.1001 -0.94859999 0
0.16737045 0.08797995 0.3140738 220 220 220 -0.64469999 0.28690001 -0.70859998 0
0.156176 0.088783562 0.32196152 174 88 101 -0.68290001 0.12899999 -0.71899998 0
0.15059607 0.091590934 0.33279017 255 255 255 -0.42460001 0.42340001 -0.8003 0
0.13992025 0.093110181 0.34246382 132 131 136 -0.67570001 0.12819999 -0.72600001 0
0.1339485 0.096567251 0.35582981 140 139 144 -0.73369998 0.22139999 -0.64240003 0
0.12555143 0.099379204 0.36911878 111 115 118 -0.86519998 0.2032 -0.45840001 0
0.11864537 0.10379007 0.38653678 118 116 124 -0.87349999 0.1376 -0.46700001 0
0.11127695 0.10871816 0.40974391 147 149 151 -0.81999999 0.412 -0.39739999 0
0.11032191 0.11757854 0.44279993 210 212 216 -0.91390002 0.31259999 -0.25909999 0
-0.029453898 0.1005424 0.39525899 167 171 174 0.2105 0.57889998 -0.7877 0
-0.032834545 0.098240159 0.39387223 144 141 142 0.24609999 0.58039999 -0.7762 0
-0.072755434 0.091715768 0.37244043 185 180 180 0.067199998 0.79689997 -0.60030001 0
-0.07558345 0.089779094 0.36868817 195 186 185 0.087899998 0.79619998 -0.59869999 0
-0.094877496 0.087303609 0.36337221 162 167 177 0.25479999 0.61129999 -0.7493 0
-1.0792538 0.42334342 1.9047658 229 231 232 0.0123 0.6796 -0.73339999 0
0.18285131 0.084835388 0.29749706 168 165 168 -0.2755 0.0057999999 -0.96130002 0
0.17381805 0.085830249 0.3039273 176 173 179 -0.75040001 0.1892 -0.63330001 0
0.15866356 0.089409158 0.31996807 207 119 140 -0.62489998 0.2279 -0.74669999 0
0.15491827 0.09301804 0.33174312 162 159 165 -0.59890002 0.3371 -0.72640002 0
0.14212902 0.09345904 0.33858153 121 122 126 -0.64660001 0.17900001 -0.74159998 0
0.11523296 0.10957511 0.4045445 117 119 123 -0.86989999 0.3739 -0.32170001 0
-0.051945169 0.093323529 0.37684071 174 167 167 0.086400002 0.73890001 -0.66829997 0
-0.088670447 0.090694658 0.37050346 192 192 201 0.17200001 0.70990002 -0.68300003 0
-0.091914952 0.088962883 0.3658011 155 158 166 0.25029999 0.65200001 -0.71569997 0
-1.1385266 0.45849222 1.9712273 229 231 232 0.84549999 0.38699999 -0.36790001 0
0.18622893 0.085741632 0.29433799 0 0 0 -0.078400001 -0.0297 -0.99650002 0
0.1759686 0.086367927 0.3021687 191 191 193 -0.62800002 0.29949999 -0.71829998 0
0.1673322 0.087759621 0.31056121 219 216 222 -0.50599998 0.2509 -0.82520002 0
0.16083124 0.089898765 0.31852153 182 96 111 -0.48289999 0.27869999 -0.8301 0
0.14626369 0.094696917 0.33726224 113 110 116 -0.58710003 0.28479999 -0.75779998 0
0.13512203 0.096354656 0.35170341 108 109 113 -0.77869999 0.2379 -0.58050001 0
0.12750193 0.099333294 0.36321509 147 149 151 -0.8858 0.13869999 -0.44279999 0
0.1202887 0.10326412 0.37864551 128 127 132 -0.84249997 0.1883 -0.50470001 0
0.11321365 0.11742064 0.43383184 152 156 159 -0.94489998 0.26159999 -0.19679999 0
-0.045092635 0.097056247 0.38627201 215 215 215 0.47639999 0.60259998 -0.64029998 0
-0.048393406 0.094899185 0.38015875 172 169 170 0.3238 0.73430002 -0.59670001 0
-0.065805458 0.094773069 0.37713671 186 186 186 0.24240001 0.78979999 -0.56349999 0
-0.069149964 0.093036905 0.37427399 167 164 165 0.1444 0.78310001 -0.6049 0
0.17016609 0.088535108 0.30971506 203 202 205 -0.4831 0.21160001 -0.84960002 0
0.15493922 0.09240561 0.32629642 108 102 109 -0.6505 0.1549 -0.74349999 0
0.13699733 0.096496545 0.34644026 103 107 110 -0.76719999 0.2789 -0.5776 0
-0.041600019 0.099588573 0.39062276 198 198 198 0.37639999 0.52130002 -0.76590002 0
-0.0620347 0.096167669 0.38194019 166 166 166 0.1534 0.7525 -0.64050001 0
-0.082153253 0.093614407 0.37305489 164 168 174 0.1444 0.77789998 -0.61159998 0
-0.084812164 0.091694795 0.37054038 156 157 161 0.1025 0.7288 -0.67699999 0
-0.10154331 0.091273189 0.3643541 254 255 255 0.2149 0.59530002 -0.77420002 0
-1.065563 0.44424117 1.8918974 230 232 234 -0.37020001 -0.61940002 -0.69230002 0
0.17829336 0.086941987 0.30008814 145 142 147 -0.54689997 0.26289999 -0.7949 0
0.17198098 0.088881984 0.30770382 162 161 166 -0.68980002 0.18099999 -0.70099998 0
0.16413757 0.090698451 0.31713504 241 239 242 -0.58929998 0.2665 -0.76270002 0
0.14626727 0.094156124 0.33444679 111 108 113 -0.43979999 0.236 -0.86650002 0
0.12948868 0.099462755 0.35863918 121 123 124 -0.71079999 0.29359999 -0.63919997 0
0.12334161 0.10385083 0.37777224 143 148 151 -0.77560002 0.31459999 -0.54729998 0
0.11489152 0.10749459 0.3936255 119 118 121 -0.8351 0.3908 -0.38730001 0
0.11345715 0.11544712 0.42057043 177 182 182 -0.89450002 0.39829999 -0.20280001 0
-0.037579671 0.10067526 0.39136806 141 145 148 0.25850001 0.46129999 -0.8488 0
-0.057894275 0.097470619 0.38268039 171 172 176 -0.068099998 0.7374 -0.67210001 0
-0.078715898 0.095515311 0.37860337 135 139 145 0.067299999 0.77569997 -0.6275 0
-1.1049633 0.43748945 1.834758 223 225 227 -0.6099 -0.43279999 -0.66390002 0
0.18011324 0.087394066 0.29889125 194 191 194 -0.4743 0.2563 -0.84219998 0
0.16585264 0.09102349 0.31516549 210 208 208 -0.6063 0.27160001 -0.74739999 0
0.15613106 0.092480734 0.3230027 131 119 123 -0.52350003 0.1006 -0.84609997 0
0.14976698 0.095161565 0.33329457 255 255 255 -0.4346 0.30939999 -0.84579998 0
0.14002535 0.09716469 0.34413153 121 125 129 -0.66229999 0.35389999 -0.66039997 0
0.13286048 0.10036331 0.35724017 140 142 148 -0.55669999 0.45950001 -0.69199997 0
0.12556084 0.10381227 0.37142864 112 114 116 -0.78890002 0.40220001 -0.4646 0
0.11805465 0.10823001 0.38971737 114 116 117 -0.78710002 0.45280001 -0.41890001 0
-0.033774644 0.10236336 0.39337531 205 210 210 0.33199999 0.33250001 -0.88270003 0
-0.05428277 0.099099778 0.38318962 232 231 234 0.0178 0.72490001 -0.6886 0
-0.074531071 0.096479528 0.37812316 180 180 184 0.033500001 0.7475 -0.66339999 0
-0.094326667 0.093855605 0.37138265 195 197 199 0.35780001 0.67250001 -0.64789999 0
-0.096937135 0.091925658 0.36603472 206 208 209 0.25560001 0.65850002 -0.70789999 0
-1.1709946 0.47516948 1.9036444 224 226 230 0.7899 0.47889999 -0.38299999 0
0.1828637 0.08814656 0.29776776 195 190 192 -0.3637 0.2597 -0.89459997 0
0.174582 0.089581437 0.30592483 183 180 186 -0.68949997 0.2586 -0.67659998 0
0.15850787 0.0930143 0.32139573 122 66 76 -0.31670001 0.2053 -0.926 0
0.14264061 0.097790629 0.34206918 112 111 114 -0.57700002 0.4621 -0.6735 0
0.13487619 0.10046151 0.35475531 162 161 166 -0.69199997 0.50980002 -0.51120001 0
0.11563508 0.11498366 0.41105008 143 142 147 -0.85390002 0.4542 -0.25400001 0
-0.048044182 0.10403972 0.38825795 202 206 207 0.51810002 0.4244 -0.74260002 0
-0.070879534 0.097826257 0.37957814 149 150 154 0.1464 0.76209998 -0.63059998 0
-0.091787145 0.095685542 0.37429017 171 173 174 0.30090001 0.68769997 -0.66070002 0
0.17636278 0.08994662 0.30409169 187 183 189 -0.6045 0.39030001 -0.69440001 0
0.16710468 0.091185249 0.31163993 181 178 183 -0.60460001 0.28600001 -0.74339998 0
0.16108792 0.09364333 0.32006198 203 121 135 -0.4822 0.3242 -0.81379998 0
0.15231949 0.095703281 0.3311927 255 255 255 -0.662 0.2737 -0.69770002 0
0.1279033 0.1039589 0.36721212 159 161 163 -0.71520001 0.5456 -0.4368 0
0.12051976 0.10816839 0.38339517 132 133 140 -0.75590003 0.46540001 -0.4605 0
0.11233023 0.12252133 0.43847436 191 190 195 -0.95490003 0.1583 -0.2511 0
-0.044661261 0.10630492 0.39102897 148 156 163 0.37889999 0.3118 -0.87129998 0
-0.065106288 0.10268484 0.39124626 209 211 213 0.063500002 0.77209997 -0.63230002 0
-0.067973562 0.099897541 0.38554338 237 239 241 0.26820001 0.78909999 -0.55260003 0
-0.087228715 0.09674307 0.37495714 190 189 192 0.1859 0.7076 -0.68169999 0
-1.0027747 0.47475344 1.9485667 231 233 235 0.4531 0.0117 -0.89139998 0
-1.0438799 0.4403246 1.8572097 229 231 232 0.55729997 0.2536 -0.79070002 0
0.18386465 0.088310957 0.29600888 155 149 155 -0.2061 0.26789999 -0.9411 0
0.17811917 0.090324268 0.30235237 218 217 222 -0.5413 0.42469999 -0.72570002 0
0.17015491 0.092023335 0.3109782 214 213 218 -0.52509999 0.39289999 -0.755 0
0.14309634 0.097334288 0.33751068 124 121 124 -0.61839998 0.44049999 -0.65079999 0
0.13714975 0.10073797 0.34970185 116 112 118 -0.71569997 0.50599998 -0.48140001 0
0.12329362 0.10843484 0.37991217 124 126 130 -0.70429999 0.5273 -0.4754 0
0.11665561 0.11378963 0.40004048 139 137 145 -0.84740001 0.46419999 -0.25780001 0
-0.060875308 0.10373269 0.38904196 217 216 219 -0.1244 0.74680001 -0.65329999 0
-0.083461732 0.097914748 0.37726504 175 177 181 0.1735 0.78659999 -0.59259999 0
0.17176996 0.092290498 0.30866113 214 214 216 -0.61559999 0.38319999 -0.6886 0
0.16280261 0.093870975 0.31720376 169 72 96 -0.6103 0.31420001 -0.72719997 0
0.14612082 0.098114222 0.33566657 99 99 101 -0.5104 0.4188 -0.7511 0
0.12848848 0.10325713 0.36142305 89 86 91 -0.61390001 0.56330001 -0.55309999 0
0.1136102 0.12122026 0.42748323 166 170 171 -0.9357 0.2455 -0.2534 0
-0.080930464 0.10038551 0.38354719 220 221 225 0.048099998 0.7784 -0.62589997 0
-0.99037719 0.49986374 2.0173926 231 233 237 0.79339999 0.56529999 -0.22579999 0
0.17992142 0.090686128 0.29982373 168 165 168 -0.52850002 0.43650001 -0.7281 0
0.16543821 0.094574153 0.31587473 181 114 123 -0.5237 0.41749999 -0.74260002 0
0.15044761 0.099370852 0.33583713 184 182 185 -0.38690001 0.50980002 -0.76840001 0
0.13861535 0.10068464 0.34635672 109 110 117 -0.61210001 0.52069998 -0.59509999 0
0.13306186 0.10468037 0.36061159 149 148 153 -0.50300002 0.64130002 -0.57950002 0
0.12556164 0.10844741 0.37685898 136 135 140 -0.62540001 0.588 -0.51300001 0
0.11902111 0.11355552 0.39399081 163 162 167 -0.72549999 0.58350003 -0.36500001 0
0.11640193 0.12090316 0.41756812 152 148 156 -0.91229999 0.30000001 -0.27869999 0
-0.077159733 0.10143365 0.38336083 215 217 219 -0.0383 0.70130002 -0.7119 0
-0.093162194 0.10504167 0.38380671 224 228 231 0.37450001 0.77170002 -0.514 0
-0.09388461 0.1007869 0.37835151 221 226 227 0.32659999 0.73369998 -0.59579998 0
-0.095831148 0.098260805 0.37393945 227 229 230 0.46070001 0.61379999 -0.64109999 0
-1.0519127 0.48456803 1.9249274 228 230 231 0.046100002 0.223 -0.97369999 0
-1.0934397 0.45061132 1.8161668 225 227 229 0.091499999 -0.046500001 -0.99470001 0
0.18265678 0.091412202 0.29891363 186 183 186 -0.37869999 0.48140001 -0.79049999 0
0.17325972 0.092555314 0.30720899 220 220 222 -0.63209999 0.37040001 -0.6807 0
0.16786681 0.095121473 0.31479231 196 189 189 -0.47909999 0.48140001 -0.73390001 0
0.15044531 0.09397912 0.32157758 255 255 255 -0.38870001 0.20819999 -0.89749998 0
0.14165764 0.1014658 0.34554845 99 99 101 -0.50620002 0.62510002 -0.5941 0
0.13656448 0.10563474 0.35886616 125 124 129 -0.60949999 0.6117 -0.5043 0
0.12879425 0.10906862 0.37341875 123 125 129 -0.56220001 0.66750002 -0.4883 0
0.12124448 0.11366525 0.39166671 131 134 140 -0.68169999 0.62059999 -0.3874 0
0.11380475 0.12969629 0.43858615 186 187 191 -0.95459998 0.0691 -0.2897 0
0.18546377 0.092165485 0.29908195 201 196 198 -0.2077 0.48159999 -0.85140002 0
0.17609605 0.09327887 0.30478975 148 145 151 -0.61750001 0.40869999 -0.67199999 0
0.16084047 0.097256556 0.32205498 130 74 86 -0.48480001 0.49900001 -0.71829998 0
0.15060465 0.098616123 0.33155268 184 182 185 -0.66039997 0.42039999 -0.6221 0
0.14576156 0.10265923 0.34363607 179 176 179 -0.58050001 0.6397 -0.50379997 0
0.13890514 0.10597134 0.35620692 104 102 110 -0.66759998 0.61430001 -0.42070001 0
0.13304295 0.11039251 0.37295446 134 133 138 -0.52749997 0.70719999 -0.4707 0
-0.088306665 0.10527623 0.38707709 234 238 241 0.1574 0.78200001 -0.6031 0
-0.99794102 0.49013773 1.9081203 231 233 235 -0.3689 -0.6645 -0.64990002 0
0.17885418 0.093977444 0.30453628 224 221 226 -0.4795 0.51709998 -0.70899999 0
0.17001246 0.095526278 0.31227997 220 220 222 -0.48649999 0.55669999 -0.67330003 0
0.16334789 0.097831696 0.31974396 155 71 86 -0.53909999 0.50150001 -0.6767 0
0.15335763 0.099402398 0.32896268 255 255 255 -0.4188 0.63 -0.6541 0
0.12348808 0.11349178 0.38467267 171 170 175 -0.65130001 0.62809998 -0.42590001 0
0.11744317 0.11942405 0.40823376 136 137 141 -0.86559999 0.3924 -0.31099999 0
-0.084392406 0.10649379 0.39130455 218 222 225 -0.039099999 0.7561 -0.65329999 0
0.17224197 0.096050814 0.31113586 204 203 206 -0.53539997 0.58090001 -0.61320001 0
0.14688291 0.10217237 0.33782044 150 150 152 -0.49059999 0.6279 -0.60420001 0
0.14042701 0.10581316 0.35160446 135 134 139 -0.54659998 0.6936 -0.46919999 0
0.13469735 0.11015334 0.36649173 137 137 141 -0.51340002 0.75190002 -0.41350001 0
0.12718424 0.11443682 0.38322958 163 162 167 -0.60210001 0.63380003 -0.48559999 0
0.12014508 0.11961479 0.40185204 138 139 146 -0.77509999 0.48809999 -0.4012 0
0.11301835 0.12606776 0.43072942 172 173 177 -0.97920001 0.094499998 -0.1797 0
-0.98826754 0.51705533 2.0575843 230 232 236 0.736 0.6038 -0.30599999 0
0.18113643 0.094504766 0.30266777 195 192 195 -0.479 0.54390001 -0.68900001 0
0.17518014 0.096819155 0.30965558 211 210 213 -0.52389997 0.59289998 -0.61150002 0
0.16442063 0.097800754 0.31686482 187 109 126 -0.4684 0.5474 -0.69349998 0
0.15021908 0.10329006 0.3381069 255 255 255 -0.38980001 0.68080002 -0.62010002 0
0.14322282 0.10633121 0.34934774 196 193 196 -0.4772 0.70630002 -0.52289999 0
0.13716085 0.11052995 0.36485884 143 142 147 -0.54549998 0.71670002 -0.43450001 0
-1.0562086 0.50421154 1.8878847 232 234 236 0.1674 -0.45070001 -0.8768 0
-1.1036108 0.47180319 1.8176801 228 229 233 0.093800001 0.0092000002 -0.99559999 0
0.18324752 0.09504167 0.30100098 213 213 213 -0.3545 0.57429999 -0.73790002 0
0.16818836 0.098947234 0.31711617 184 156 163 -0.42269999 0.60829997 -0.67180002 0
0.15811183 0.100379 0.32586974 131 121 129 -0.3362 0.66469997 -0.66720003 0
0.15275474 0.10386287 0.33729145 255 255 255 -0.45820001 0.69220001 -0.55760002 0
0.14711349 0.10747849 0.34889689 173 170 171 -0.51370001 0.70039999 -0.4955 0
0.13013729 0.11459698 0.37892887 149 148 153 -0.56440002 0.62290001 -0.54180002 0
0.12236295 0.1193258 0.3970319 167 169 173 -0.65350002 0.5898 -0.47440001 0
-1.0770668 0.47439522 1.820973 230 232 234 -0.1718 0.32789999 -0.92900002 0
0.18558818 0.095562451 0.29981849 233 231 232 -0.2032 0.565 -0.79960001 0
0.17586803 0.096744619 0.30719078 170 169 174 -0.49149999 0.57319999 -0.65560001 0
0.17120679 0.099721715 0.31632379 153 150 155 -0.4752 0.60829997 -0.63569999 0
0.1605904 0.10096119 0.32383138 163 105 115 -0.49110001 0.6372 -0.59399998 0
0.15475515 0.10414942 0.33471555 255 255 255 -0.49779999 0.71539998 -0.4903 0
0.13862322 0.11018944 0.35983518 155 154 159 -0.59689999 0.66670001 -0.44639999 0
0.13245101 0.11477161 0.37700194 166 168 172 -0.56110001 0.61680001 -0.55199999 0
0.12540856 0.11966977 0.39384842 168 170 174 -0.67970002 0.57620001 -0.45390001 0
0.11786709 0.12506852 0.41345215 146 148 152 -0.88819999 0.2782 -0.36570001 0
-1.0194373 0.51792246 1.9344822 234 236 237 0.70959997 0.4542 -0.53869998 0
-0.97252858 0.48103526 1.8463715 232 234 236 0 0 0 0
-1.1046804 0.49938527 1.8539182 228 229 233 0.2423 0.55989999 -0.79229999 0
0.22199331 0.11264446 0.35009903 0 0 0 0 0 0 0
0.17859706 0.097416036 0.30568114 190 187 191 -0.39039999 0.62650001 -0.67460001 0
0.17304282 0.10000294 0.31412834 208 205 208 -0.4797 0.62739998 -0.61330003 0
0.16403612 0.10193644 0.32333675 177 93 106 -0.45840001 0.63550001 -0.62129998 0
0.14786847 0.10681736 0.34444124 162 159 163 -0.5176 0.70039999 -0.49149999 0
0.1425903 0.11134524 0.3587054 158 160 161 -0.56959999 0.67659998 -0.4666 0
0.13633204 0.11579558 0.37476775 164 164 166 -0.59240001 0.61989999 -0.51450002 0
0.11294626 0.13189606 0.4341383 192 196 200 -0.95279998 0.1771 -0.2464 0
0.18193389 0.098424569 0.30548909 224 221 226 -0.43779999 0.63679999 -0.6347 0
0.16647029 0.10240078 0.32182091 195 185 189 -0.45039999 0.63800001 -0.62449998 0
0.15797934 0.10478399 0.33199215 155 147 152 -0.51660001 0.69499999 -0.50010002 0
0.15099332 0.10772576 0.34244972 255 255 255 -0.433 0.69379997 -0.57550001 0
0.14586696 0.11198787 0.35615659 162 161 166 -0.54750001 0.66469997 -0.50830001 0
0.12801276 0.11972304 0.38830352 121 120 125 -0.71289998 0.54100001 -0.4463 0
0.11971787 0.12437382 0.40618923 134 133 136 -0.84030002 0.35499999 -0.40970001 0
-1.011214 0.48677918 1.7982712 231 233 237 0 0 0 0
-1.1663239 0.51467437 1.8513995 227 228 232 -0.51349998 0.64899999 -0.56129998 0
0.18351562 0.098701626 0.30386934 184 178 182 -0.37779999 0.66369998 -0.64560002 0
0.17574914 0.10065157 0.31305021 201 201 203 -0.48980001 0.64069998 -0.59119999 0
0.16921023 0.10305857 0.32004699 191 188 194 -0.41420001 0.63929999 -0.64789999 0
0.16088156 0.1055921 0.33141553 158 109 118 -0.53799999 0.68010002 -0.498 0
0.15383342 0.10847141 0.34197038 255 255 255 -0.39120001 0.68379998 -0.61589998 0
0.13807735 0.11560271 0.37107193 134 133 136 -0.57029998 0.6451 -0.50849998 0
0.13043571 0.11966827 0.38478538 144 144 148 -0.65109998 0.54110003 -0.53219998 0
0.12232903 0.1243287 0.40099105 135 134 139 -0.7202 0.40349999 -0.56440002 0
0.11519906 0.13075486 0.4230572 151 151 155 -0.91860002 0.26710001 -0.2913 0
0.17756249 0.10098972 0.31110722 190 188 189 -0.4765 0.65020001 -0.59170002 0
0.16178727 0.10516392 0.32759991 184 89 110 -0.4989 0.6796 -0.53789997 0
0.15853345 0.10991016 0.34162396 154 139 146 -0.4851 0.66750002 -0.56489998 0
0.14701428 0.11162367 0.35208306 178 178 180 -0.52890003 0.67449999 -0.5151 0
0.14214034 0.11669105 0.36928228 113 110 116 -0.62589997 0.62440002 -0.46740001 0
0.13405517 0.12058003 0.38147137 180 182 184 -0.65359998 0.47819999 -0.58660001 0
-1.0345191 0.52709144 1.8822715 231 233 235 0.4149 0.052099999 -0.9084 0
-1.073841 0.48999491 1.8119587 230 232 236 -0.070100002 0.2286 -0.97100002 0
0.18551384 0.099166006 0.30343777 178 173 175 -0.2396 0.6613 -0.71079999 0
0.17992821 0.1015576 0.31018275 172 169 170 -0.3946 0.66659999 -0.63239998 0
0.17164858 0.10361242 0.31940159 202 199 202 -0.48289999 0.60170001 -0.63609999 0
0.16574782 0.10641727 0.32692406 170 158 162 -0.49020001 0.64450002 -0.58679998 0
0.15094368 0.11284048 0.35198274 173 170 173 -0.50760001 0.66219997 -0.55119997 0
0.12654857 0.12537007 0.39956039 147 149 151 -0.7536 0.34 -0.56260002 0
0.11733712 0.13008241 0.41636181 149 148 153 -0.90549999 0.25690001 -0.33790001 0
-1.0942661 0.51251519 1.8322697 234 235 239 0.25369999 0.505 -0.82499999 0
0.18327688 0.10249742 0.30997014 168 165 168 -0.44010001 0.63090003 -0.63889998 0
0.17410229 0.10404353 0.31709838 175 172 175 -0.4905 0.59469998 -0.63709998 0
0.15894219 0.10924052 0.33740738 169 140 150 -0.60769999 0.59509999 -0.52590001 0
0.15303157 0.11295684 0.34817818 255 255 255 -0.60079998 0.57080001 -0.55970001 0
0.14329882 0.11611909 0.36317882 121 120 125 -0.5528 0.65069997 -0.52060002 0
0.13671839 0.12071427 0.37877077 136 135 140 -0.64389998 0.44 -0.62599999 0
0.12899256 0.12536736 0.39378563 118 117 120 -0.83099997 0.29980001 -0.46849999 0
0.12128777 0.13086358 0.41171455 152 152 157 -0.89130002 0.2658 -0.3673 0
0.1131468 0.13810389 0.43635726 210 214 217 -0.90469998 0.26320001 -0.3351 0
-1.1020031 0.53066862 1.8802226 231 233 237 0.27869999 0.43399999 -0.8567 0
0.17684616 0.10472324 0.31675252 180 176 182 -0.51090002 0.5729 -0.64090002 0
0.16741034 0.10654209 0.32495183 195 192 195 -0.50620002 0.59939998 -0.62010002 0
0.16124663 0.10968245 0.33450708 161 77 91 -0.65359998 0.57050002 -0.49739999 0
0.14543709 0.11625254 0.36194479 162 161 166 -0.5614 0.63639998 -0.5291 0
0.13941588 0.12096968 0.37558812 151 151 155 -0.62489998 0.42039999 -0.65780002 0
-1.0388805 0.51677954 1.8740586 222 224 226 0.069899999 0.097499996 -0.9928 0
0.21240135 0.1125527 0.33127594 0 0 0 0 0 0 0
0.20046568 0.10818348 0.32187173 155 149 153 0.18520001 -0.95469999 -0.23289999 0
0.18488406 0.10270362 0.30691573 178 171 175 -0.41440001 0.5952 -0.68839997 0
0.1797872 0.10554579 0.31484383 189 184 188 -0.57740003 0.47279999 -0.6656 0
0.16994593 0.10712231 0.32374686 193 192 197 -0.50139999 0.56940001 -0.65140003 0
0.1557564 0.11361322 0.34594309 151 143 151 -0.4666 0.47350001 -0.7471 0
0.14409405 0.12256096 0.37381291 100 100 102 -0.70270002 0.2685 -0.65880001 0
0.13047718 0.12471166 0.38749593 114 113 120 -0.7392 0.32780001 -0.58829999 0
0.12246741 0.12945291 0.40352961 95 97 101 -0.84329998 0.16339999 -0.51200002 0
0.11537167 0.13667266 0.43088126 167 169 173 -0.93000001 0.2784 -0.23989999 0
-1.0648727 0.54384202 1.892691 230 232 236 -0.043099999 0.23360001 -0.97140002 0
-1.0927407 0.50127786 1.7960376 230 232 236 -0.22920001 -0.42860001 -0.8739 0
0.18783727 0.10352075 0.30709603 192 187 191 -0.24150001 0.57749999 -0.77990001 0
0.17237614 0.10768016 0.32204071 177 177 179 -0.53740001 0.49970001 -0.67940003 0
0.16362572 0.11006946 0.33295307 173 152 154 -0.58380002 0.54909998 -0.59810001 0
0.15796235 0.11378356 0.34395209 147 127 134 -0.54540002 0.36019999 -0.75690001 0
0.14651911 0.1158319 0.35682201 145 147 149 -0.54509997 0.57889998 -0.60640001 0
0.13293581 0.12460053 0.3843784 46 47 56 -0.72430003 0.2462 -0.64399999 0
-1.0911503 0.5144161 1.8306793 228 229 233 0.24779999 0.31290001 -0.91689998 0
0.18120445 0.10556836 0.31332293 176 168 175 -0.52499998 0.461 -0.71539998 0
0.17477977 0.1081846 0.32052359 210 209 212 -0.53930002 0.41870001 -0.73070002 0
0.16592015 0.11046363 0.33038548 194 194 196 -0.5395 0.56400001 -0.62519997 0
0.16133317 0.11465982 0.34263515 180 106 115 -0.72030002 0.27590001 -0.63639998 0
0.15067422 0.11715139 0.3553108 255 255 255 -0.51700002 0.55949998 -0.64780003 0
0.14395301 0.12118465 0.36962691 54 56 58 -0.68949997 0.30399999 -0.65740001 0
0.12578873 0.12999517 0.40053606 132 131 136 -0.86369997 0.046 -0.50199997 0
0.11784893 0.1359296 0.42048422 144 146 150 -0.90570003 0.2678 -0.32870001 0
-1.070936 0.51933169 1.8201319 231 233 237 -0.249 0.095799997 -0.9637 0
0.18409181 0.10640763 0.31219244 197 121 137 -0.55489999 0.4102 -0.72369999 0
0.16749951 0.11047843 0.32748201 198 197 200 -0.58850002 0.49079999 -0.64249998 0
0.13666376 0.12538868 0.38057548 105 102 110 -0.75089997 0.1355 -0.64639997 0
0.12709936 0.12881809 0.39393148 72 73 77 -0.90990001 -0.071699999 -0.40869999 0
0.11981939 0.1351348 0.414206 142 143 149 -0.90649998 0.242 -0.3459 0
-1.02525 0.57286787 1.9819155 232 234 238 0.46869999 0.19599999 -0.86140001 0
-1.0818385 0.53906745 1.8772535 229 231 235 0.070299998 0.2809 -0.95719999 0
-1.1026484 0.49522194 1.7287437 224 228 231 -0.0726 0.38280001 -0.921 0
0.18591514 0.10675001 0.31020397 202 192 196 -0.46439999 0.3558 -0.81099999 0
0.17729607 0.10865678 0.31863579 163 157 164 -0.5654 0.33050001 -0.75569999 0
0.16165495 0.11383213 0.33707795 173 131 136 -0.73909998 0.32910001 -0.58770001 0
0.15287514 0.12398139 0.36334044 199 196 202 -0.6117 0.092200004 -0.78570002 0
0.1464335 0.12093007 0.36588874 121 123 124 -0.59179997 0.3989 -0.70039999 0
0.13808645 0.12480701 0.37669274 80 82 86 -0.73860002 -0.021600001 -0.67379999 0
0.11655213 0.14351588 0.43488118 193 192 199 -0.949 0.20919999 -0.2358 0
-1.0883576 0.55720198 1.8871793 227 228 232 -0.21950001 0.1517 -0.9637 0
0.17917278 0.10892819 0.31672099 172 162 165 -0.60549998 0.2103 -0.7676 0
0.17047128 0.11105605 0.32620373 205 202 206 -0.60350001 0.37459999 -0.70389998 0
0.1636539 0.11404993 0.33499584 191 191 191 -0.62180001 0.26089999 -0.73839998 0
0.15425931 0.11666135 0.34508523 107 86 91 -0.64410001 0.2211 -0.73229998 0
0.12934406 0.12863715 0.38879195 89 91 95 -0.82529998 -0.081699997 -0.55870003 0
0.12134662 0.13372742 0.40545967 105 107 113 -0.91240001 0.0603 -0.4048 0
-1.0317135 0.544999 1.8559026 235 236 240 0.0121 -0.0986 -0.99510002 0
-1.0586286 0.50269812 1.7423089 229 231 235 0.2412 0.76800001 -0.59329998 0
-1.031756 0.47796434 1.7071939 229 231 235 0 0 0 0
0.18763435 0.10688431 0.30786556 205 198 200 -0.31560001 0.36559999 -0.87559998 0
0.17303881 0.11162046 0.32376233 196 195 198 -0.67229998 0.2059 -0.71109998 0
0.16796379 0.1153407 0.33342466 137 137 141 -0.58880001 0.1424 -0.79570001 0
0.15655601 0.11710495 0.34426519 138 50 73 -0.66119999 0.1208 -0.74040002 0
0.15165174 0.12190264 0.35858509 255 255 255 -0.52429998 0.1683 -0.8348 0
0.14066043 0.12500474 0.37358364 93 94 98 -0.6602 -0.1961 -0.72500002 0
0.13368589 0.1298016 0.38650921 72 71 76 -0.77219999 -0.083499998 -0.62989998 0
0.1173565 0.14136794 0.424968 129 130 134 -0.93699998 0.14669999 -0.317 0
-1.1074386 0.53856605 1.835987 228 229 233 0.1645 0.458 -0.87360001 0
0.1810555 0.10925794 0.31420729 194 109 126 -0.60900003 0.15719999 -0.77749997 0
0.1746245 0.11186375 0.32200414 230 230 232 -0.60089999 0.057599999 -0.79729998 0
0.15932976 0.11770575 0.34343579 161 81 99 -0.77200001 -0.035100002 -0.6347 0
0.14482297 0.12609279 0.37121978 94 94 96 -0.74479997 -0.2045 -0.63510001 0
0.1369812 0.13039321 0.3819423 93 95 96 -0.78839999 -0.1576 -0.59460002 0
0.12410208 0.13385509 0.40056503 100 99 104 -0.921 0.029200001 -0.38850001 0
-0.9987548 0.54445487 1.9359924 231 233 237 0.5704 -0.8136 -0.1128 0
-1.1235987 0.56085926 1.8821043 229 231 235 0.59829998 0.40900001 -0.68910003 0
0.20236911 0.11182797 0.31582752 0 0 0 0 0 0 0
0.18315941 0.10963118 0.31263271 194 111 132 -0.57279998 0.1451 -0.80669999 0
0.16878907 0.1149949 0.33091551 182 179 182 -0.60579997 0.096699998 -0.78969997 0
0.15214571 0.12085167 0.35267842 127 119 126 -0.866 0.050299998 -0.49759999 0
0.12599343 0.13309772 0.39422563 96 99 105 -0.92629999 -0.1523 -0.34470001 0
0.11986323 0.14062531 0.4187842 150 149 154 -0.9321 0.1164 -0.34299999 0
-0.98221308 0.55163407 1.9789785 230 232 236 0.0427 0.32229999 -0.94569999 0
0.18563347 0.11024022 0.31077379 193 97 118 -0.6329 0.091700003 -0.76880002 0
0.17624119 0.11195355 0.31889576 193 186 189 -0.6365 -0.054299999 -0.7694 0
0.17061833 0.11525089 0.32819465 211 208 212 -0.65200001 -0.0601 -0.75580001 0
0.16179472 0.11812042 0.33860645 167 164 167 -0.85339999 -0.15790001 -0.49669999 0
0.15481704 0.1212959 0.34751678 156 72 87 -0.81010002 -0.097999997 -0.57810003 0
0.14480011 0.1245699 0.36403745 112 111 116 -0.70169997 -0.205 -0.68239999 0
0.13660572 0.12845698 0.3754743 114 113 118 -0.80909997 -0.3123 -0.49790001 0
0.11536312 0.14874245 0.4388833 206 212 217 -0.91399997 0.1517 -0.37639999 0
-1.0694562 0.56529272 1.8522753 235 236 240 -0.30180001 0.0283 -0.95300001 0
0.17914467 0.11266973 0.31749302 212 135 147 -0.63340002 -0.062100001 -0.77130002 0
0.16299126 0.11772382 0.33532247 176 173 177 -0.72460002 -0.2886 -0.62580001 0
0.14702599 0.12491965 0.36017445 255 255 255 -0.6451 -0.23019999 -0.72860003 0
0.12867664 0.13301605 0.38916361 125 127 129 -0.8118 -0.29550001 -0.50370002 0
0.12136959 0.13924187 0.40932232 154 153 158 -0.94510001 0.046 -0.32350001 0
-1.0822743 0.58750588 1.8785607 231 233 237 -0.4235 0.1246 -0.8973 0
-1.0814085 0.52907544 1.7545789 225 227 231 0.043400001 0.1882 -0.98119998 0
0.18579412 0.10977681 0.3084003 166 79 95 -0.57169998 0.1026 -0.81400001 0
0.17168777 0.11498461 0.3238878 197 195 196 -0.74760002 -0.1873 -0.6372 0
0.15675382 0.12136277 0.34511769 167 88 97 -0.68419999 -0.168 -0.70969999 0
0.1399278 0.12920092 0.37247083 126 123 129 -0.63630003 -0.40669999 -0.65549999 0
0.13078351 0.13254403 0.38374513 99 100 106 -0.74949998 -0.27610001 -0.60170001 0
0.12414628 0.13932332 0.4031215 116 112 118 -0.95020002 -0.0033 -0.3116 0
0.11662494 0.14631198 0.42826596 156 158 159 -0.91680002 0.2378 -0.32080001 0
-1.055962 0.59081715 1.9458992 235 236 240 0.33539999 -0.8872 -0.3168 0
-1.1264349 0.56455362 1.8485301 225 227 231 -0.16869999 0.078500003 -0.98250002 0
0.19104339 0.11142921 0.30855411 224 216 219 -0.3179 0.14049999 -0.93769997 0
0.18046127 0.11264396 0.31465495 203 175 178 -0.6318 -0.043699998 -0.77389997 0
0.17245826 0.11453757 0.32040903 230 227 228 -0.69749999 -0.27599999 -0.6613 0
0.16479535 0.11774642 0.33202335 188 185 188 -0.64109999 -0.3734 -0.6706 0
0.15919949 0.12176009 0.34326693 186 183 186 -0.72680002 -0.303 -0.6164 0
0.1488799 0.12458736 0.35587451 220 217 223 -0.65210003 -0.45570001 -0.60589999 0
0.14303105 0.12964195 0.36942953 119 118 123 -0.7033 -0.33320001 -0.62800002 0
-1.1058311 0.56967413 1.8557644 228 229 233 -0.4043 0.1097 -0.90799999 0
0.18217628 0.11286237 0.31262088 200 190 193 -0.5747 -0.00039999999 -0.81840003 0
0.16640851 0.11769254 0.32894003 149 148 153 -0.62879997 -0.44100001 -0.64039999 0
0.15240265 0.12544078 0.35229558 110 83 90 -0.77649999 -0.3107 -0.54820001 0
0.13396072 0.13293402 0.380234 120 120 122 -0.79540002 -0.30059999 -0.52630001 0
0.12492123 0.13753107 0.39531282 125 127 129 -0.94450003 -0.12809999 -0.30270001 0
0.11928139 0.14562656 0.41960755 156 158 159 -0.88770002 0.1913 -0.4188 0
0.18497649 0.11363635 0.31229702 216 205 204 -0.66259998 -0.062100001 -0.7464 0
0.17515029 0.11513943 0.31850868 180 99 108 -0.6649 -0.33840001 -0.66589999 0
0.15906242 0.12047993 0.33721903 158 155 158 -0.78969997 -0.4219 -0.4454 0
0.1439569 0.12875028 0.36399782 57 56 61 -0.74910003 -0.28780001 -0.5966 0
0.11590046 0.15462206 0.44242886 206 210 216 -0.91030002 0.098800004 -0.40200001 0
0.17695476 0.11533688 0.31648111 191 108 127 -0.61949998 -0.2789 -0.73379999 0
0.16762103 0.11753801 0.32588029 185 184 189 -0.68919998 -0.4296 -0.58350003 0
0.1529876 0.124508 0.34837076 146 54 72 -0.79579997 -0.27810001 -0.53789997 0
0.14628118 0.12888677 0.3603923 250 250 250 -0.74000001 -0.1427 -0.6573 0
0.13491958 0.13189548 0.37338978 151 151 153 -0.8344 -0.28870001 -0.46959999 0
0.12689437 0.13653503 0.38728949 101 103 104 -0.86610001 -0.27320001 -0.41850001 0
0.12079217 0.14370792 0.40851954 168 167 172 -0.92989999 -0.070699997 -0.36090001 0
-1.0790888 0.54420602 1.7552305 229 231 235 0.5029 0.3459 -0.79210001 0
0.18651022 0.11371464 0.30891633 196 150 152 -0.5812 -0.1418 -0.80129999 0
0.17034666 0.11828636 0.32346925 211 208 212 -0.7942 -0.37540001 -0.4779 0
0.16086009 0.12045485 0.33369559 219 216 220 -0.82539999 -0.41980001 -0.3775 0
0.15378331 0.12383321 0.34427601 132 35 54 -0.64359999 -0.30340001 -0.7026 0
0.1368624 0.13162059 0.36911681 102 102 104 -0.65030003 -0.4337 -0.62370002 0
0.13068457 0.13734867 0.38310045 108 104 110 -0.76349998 -0.28709999 -0.57840002 0
0.12300054 0.14332955 0.40347546 169 168 171 -0.94199997 -0.071500003 -0.32800001 0
0.116829 0.15209344 0.43114167 193 194 198 -0.88679999 0.26530001 -0.37830001 0
0.18981069 0.11461303 0.30772686 187 87 105 -0.32390001 -0.1661 -0.9314 0
0.17949308 0.1158706 0.31483859 166 161 165 -0.55650002 -0.30610001 -0.77240002 0
0.17157066 0.11792459 0.32023755 194 120 131 -0.66710001 -0.48370001 -0.56660002 0
0.16292974 0.12067935 0.32978538 190 187 191 -0.66729999 -0.52450001 -0.52880001 0
0.14743978 0.12797187 0.35326657 218 215 219 -0.616 -0.66030002 -0.42950001 0
0.14073341 0.13266392 0.36810023 157 156 161 -0.68099999 -0.39660001 -0.61559999 0
-1.1147712 0.59101307 1.8459162 229 231 235 -0.1428 -0.70340002 -0.69630003 0
0.18173008 0.11628418 0.31363377 196 193 196 -0.48140001 -0.3123 -0.81900001 0
0.16519083 0.12094869 0.32783604 175 174 179 -0.57550001 -0.59609997 -0.55980003 0
0.1564835 0.12415303 0.33950004 201 198 201 -0.6103 -0.43810001 -0.66000003 0
0.13294227 0.13713123 0.38064995 112 109 115 -0.78710002 -0.18780001 -0.58749998 0
0.12380523 0.14152281 0.39555469 87 87 89 -0.9756 -0.056299999 -0.2121 0
0.11828852 0.15032858 0.42521906 183 185 187 -0.87660003 0.273 -0.3962 0
-1.0361277 0.61356461 1.9051459 231 233 237 -0.3576 -0.37850001 -0.85369998 0
0.18458426 0.11709535 0.31254455 155 152 156 -0.54329997 -0.36059999 -0.75819999 0
0.17469987 0.11862755 0.31862226 143 50 72 -0.6031 -0.51980001 -0.60509998 0
0.1684521 0.12185112 0.32696772 205 204 209 -0.52960002 -0.60640001 -0.59320003 0
0.15923637 0.12485233 0.33827817 202 199 202 -0.61510003 -0.62019998 -0.48679999 0
0.14296485 0.13240594 0.36367324 150 149 156 -0.69980001 -0.4048 -0.58850002 0
0.13497329 0.13667239 0.37526765 56 54 64 -0.88749999 -0.19140001 -0.41909999 0
-0.98768097 0.60346711 1.8872383 228 229 233 -0.0517 -0.13169999 -0.98989999 0
-1.0669218 0.59759879 1.8009433 230 232 236 -0.2353 -0.95590001 -0.17550001 0
0.17625 0.11866289 0.31607342 189 179 185 -0.4465 -0.56080002 -0.6972 0
0.1606396 0.12446234 0.33355463 215 212 215 -0.70709997 -0.5625 -0.42840001 0
0.15230811 0.12834974 0.34917414 124 108 111 -0.51560003 -0.5029 -0.69379997 0
0.12631756 0.14111672 0.38832191 171 171 173 -0.90240002 -0.2199 -0.3707 0
0.11889225 0.14766398 0.40852493 146 150 151 -0.89709997 0.0060999999 -0.44170001 0
-1.0116704 0.63468802 1.889027 231 233 237 -0.1016 0.1313 -0.98610002 0
-1.0684682 0.61513591 1.8899537 235 236 240 -0.0603 -0.065099999 -0.99610001 0
-1.13816 0.58819884 1.7384722 221 222 226 0 0 0 0
0.18517222 0.11671032 0.30807215 184 171 178 -0.3985 -0.52200001 -0.75410002 0
0.17910758 0.11932936 0.31441909 199 197 198 -0.3504 -0.64029998 -0.68349999 0
0.16937031 0.12136059 0.32202125 168 165 170 -0.53579998 -0.64469999 -0.54530001 0
0.15336005 0.12771161 0.34245345 173 88 103 -0.27419999 -0.62540001 -0.7306 0
0.13602357 0.13553482 0.36915743 64 61 67 -0.73089999 -0.31279999 -0.60659999 0
0.11618474 0.15672386 0.43231368 198 202 205 -0.86059999 0.28369999 -0.42289999 0
0.18661587 0.11677135 0.30630687 228 213 223 -0.089000002 -0.46630001 -0.88010001 0
0.17084025 0.12122027 0.31939101 168 135 143 -0.57630002 -0.64499998 -0.50190002 0
0.16191091 0.12404203 0.329503 119 116 122 -0.54070002 -0.65920001 -0.5226 0
0.14005563 0.13665919 0.36814651 120 117 125 -0.64569998 -0.39660001 -0.65249997 0
0.12715025 0.13935497 0.38027745 123 119 125 -0.70370001 -0.33579999 -0.6261 0
0.121676 0.14722209 0.40476137 167 169 171 -0.92540002 -0.075300001 -0.37149999 0
0.12020735 0.15775315 0.43117878 143 145 146 -0.85949999 0.26320001 -0.4382 0
-1.0473888 0.62035924 1.9261823 231 233 237 0.1305 0.32339999 -0.93720001 0
-1.0699067 0.57006341 1.7738487 227 228 232 -0.1064 0.81050003 -0.57609999 0
0.18038385 0.11931987 0.31267819 218 216 217 -0.3653 -0.65039998 -0.66589999 0
0.15369986 0.12670216 0.33700249 102 0 14 -0.27000001 -0.67989999 -0.68180001 0
0.1312519 0.1406481 0.37952736 109 109 113 -0.68989998 -0.38929999 -0.6103 0
0.1239915 0.14662662 0.39661214 133 135 141 -0.96780002 -0.1191 -0.2216 0
-1.0395652 0.6328913 1.9375737 232 234 238 0.46880001 0.1981 -0.86080003 0
-1.085572 0.59279168 1.8133937 230 232 236 -0.26949999 0.58539999 -0.76459998 0
0.17164582 0.12082276 0.31609291 140 62 79 -0.52819997 -0.72689998 -0.43880001 0
0.16220884 0.12322234 0.32636073 202 199 202 -0.43349999 -0.73570001 -0.52039999 0
0.1560795 0.12691976 0.33478406 171 144 156 -0.46450001 -0.8175 -0.34060001 0
0.14661728 0.13015047 0.34669349 255 255 255 -0.39669999 -0.78719997 -0.47209999 0
0.14093626 0.13551481 0.35945272 128 125 131 0.60360003 0.33379999 -0.72399998 0
0.13439277 0.14079618 0.37558627 116 116 118 -0.84280002 -0.36880001 -0.3919 0
0.12064542 0.15493099 0.4191128 134 133 136 -0.8495 0.31580001 -0.42250001 0
-0.98229551 0.61666214 1.8635077 232 234 238 -0.76529998 0.00030000001 -0.64359999 0
0.18107779 0.1190415 0.30870438 205 199 203 -0.43439999 -0.75870001 -0.48550001 0
0.16371037 0.12297375 0.32102999 213 213 215 -0.42879999 -0.78399998 -0.4488 0
0.12586023 0.14569999 0.38852233 96 98 100 -0.93699998 -0.1796 -0.29949999 0
0.18329477 0.11933269 0.30728811 193 186 191 -0.2264 -0.75099999 -0.62029999 0
0.17294002 0.12063903 0.31248704 191 102 118 -0.36919999 -0.79890001 -0.47490001 0
0.16586119 0.12325224 0.31948063 223 223 226 -0.44479999 -0.79839998 -0.40580001 0
0.15714103 0.12623608 0.32994702 191 189 192 -0.54860002 -0.79659998 -0.25369999 0
0.14005211 0.13318788 0.35196394 106 105 110 -0.68809998 -0.38780001 -0.61330003 0
0.13531886 0.13956891 0.3684307 126 125 128 -0.75690001 -0.36559999 -0.54170001 0
0.12162536 0.15265286 0.40672249 155 154 157 -0.90960002 0.1331 -0.3935 0
-0.97531539 0.64782625 1.8920709 236 237 241 0.1674 -0.25 -0.95370001 0
0.17644328 0.12176669 0.31193319 172 101 123 -0.27599999 -0.84100002 -0.46529999 0
0.15939026 0.12640704 0.32605511 172 169 172 -0.4619 -0.82550001 -0.32429999 0
0.14875191 0.12889285 0.33631444 141 129 133 -0.3161 -0.59619999 -0.73799998 0
0.14330161 0.13375585 0.34733757 255 255 255 -0.6006 -0.72109997 -0.34529999 0
0.1265384 0.14386709 0.38030761 140 140 138 -0.68169999 -0.42070001 -0.59859997 0
0.11983498 0.16348688 0.43386665 196 195 200 -0.75080001 0.1759 -0.63669997 0
0.18446802 0.11923905 0.30479226 219 207 211 0.2534 -0.51120001 -0.82120001 0
0.17772399 0.12176247 0.30938011 222 215 218 -0.34099999 -0.83499998 -0.43189999 0
