ply
format ascii 1.0
comment PCL generated
element vertex 600
property float x
property float y
property float z
property uchar red
property uchar green
property uchar blue
property float nx
property float ny
property float nz
property float curvature
element camera 0
property float view_px
property float view_py
property float view_pz
property float x_axisx
property float x_axisy
property float x_axisz
property float y_axisx
property float y_axisy
property float y_axisz
property float z_axisx
property float z_axisy
property float z_axisz
property float focal
property float scalex
property float scaley
property float centerx
property float centery
property int viewportx
property int viewporty
property float k1
property float k2
end_header
0.10813687 0.0090796445 0.31858727 196 165 148 0.3601 -0.19589999 -0.91210002 0
0.088615194 0.010951004 0.31572971 255 243 224 -0.1603 -0.3348 -0.92860001 0
0.073599122 0.012306914 0.31773072 255 227 209 -0.0427 -0.32789999 -0.94379997 0
0.058393851 0.01371518 0.31904423 217 179 172 -0.18179999 -0.38479999 -0.90490001 0
0.023483781 0.01786066 0.31303737 255 255 240 -0.2175 -0.74669999 -0.62849998 0
-0.0087796887 0.020428661 0.31798184 207 172 161 0.47780001 -0.1603 -0.86369997 0
-0.05770861 0.025857083 0.31872037 231 204 191 -0.32480001 0.087800004 -0.94169998 0
-0.077865295 0.025670383 0.33055878 148 140 136 -0.060899999 -0.4639 -0.88380003 0
-1.0527833 -0.064475186 1.793789 228 230 229 -0.1145 0.463 -0.87889999 0
-1.1240575 -0.0485604 1.7103534 227 229 230 0.3599 -0.2177 -0.9073 0
-1.2118126 -0.033637773 1.6566899 224 226 228 0.27700001 0.95389998 -0.1159 0
0.18767972 0.0058099837 0.28103018 117 84 90 -0.4571 -0.37549999 -0.80620003 0
0.092154056 0.011503785 0.31574699 252 209 192 -0.1112 -0.3382 -0.93449998 0
0.077416949 0.012688416 0.31821677 253 219 203 -0.12630001 -0.3044 -0.94410002 0
0.062233705 0.01460475 0.31658062 233 191 180 -0.047200002 -0.34459999 -0.93760002 0
0.038584985 0.018213371 0.30369106 255 239 224 0.043000001 -0.64130002 -0.76609999 0
0.011198471 0.019174965 0.31849667 216 181 158 -0.37720001 -0.65079999 -0.65890002 0
-0.005221975 0.020223161 0.32157147 215 183 169 0.074600004 -0.22830001 -0.97070003 0
-0.024085026 0.023288878 0.31319779 255 230 211 -0.2172 -0.1196 -0.96880001 0
-0.040744733 0.024562158 0.31604853 255 241 223 -0.2482 -0.025900001 -0.9684 0
-0.073338926 0.026281171 0.33003721 134 123 118 -0.1188 -0.52789998 -0.84100002 0
-0.09233132 0.027519353 0.33529454 137 133 132 -0.61470002 0.3881 -0.68660003 0
-1.0917337 -0.049558055 1.740344 235 237 238 0.114 -0.4932 -0.8624 0
-1.2058086 -0.015936859 1.5501484 0 0 0 0.48429999 0.6473 -0.58850002 0
0.19459736 0.0069728992 0.27301958 171 166 168 -0.57160002 -0.3096 -0.75989997 0
0.17715591 0.0072424673 0.28684038 146 143 146 -0.31439999 0.1207 -0.94160002 0
0.16157576 0.0040892689 0.32244498 25 27 61 -0.39480001 -0.088 -0.9145 0
0.14750111 0.00219283 0.34966096 229 193 175 -0.3536 -0.26390001 -0.89740002 0
0.13070656 0.0048893867 0.34426495 141 94 76 0.73470002 -0.25799999 -0.62739998 0
0.11233354 0.0091446294 0.32073942 188 152 136 0.46450001 -0.1811 -0.86680001 0
0.095618829 0.012346664 0.31474954 254 214 191 -0.034299999 -0.31380001 -0.94889998 0
0.080900021 0.013400304 0.31785327 255 221 200 -0.26890001 -0.25319999 -0.92930001 0
0.046716232 0.016780755 0.31449562 179 132 127 0.7414 -0.2529 -0.62159997 0
0.042462811 0.018496977 0.30475357 222 185 172 0.51810002 -0.4427 -0.73180002 0
0.027277265 0.019288156 0.3100726 255 255 231 -0.40020001 -0.72189999 -0.56459999 0
-0.00091365835 0.021030745 0.3201426 237 204 188 -0.38589999 -0.1973 -0.9012 0
-0.020211611 0.023939572 0.31234276 253 217 200 0.040399998 -0.1025 -0.9939 0
-0.036780167 0.025206642 0.31525671 255 228 212 -0.2106 -0.0088999998 -0.97750002 0
-0.05361858 0.026505068 0.31848422 255 233 218 -0.25619999 0.064199999 -0.96450001 0
-0.10430254 0.029201442 0.3420192 69 71 77 -0.28459999 0.51779997 -0.80680001 0
-1.0293978 -0.064818501 1.8290042 231 234 233 0.48500001 -0.2016 -0.85100001 0
-1.0674386 -0.046669543 1.7349435 235 237 238 -0.051199999 -0.4217 -0.90530002 0
-1.0433919 -0.029096669 1.5860674 225 227 229 -0.33989999 -0.71810001 -0.60729998 0
0.18553849 0.008474784 0.27544627 167 164 165 -0.51349998 -0.39210001 -0.7633 0
0.16524117 0.0047156462 0.3213461 22 22 54 -0.3087 0.038600001 -0.95039999 0
0.15113527 0.004883396 0.33207035 255 255 244 -0.55540001 0.0012000001 -0.83160001 0
0.15170966 0.0026199888 0.34983525 255 243 223 -0.47369999 -0.25310001 -0.84350002 0
0.13608791 0.0039371219 0.35229194 181 137 118 0.35280001 -0.2383 -0.9048 0
0.12138806 0.0083677387 0.32930514 163 115 102 0.76099998 -0.1371 -0.634 0
0.11617489 0.0093042813 0.32261401 177 136 120 0.56629997 -0.15090001 -0.81029999 0
0.066085964 0.014980141 0.3174693 201 145 127 0.0418 -0.3098 -0.94989997 0
0.050163504 0.016880533 0.31715989 186 141 138 0.4589 -0.2395 -0.8556 0
0.031015527 0.020819077 0.30412415 255 255 233 -0.4066 -0.65560001 -0.63630003 0
0.015474484 0.020704502 0.31295988 255 253 234 -0.308 -0.60750002 -0.73220003 0
-0.016565235 0.024073901 0.31417185 231 194 184 0.33770001 -0.0317 -0.94069999 0
-0.032480925 0.025973329 0.31414199 255 224 205 -0.20460001 -0.034899998 -0.97820002 0
-0.04965036 0.027015854 0.31829605 255 238 220 -0.27200001 0.0178 -0.96210003 0
-1.0293194 -0.064990357 1.8594174 227 229 230 0.63139999 -0.21879999 -0.7439 0
-1.0841581 -0.028039545 1.6241051 229 231 232 -0.36970001 -0.1295 -0.92009997 0
-1.1444706 -0.013347736 1.5306703 230 232 234 -0.1441 0.4129 -0.89929998 0
0.1889952 0.0088195885 0.27500156 136 131 135 -0.53759998 -0.41839999 -0.73199999 0
0.17188792 0.0090645449 0.2879481 102 98 108 -0.1749 -0.041900001 -0.98369998 0
0.17606622 0.0053354939 0.31193563 24 24 47 -0.8696 0.1005 -0.48339999 0
0.16879821 0.0052814726 0.32100841 20 19 52 -0.31290001 0.001 -0.94980001 0
0.1550357 0.0062676538 0.32411796 18 16 57 -0.41819999 -0.073299997 -0.90539998 0
0.15513574 0.0034987978 0.34854886 255 255 238 -0.69779998 -0.1868 -0.69150001 0
0.09959694 0.012637981 0.31507021 227 191 176 0.1167 -0.2474 -0.9619 0
0.084538192 0.014120995 0.31645986 255 238 225 -0.30379999 -0.2093 -0.92949998 0
0.069325477 0.015547 0.31767201 239 201 198 0.0176 -0.2234 -0.97460002 0
0.054033127 0.017402839 0.31809986 173 138 130 -0.0221 -0.32089999 -0.94690001 0
0.019293543 0.021822935 0.31035098 255 251 226 -0.2367 -0.6117 -0.75489998 0
0.0034102728 0.022641441 0.31748071 200 195 187 -0.32370001 -0.34639999 -0.88050002 0
-0.012806414 0.024259349 0.3158541 214 179 168 0.41249999 -0.049800001 -0.90960002 0
-0.02865693 0.02635904 0.31439027 255 240 224 -0.26980001 -0.0581 -0.9612 0
-0.045449305 0.027788917 0.31714588 255 247 232 -0.2911 -0.0233 -0.95639998 0
-0.062946692 0.028866893 0.32179916 196 175 164 -0.38640001 0.1786 -0.90490001 0
-0.081656851 0.029858293 0.32759136 152 144 135 -0.35550001 -0.1189 -0.9271 0
-1.0175755 -0.064242825 1.8827981 233 232 235 0.69760001 -0.1848 -0.69220001 0
-1.0387506 -0.042491172 1.73566 228 230 229 0.1224 -0.33989999 -0.9325 0
-1.0257369 -0.043614123 1.7174772 228 230 229 0.1503 -0.2245 -0.96280003 0
-1.0884173 -0.029535009 1.6724787 229 231 232 0.48230001 0.1194 -0.8678 0
-1.1028532 -0.012192175 1.5337976 227 229 230 -0.1028 0.51349998 -0.85189998 0
0.1819361 0.0094846739 0.27950656 126 123 129 -0.30329999 -0.34720001 -0.88739997 0
0.17690408 0.0088431276 0.28933647 168 167 170 -0.23540001 0.089400001 -0.96780002 0
0.15854527 0.0068382137 0.32408321 18 21 45 -0.33849999 -0.0049999999 -0.94099998 0
0.13933088 0.0048545385 0.35172585 196 158 141 -0.012 -0.30739999 -0.9515 0
0.10335878 0.012974602 0.31587201 203 167 152 0.2633 -0.164 -0.95069999 0
0.088040814 0.014865323 0.31532043 255 237 224 -0.22660001 -0.2054 -0.95209998 0
0.073263898 0.016132893 0.31734657 255 217 210 -0.0196 -0.1815 -0.98320001 0
0.057739064 0.018066525 0.31670415 181 140 140 -0.18529999 -0.2965 -0.93690002 0
0.034624316 0.021602439 0.30247068 255 255 255 -0.266 -0.583 -0.76770002 0
0.023117773 0.022333374 0.30984583 255 255 255 -0.36219999 -0.5927 -0.71939999 0
0.0071004932 0.022857074 0.31649399 248 210 187 -0.3423 -0.47659999 -0.80970001 0
-0.0092033595 0.024363413 0.31813779 206 170 157 0.39649999 -0.077600002 -0.91469997 0
-0.058735374 0.029666686 0.32032973 207 187 171 -0.3811 0.1552 -0.91140002 0
-0.076660641 0.030769041 0.32591602 129 118 115 -0.1763 -0.30469999 -0.93599999 0
-1.0838138 -0.029108461 1.6990354 229 231 232 0.2183 -0.3545 -0.90920001 0
-1.1119655 -0.013169422 1.5818963 230 232 234 -0.19 0.3739 -0.90780002 0
0.1907675 0.0097576678 0.27371979 151 141 142 -0.51700002 -0.4621 -0.72049999 0
0.18460312 0.010203288 0.27828139 163 161 164 -0.1079 -0.28780001 -0.95160002 0
0.1804869 0.0091865761 0.28948602 101 98 101 -0.35409999 0.2976 -0.88660002 0
0.17169215 0.006109654 0.32014138 16 20 50 -0.64899999 -0.0145 -0.76059997 0
0.14303386 0.0055790045 0.35095578 207 168 154 -0.29890001 -0.2142 -0.92989999 0
0.10745826 0.013095556 0.31758431 151 113 94 0.35589999 -0.1163 -0.92729998 0
0.091562353 0.015512741 0.3146725 255 213 198 -0.1486 -0.16329999 -0.97530001 0
0.07680092 0.016634097 0.31791425 233 197 182 -0.1077 -0.1558 -0.98189998 0
0.038219556 0.022405991 0.30104709 255 252 234 0.0142 -0.5273 -0.84960002 0
-0.0054690326 0.02452988 0.31970662 219 185 171 0.1375 -0.065099999 -0.98839998 0
-0.024596814 0.027173551 0.31316811 255 243 224 -0.2427 -0.075800002 -0.96710002 0
-0.041239738 0.028483057 0.31608832 255 250 233 -0.25150001 0 -0.96789998 0
-1.031001 -0.042276576 1.7787648 228 230 229 -0.093199998 0.043099999 -0.99470001 0
-1.1044096 -0.012517761 1.6012822 227 229 230 -0.050799999 -0.1034 -0.99330002 0
0.19308522 0.010662551 0.27159512 99 91 98 -0.47870001 -0.50440001 -0.71859998 0
0.17461687 0.0070548626 0.31802201 35 40 77 -0.84310001 -0.063900001 -0.53390002 0
0.16101901 0.0077518686 0.32392272 18 17 47 -0.37259999 0.0295 -0.92750001 0
0.15389939 0.0073235366 0.33517876 255 255 244 0.77490002 -0.2199 -0.59249997 0
0.14699295 0.0062641925 0.3498466 230 193 180 -0.33419999 -0.1978 -0.92150003 0
0.11173587 0.01296757 0.32052109 195 164 147 0.43040001 -0.045600001 -0.90149999 0
0.095154092 0.01607028 0.31460318 252 209 192 -0.070900001 -0.1472 -0.98659998 0
0.080678187 0.01703361 0.31802374 255 230 218 -0.2492 -0.1398 -0.95829999 0
0.061216872 0.018973257 0.31537214 215 169 159 -0.094800003 -0.2321 -0.96810001 0
0.041721266 0.022846874 0.30191204 241 207 193 0.45109999 -0.43130001 -0.78130001 0
0.026963893 0.023838574 0.3049632 255 255 238 -0.49599999 -0.4465 -0.74470001 0
0.01132427 0.024219979 0.31230578 255 255 255 -0.3678 -0.43439999 -0.8222 0
-0.0015454238 0.025070403 0.32025051 250 219 200 -0.15629999 0.0118 -0.98760003 0
-0.020563766 0.027746895 0.31254074 249 214 194 0.039900001 -0.0306 -0.99870002 0
-0.037190195 0.028983556 0.31605411 255 238 223 -0.19509999 0.036400001 -0.98009998 0
-0.054262474 0.030328631 0.31933498 224 199 185 -0.31040001 0.1075 -0.94450003 0
-0.071754895 0.031473711 0.32446679 117 111 104 -0.1631 -0.3019 -0.9393 0
-0.088628791 0.032173567 0.33572266 114 108 105 -0.64969999 0.30230001 -0.69749999 0
-1.0382546 -0.041491047 1.8100853 229 231 232 0.69389999 0.2049 -0.69029999 0
-1.0745907 -0.023775803 1.7145405 227 229 230 -0.134 -0.1106 -0.98479998 0
-1.0255998 -0.028960386 1.7087902 231 234 233 -0.047200002 -0.38820001 -0.92030001 0
-1.0766412 -0.0106203 1.5965512 228 230 231 -0.1521 -0.45820001 -0.87580001 0
-1.1517947 -0.0030008217 1.5825465 223 225 227 -0.51550001 0.50709999 -0.69069999 0
0.18617825 0.011319227 0.2762157 96 91 95 -0.4445 -0.18880001 -0.8757 0
0.16486958 0.0082881572 0.3230193 22 22 54 -0.29120001 0.098300003 -0.95160002 0
0.15046312 0.0070355665 0.34923866 248 210 189 -0.50700003 -0.17290001 -0.84439999 0
0.13530318 0.0082727857 0.35169363 164 117 99 0.4061 -0.041299999 -0.91289997 0
0.12798356 0.010446372 0.33922806 180 137 122 0.80729997 -0.048900001 -0.58810002 0
0.12091109 0.012483818 0.32747695 158 113 96 0.704 0.0232 -0.7098 0
0.11592816 0.013127414 0.32173046 177 136 124 0.57239997 -0.017999999 -0.81980002 0
0.065259352 0.019106207 0.31633949 210 167 154 0.036499999 -0.1582 -0.9867 0
0.04978729 0.020803956 0.31629461 195 156 146 0.53390002 -0.22490001 -0.81510001 0
0.045707848 0.022161832 0.30780521 205 169 156 0.78750002 -0.2956 -0.54079998 0
0.015210917 0.024959356 0.31069982 255 255 238 -0.3788 -0.384 -0.84200001 0
-0.016846566 0.028012859 0.31398296 235 199 186 0.29190001 0.0559 -0.95480001 0
-0.033268254 0.029527327 0.3157877 255 245 228 -0.25740001 -0.0023000001 -0.96630001 0
-0.050109722 0.030939652 0.31868586 255 233 220 -0.3055 0.064800002 -0.94999999 0
-0.067828648 0.031872652 0.32468006 122 111 108 -0.38749999 -0.018300001 -0.9217 0
-1.0255325 -0.041881941 1.8441944 228 230 231 0.54000002 0.035500001 -0.8409 0
-1.1127841 -0.01041986 1.6561478 225 227 229 0.40599999 0.25350001 -0.87800002 0
-1.0902925 0.00045222312 1.5491589 227 229 230 -0.37020001 0.51779997 -0.7712 0
0.18919832 0.011826141 0.27569419 111 108 111 -0.20720001 0.040800001 -0.97750002 0
0.17599675 0.0087644979 0.3130171 44 45 81 -0.79680002 -0.050900001 -0.60210001 0
0.16863789 0.0087600909 0.32288691 36 36 68 -0.3565 -0.0625 -0.93220001 0
0.15497588 0.0097872168 0.32555857 59 62 97 -0.56300002 -0.0136 -0.82630002 0
0.13921821 0.0087729199 0.35226217 199 160 144 0.012 -0.1125 -0.99360001 0
0.098813683 0.016540684 0.31480265 238 200 183 0.0898 -0.1011 -0.99080002 0
0.083893456 0.01803844 0.3159956 255 241 227 -0.2441 -0.105 -0.9641 0
0.068632543 0.01969382 0.31669721 109 29 33 0.054499999 -0.1026 -0.9932 0
0.053820677 0.02109208 0.31775227 140 97 91 0.20379999 -0.222 -0.95349997 0
0.030579695 0.024762284 0.30302042 255 255 255 -0.49680001 -0.4095 -0.76520002 0
0.018994376 0.02575261 0.30935439 255 255 255 -0.37369999 -0.28529999 -0.88260001 0
-0.013196558 0.028228212 0.31578827 227 191 178 0.3768 0.0625 -0.9242 0
-0.02930264 0.030082967 0.31494898 255 234 214 -0.30680001 -0.0015 -0.95179999 0
-0.063964836 0.032578297 0.32365647 185 169 154 -0.41350001 0.1622 -0.89590001 0
-1.0205005 -0.042029537 1.8808714 230 232 234 0.2378 -0.25319999 -0.93769997 0
-1.0105176 -0.02411676 1.714623 227 229 228 0.18700001 -0.073700003 -0.97960001 0
-1.0772625 -0.01067324 1.6712258 225 227 229 -0.043400001 -0.2419 -0.96929997 0
-1.1168476 0.0036169267 1.5663126 222 224 226 -0.119 0.64789999 -0.75230002 0
0.17738193 0.011762287 0.29148951 151 145 152 -0.15629999 0.46880001 -0.86940002 0
0.17885271 0.0094165951 0.31278405 67 73 105 -0.5521 0.1329 -0.82309997 0
0.15862843 0.010346402 0.32518247 41 42 74 -0.32139999 0.097499996 -0.94190001 0
0.15405165 0.0078790849 0.34761271 255 235 218 -0.6286 -0.20479999 -0.75019997 0
0.10251205 0.016933862 0.31552655 194 154 136 0.2304 -0.0381 -0.97240001 0
0.087387383 0.018720737 0.31537992 252 208 187 -0.2454 -0.0108 -0.96929997 0
0.072924159 0.019821376 0.31794441 249 202 184 -0.023800001 -0.1322 -0.99089998 0
0.057353809 0.021699149 0.31747612 158 118 111 -0.095200002 -0.14040001 -0.98549998 0
0.034211431 0.025694547 0.30083674 255 255 255 -0.3646 -0.30090001 -0.88120002 0
-0.0095133726 0.028395187 0.31779513 226 191 180 0.33950001 0.0425 -0.93959999 0
-0.045958232 0.031628475 0.31793463 255 251 236 -0.31920001 0.0197 -0.94749999 0
-0.077462532 0.034736458 0.32560489 117 109 103 -0.2807 0.2027 -0.9382 0
-0.079868719 0.03440576 0.32790509 143 137 132 -0.4357 0.1647 -0.88489997 0
-1.0111176 -0.022252539 1.731712 221 223 222 0.19769999 -0.1346 -0.97100002 0
-1.0961894 -0.0077308798 1.690665 228 230 231 0.55970001 -0.047600001 -0.82730001 0
-1.0959946 0.0050153681 1.5714458 220 222 223 0.1098 0.63999999 -0.76050001 0
0.18943968 0.013508589 0.27153215 151 148 151 -0.59119999 -0.3515 -0.72589999 0
0.18670714 0.012407536 0.28184116 30 32 33 -0.2676 0.6487 -0.71249998 0
0.17084588 0.0099823968 0.32011685 40 43 83 -0.6081 -0.1147 -0.78549999 0
0.16163778 0.011077655 0.32470682 52 52 77 -0.36970001 0.050799999 -0.92769998 0
0.14321639 0.0093587898 0.35192966 199 160 144 -0.29679999 -0.082500003 -0.95139998 0
0.10678744 0.016955361 0.31764421 188 155 139 0.3691 -0.0156 -0.92919999 0
0.090914689 0.019379836 0.31443739 253 212 194 -0.193 0.048799999 -0.98000002 0
0.076813608 0.020093158 0.31879425 219 188 185 -0.1203 -0.12720001 -0.98460001 0
0.022787016 0.02663474 0.30723715 255 255 248 -0.50690001 -0.18529999 -0.84189999 0
0.0064389086 0.027908577 0.31451058 255 223 202 -0.60420001 0.078000002 -0.79299998 0
-0.0057338146 0.028633878 0.31916606 241 207 193 0.2247 0.049400002 -0.97320002 0
-0.025090115 0.031022739 0.31337652 255 233 217 -0.2383 0.0151 -0.97109997 0
-0.041673757 0.032327149 0.3164911 255 240 224 -0.26359999 0.0209 -0.96439999 0
-0.059354577 0.033373315 0.32199743 218 196 178 -0.44769999 0.1146 -0.88679999 0
-1.0326989 -0.022346953 1.7880546 229 231 232 0.41639999 0.67900002 -0.60460001 0
-1.1145318 0.0076844562 1.5935165 218 220 222 -0.044799998 0.0176 -0.99879998 0
0.19001095 0.012951664 0.28056359 118 115 120 -0.33860001 0.3019 -0.89120001 0
0.17461628 0.010595052 0.31855342 88 90 133 -0.72909999 -0.1939 -0.65640002 0
0.14680415 0.010154685 0.35081759 227 188 174 -0.34299999 -0.090499997 -0.935 0
0.11092802 0.01702329 0.31961703 189 160 142 0.4411 0.024599999 -0.89709997 0
0.06090961 0.022539657 0.3160412 201 156 151 -0.1001 -0.0264 -0.9946 0
0.037647657 0.026569 0.29931122 255 240 223 -0.14229999 -0.2379 -0.96079999 0
0.026549214 0.027546814 0.30511174 255 255 239 -0.55629998 -0.1005 -0.82489997 0
0.010700833 0.02807465 0.31256455 255 252 236 -0.55610001 0.034200002 -0.83039999 0
-0.0019378816 0.028962905 0.32011157 252 220 206 0.1649 0.086900003 -0.98250002 0
-0.021012636 0.031537902 0.31316394 255 223 207 0.0425 0.084700003 -0.99550003 0
-0.037718959 0.032801837 0.31663615 255 233 220 -0.1714 0.043499999 -0.9842 0
-0.054869514 0.034088302 0.3209832 253 228 216 -0.36860001 0.089599997 -0.92519999 0
-0.072129525 0.0356571 0.3242051 134 128 125 -0.26660001 0.229 -0.93620002 0
-0.95057023 -0.038552139 1.9150332 229 231 232 0 0 0 0
-1.0404748 -0.021755958 1.8238258 229 231 232 0.52670002 0.35960001 -0.77020001 0
-1.0913241 -0.0024388968 1.7137634 223 225 227 0.0898 -0.1279 -0.98769999 0
-1.0693908 -0.0065311743 1.7006493 228 230 231 0.31709999 -0.2387 -0.91790003 0
-1.1335402 0.0083728526 1.6377029 224 226 228 0.4111 0.1982 -0.88980001 0
0.19084018 0.01448507 0.27054071 145 140 144 -0.48159999 -0.5499 -0.68239999 0
0.16391927 0.01201889 0.32408184 29 30 57 -0.29719999 0.020500001 -0.95459998 0
0.15068488 0.0122875 0.33309081 255 219 202 -0.13590001 -0.13680001 -0.98119998 0
0.15007183 0.011054082 0.34944761 246 210 195 -0.50279999 -0.061299998 -0.86220002 0
0.13470772 0.012541151 0.3507219 133 81 62 0.49430001 0.050900001 -0.8678 0
0.12101653 0.016073463 0.32837653 158 118 102 0.72320002 0.1672 -0.67009997 0
0.11510319 0.017178191 0.32108083 178 143 125 0.5618 0.1265 -0.8175 0
0.094572417 0.01985612 0.31456134 255 220 200 -0.124 0.070200004 -0.98979998 0
0.080091156 0.021051247 0.31698164 232 190 181 -0.18099999 -0.1045 -0.97790003 0
0.064580873 0.022937745 0.31645316 242 200 192 0.022 0.067299999 -0.9975 0
0.041393708 0.026795853 0.30005839 249 214 203 0.38119999 -0.2428 -0.89200002 0
0.014756195 0.028615039 0.31130925 255 255 237 -0.42789999 0.20919999 -0.8793 0
0.0021745272 0.028875696 0.32187805 255 242 225 -0.34310001 0.1795 -0.92199999 0
-0.017500637 0.031743437 0.31468493 243 209 195 0.23630001 0.15459999 -0.95929998 0
-0.033783168 0.033373229 0.31637719 255 240 224 -0.25870001 0.0096000005 -0.9659 0
-0.050626639 0.034766071 0.31970376 255 245 229 -0.3283 0.07 -0.94199997 0
-0.068698674 0.035747126 0.32628059 148 136 128 -0.403 0.1877 -0.89569998 0
-0.085462324 0.036658887 0.33540845 99 97 98 -0.37709999 0.2577 -0.88959998 0
-0.40264878 -0.027585726 1.2754472 140 144 149 0 0 0 0
-1.0456787 -0.020871192 1.8652912 229 229 231 0.49649999 0.098999999 -0.8624 0
-1.11212 0.0089013996 1.657688 227 229 230 0.1242 0.1226 -0.98470002 0
-1.1867666 0.018868865 1.6106716 224 226 228 -0.1042 0.4601 -0.88169998 0
0.18826269 0.015166036 0.27582362 95 82 93 -0.48519999 0.30899999 -0.81800002 0
0.17516534 0.012403001 0.31412572 70 77 113 -0.6473 -0.19840001 -0.736 0
0.1546295 0.013479374 0.32638967 94 104 137 -0.38080001 -0.0548 -0.92299998 0
0.1256976 0.01524959 0.33699617 170 134 117 0.81199998 0.1515 -0.5636 0
0.098346829 0.020276669 0.31476346 245 209 193 0.0414 0.074100003 -0.9964 0
0.083713993 0.021606131 0.31685352 255 252 239 -0.16150001 -0.034600001 -0.98629999 0
0.068617329 0.023340607 0.3171373 140 52 61 0.070699997 0.057599999 -0.99580002 0
0.053127579 0.025250774 0.31639072 191 154 146 0.29980001 -0.035999998 -0.9533 0
0.048609674 0.025627567 0.31264603 171 130 119 0.73110002 -0.0285 -0.68169999 0
0.044959668 0.026894815 0.30288857 200 160 151 0.72259998 -0.051199999 -0.6893 0
0.030145487 0.028459903 0.30300146 255 251 235 -0.54979998 0.033199999 -0.83459997 0
0.018587917 0.0294377 0.31002447 255 251 233 -0.48980001 0.1956 -0.84960002 0
-0.013639399 0.031922664 0.31671995 223 191 179 0.34549999 0.1498 -0.92640001 0
-0.046782035 0.035392124 0.31890839 255 255 240 -0.3188 0.062399998 -0.94580001 0
-0.064864054 0.036268912 0.32589296 135 118 110 -0.42539999 0.13510001 -0.89490002 0
-0.9903388 -0.020337537 1.8558078 228 230 231 0.098399997 0.1762 -0.97939998 0
-1.0655513 -0.0035744731 1.7479976 230 232 234 0.3186 0.75800002 -0.56910002 0
-1.1062229 0.010796374 1.6747937 227 229 230 0.0016 -0.050000001 -0.99870002 0
-1.1634818 0.023863208 1.5837444 225 227 229 -0.37169999 0.3123 -0.8743 0
0.17600903 0.015175619 0.29373717 167 158 159 -0.56550002 -0.1182 -0.81620002 0
0.17960465 0.012820157 0.31251499 79 75 99 -0.55430001 0.1059 -0.82560003 0
0.1691238 0.012127559 0.32428992 29 31 62 -0.42609999 -0.059 -0.90280002 0
0.15923403 0.013750249 0.32614511 36 36 68 -0.2577 0.1451 -0.95529997 0
0.15359116 0.01186284 0.34817287 255 221 201 -0.69 -0.20389999 -0.69450003 0
0.13845167 0.012952363 0.35259563 198 158 139 0.078699999 0.062100001 -0.995 0
0.10204555 0.020712148 0.31529459 216 183 167 0.2042 0.079400003 -0.97570002 0
0.087430105 0.022097686 0.31687999 255 236 219 -0.2254 0.076200001 -0.97130001 0
0.072442912 0.023617353 0.3182916 255 219 205 -0.041299999 -0.0031999999 -0.99910003 0
0.056938242 0.025506195 0.31754139 183 146 136 -0.030200001 0.012 -0.99949998 0
0.0336877 0.029260874 0.3014012 255 250 234 -0.49090001 0.049400002 -0.86979997 0
0.0060496838 0.030076806 0.31954136 255 232 212 -0.6239 0.28389999 -0.7281 0
-0.010134213 0.032024838 0.31853408 225 190 179 0.32780001 0.15889999 -0.93129998 0
-0.029527757 0.034214668 0.3145681 255 255 238 -0.32190001 0.0233 -0.9465 0
-0.078174718 0.038333077 0.32980683 120 119 115 -0.2879 0.4127 -0.8642 0
-0.47991866 -0.029503321 1.4549687 66 73 82 0 0 0 0
-1.0723011 -0.0031147017 1.7885865 232 234 236 0.56370002 0.39789999 -0.7238 0
-1.1230508 0.023924485 1.5880502 229 231 232 0.1267 0.1321 -0.9831 0
0.18548541 0.015359972 0.28713626 91 79 81 -0.0178 0.55839998 -0.8294 0
0.16917486 0.014074503 0.31971982 41 42 74 -0.58029997 -0.1767 -0.79500002 0
0.16052532 0.015206214 0.3233476 21 21 49 -0.3608 -0.1027 -0.92699999 0
0.14212465 0.013669229 0.35168111 208 168 152 -0.28749999 0.0119 -0.95770001 0
0.10630628 0.020715261 0.31763104 177 141 124 0.35350001 0.1097 -0.92900002 0
0.09132044 0.022497611 0.31702617 255 219 208 -0.2027 0.1258 -0.97109997 0
0.037203819 0.030115871 0.29954708 255 224 216 -0.2094 0.1408 -0.96759999 0
0.022304887 0.030262327 0.30808359 255 239 220 -0.53939998 0.2322 -0.80940002 0
0.010204803 0.031163407 0.31610188 248 210 191 -0.56040001 0.4443 -0.699 0
-0.0063550794 0.032354839 0.31979129 218 183 170 0.2956 0.2286 -0.92750001 0
-0.025567954 0.034764849 0.31401637 255 227 209 -0.2369 0.060800001 -0.96960002 0
-0.042237654 0.036141776 0.31759214 255 251 234 -0.26679999 0.069200002 -0.9612 0
-0.060009375 0.037186291 0.32288131 212 189 176 -0.45230001 0.093500003 -0.88690001 0
-0.075217061 0.038376339 0.33142787 135 129 126 -0.4138 0.4614 -0.78479999 0
-1.0612051 -0.0017221952 1.8079911 232 234 236 0.63669997 0.45050001 -0.62580001 0
-1.0577407 0.012772179 1.654205 225 227 229 -0.2387 -0.18709999 -0.95289999 0
-1.1049663 0.025366684 1.5955082 227 229 230 0.24699999 0.1961 -0.949 0
0.17350969 0.014574714 0.31777704 65 75 95 -0.68800002 -0.2577 -0.6785 0
0.15470463 0.014385568 0.33766618 255 228 217 0.80849999 -0.079499997 -0.58310002 0
0.14582551 0.014376207 0.35084009 223 184 170 -0.3725 0.0044 -0.92799997 0
0.11046558 0.020770613 0.32004777 189 158 141 0.45570001 0.1338 -0.88 0
0.075572334 0.024551464 0.31674519 211 172 163 -0.1644 -0.0101 -0.98640001 0
0.060612176 0.026048938 0.31762075 182 140 129 -0.084700003 0.1084 -0.99049997 0
0.026091229 0.030935541 0.30692294 255 234 216 -0.54170001 0.28780001 -0.78979999 0
-0.002496839 0.032789588 0.32078075 218 183 170 0.2123 0.27289999 -0.93830001 0
-0.021644076 0.035132557 0.31470391 249 216 197 0.031599998 0.1113 -0.99330002 0
-0.038146637 0.036728252 0.31689611 255 237 222 -0.19679999 0.0823 -0.977 0
-0.055495143 0.038015656 0.32129005 244 216 205 -0.4039 0.092500001 -0.91009998 0
-0.45361745 -0.017307477 1.3553615 64 74 84 0 0 0 0
-1.0462034 -0.0011870576 1.8393168 228 230 231 0.68049997 0.41769999 -0.602 0
-1.0269755 0.0137176 1.6571895 225 227 229 -0.2446 0.1655 -0.95539999 0
0.17661455 0.016755575 0.29633516 64 57 59 -0.60579997 -0.51810002 -0.6038 0
0.17736043 0.015328594 0.31468099 35 32 40 -0.57789999 -0.40880001 -0.70630002 0
0.16498329 0.015532055 0.32341954 12 12 37 -0.2913 -0.22570001 -0.9296 0
0.14938213 0.015176022 0.34957364 235 201 187 -0.53890002 -0.0153 -0.84219998 0
0.13403368 0.016766785 0.3500267 108 56 42 0.53909999 0.1842 -0.82190001 0
0.1201683 0.019998353 0.32902536 178 139 123 0.68760002 0.19490001 -0.69940001 0
0.11503219 0.02057704 0.32330844 174 138 120 0.5733 0.21170001 -0.79149997 0
0.094515279 0.023302156 0.31605709 255 221 202 -0.134 0.14480001 -0.98040003 0
0.078927137 0.025160909 0.3167665 231 192 182 -0.13070001 0.029899999 -0.991 0
0.064281173 0.026627263 0.31725845 216 172 162 0.0098000001 0.1842 -0.98280001 0
0.040908139 0.030499494 0.299878 248 213 202 0.2606 0.2396 -0.93519998 0
0.029670192 0.031846926 0.30468789 255 231 215 -0.5758 0.34330001 -0.74199998 0
0.014216647 0.03223471 0.31303209 255 241 224 -0.4463 0.49200001 -0.7475 0
0.0014035965 0.033061016 0.32258821 229 197 183 -0.037999999 0.27289999 -0.96130002 0
-0.018158741 0.035488155 0.31569523 230 193 180 0.2146 0.1433 -0.96609998 0
-0.034433413 0.03712653 0.31721282 255 255 238 -0.28659999 0.0396 -0.95719999 0
-0.051321588 0.03861776 0.3205947 255 232 220 -0.35280001 0.092 -0.93120003 0
-0.069983132 0.03935416 0.32866293 145 131 120 -0.49919999 0.2669 -0.82429999 0
-1.0130999 -0.0046150945 1.8810048 231 233 235 0.2271 0.19050001 -0.95499998 0
-1.0730435 0.01483918 1.7263954 223 225 225 -0.0537 0.1041 -0.99309999 0
-1.0891106 0.025052849 1.6217306 225 227 229 -0.27399999 0.26159999 -0.92540002 0
-1.1901102 0.039780658 1.5982187 221 223 224 0.16590001 -0.1184 -0.97899997 0
0.24656571 0.0047303219 0.36234194 0 0 0 0 0 0 0
0.15422542 0.017249299 0.32675865 52 54 95 -0.41600001 0.16140001 -0.89490002 0
0.13830516 0.016827911 0.35365957 192 152 132 0.14470001 0.1744 -0.97399998 0
0.12502845 0.019456645 0.33521992 168 130 113 0.77850002 0.19859999 -0.59539998 0
0.098290667 0.023720631 0.31636208 227 188 174 0.0294 0.1815 -0.98290002 0
0.083073802 0.025385279 0.31741002 255 223 211 -0.079800002 0.109 -0.99080002 0
0.068536043 0.026885567 0.31824031 168 97 103 0.061900001 0.1996 -0.97790003 0
0.052615099 0.029047066 0.31683818 164 127 117 0.37729999 0.32980001 -0.86540002 0
0.04864319 0.029246468 0.31214371 178 139 127 0.72570002 0.31760001 -0.6103 0
0.044562705 0.030596104 0.30247676 209 174 166 0.52869999 0.30289999 -0.79290003 0
0.017850975 0.032888345 0.31223342 255 225 212 -0.43130001 0.54159999 -0.7216 0
-0.014252631 0.035825882 0.31694475 225 190 179 0.3581 0.1652 -0.91890001 0
-0.030410463 0.037751276 0.31632608 255 255 239 -0.3247 0.025699999 -0.94550002 0
-0.047193293 0.039304715 0.3195698 242 206 191 -0.31400001 0.12630001 -0.94099998 0
-0.06537167 0.040222306 0.32637665 199 181 167 -0.4808 0.1251 -0.86790001 0
-0.99649227 -0.00048675673 1.8727661 231 233 235 -0.017000001 0.2956 -0.95520002 0
-1.0797555 0.016634932 1.7650874 229 231 232 0.3626 0.3414 -0.86720002 0
-1.0992824 0.027417731 1.6537423 230 232 234 0.025 -0.24969999 -0.96799999 0
0.17722736 0.018353853 0.29225853 24 21 26 -0.56770003 -0.5474 -0.61479998 0
0.16797027 0.016243452 0.32291922 7 5 26 -0.435 -0.24519999 -0.8664 0
0.15782255 0.017743418 0.32695445 15 15 45 -0.227 0.25549999 -0.93980002 0
0.15343241 0.015753858 0.34897831 235 199 184 -0.62559998 -0.0261 -0.77969998 0
0.10186315 0.024225086 0.31657591 205 169 152 0.18269999 0.20209999 -0.96219999 0
0.086730801 0.025926553 0.31719324 243 203 194 -0.1886 0.16 -0.96890002 0
0.071563326 0.027432313 0.31877998 243 194 190 -0.097400002 0.21969999 -0.97070003 0
0.033447944 0.032627217 0.30267417 255 231 216 -0.52149999 0.38569999 -0.76109999 0
-0.010553387 0.036115326 0.31876028 221 188 177 0.37220001 0.2304 -0.89910001 0
-0.081016876 0.041518185 0.33568326 115 115 117 -0.086199999 0.47999999 -0.87300003 0
-0.082235314 0.042150274 0.32831466 89 91 95 -0.2296 0.38710001 -0.89300001 0
-1.0638926 0.016762275 1.7880561 229 231 232 0.59670001 0.055399999 -0.80059999 0
-1.1285836 0.031862255 1.6858262 221 223 224 0.093999997 -0.14569999 -0.98479998 0
-1.1270645 0.042751525 1.5916251 227 229 230 0.2234 -0.1718 -0.95950001 0
-1.0905062 0.040110569 1.5408063 223 225 227 -0.30880001 -0.46000001 -0.83249998 0
0.18609333 0.018632794 0.28515172 2 0 2 -0.4404 -0.72890002 -0.52420002 0
0.16321373 0.017876027 0.32652381 25 28 54 -0.4533 0.0219 -0.89109999 0
0.14226057 0.017467625 0.35286832 211 174 162 -0.30149999 0.083700001 -0.94980001 0
0.10568953 0.024498528 0.31781539 194 157 142 0.3364 0.2374 -0.9113 0
0.090248056 0.026514651 0.31688601 255 219 205 -0.2016 0.1823 -0.96240002 0
0.075658724 0.027911771 0.31819701 243 209 197 -0.2104 0.2291 -0.95039999 0
0.056382287 0.029381599 0.31751776 200 167 156 -0.016899999 0.29089999 -0.95660001 0
0.036915019 0.03349318 0.3011159 255 233 217 -0.26550001 0.44440001 -0.8556 0
0.021862743 0.033633292 0.31036302 255 220 205 -0.4937 0.54479998 -0.67790002 0
-0.0068515902 0.036285006 0.32053542 204 169 156 0.3477 0.33899999 -0.87419999 0
-0.026158772 0.038474303 0.31516516 255 229 211 -0.20810001 0.0517 -0.97670001 0
-0.043029632 0.039880797 0.31882793 255 249 234 -0.26350001 0.15979999 -0.95130002 0
-0.060843159 0.041061543 0.32450101 186 157 144 -0.44170001 0.094400004 -0.89219999 0
-0.076492347 0.042121615 0.33524367 115 111 108 -0.52999997 0.41260001 -0.74080002 0
-1.0509585 0.018508906 1.8085315 232 231 234 0.8003 0.25369999 -0.54320002 0
-1.0825824 0.033022746 1.6675025 221 223 224 -0.28150001 -0.14569999 -0.94840002 0
0.17693192 0.020015987 0.28904253 133 130 134 -0.41859999 -0.47710001 -0.77270001 0
0.17119272 0.020115942 0.29721007 16 10 19 -0.2841 -0.37979999 -0.88029999 0
0.16783069 0.018573072 0.32286337 26 24 54 -0.29069999 -0.4242 -0.85759997 0
0.14554715 0.018303851 0.35189858 226 190 177 -0.39500001 0.085900001 -0.91469997 0
0.11558466 0.023889164 0.32519466 185 151 135 0.57630002 0.2421 -0.78060001 0
0.11000554 0.024524363 0.32032189 185 154 134 0.4641 0.24240001 -0.852 0
0.060089059 0.029852595 0.31786749 200 166 152 -0.085299999 0.2904 -0.95310003 0
0.040761355 0.033664383 0.30227447 222 185 170 0.28299999 0.5654 -0.7748 0
0.025528444 0.034375217 0.30894515 255 220 207 -0.4937 0.5643 -0.66170001 0
0.013506162 0.035293262 0.31696168 214 173 162 -0.38159999 0.55629998 -0.73820001 0
-0.0031881931 0.036382683 0.32315665 206 174 159 0.2349 0.4041 -0.884 0
-0.02216118 0.038982663 0.31523082 254 223 204 0.035599999 0.096500002 -0.99470001 0
-0.038812429 0.040499892 0.3180182 255 239 223 -0.2412 0.1779 -0.954 0
-0.056339432 0.041730978 0.32301781 243 216 200 -0.42269999 0.12540001 -0.89749998 0
-1.048972 0.019462651 1.8414102 225 227 229 0.71100003 0.35879999 -0.60479999 0
-1.0462052 0.03485617 1.6540443 228 230 231 -0.1401 -0.0049999999 -0.99010003 0
-1.1444527 0.049346779 1.6285805 229 231 232 0.53240001 0.088799998 -0.84179997 0
-1.0982077 0.043280289 1.5989254 225 227 229 0.003 0.29010001 -0.95700002 0
0.18531732 0.020763867 0.27802244 130 125 129 -0.1982 -0.4851 -0.85170001 0
0.17840023 0.021226985 0.28579032 34 33 38 -0.2421 -0.1696 -0.95529997 0
0.15021424 0.019593604 0.33521691 240 205 192 0.31690001 0.0491 -0.9472 0
0.14961018 0.018934157 0.35071769 228 194 180 -0.52700001 0.086800002 -0.84539998 0
0.1200904 0.023661157 0.32985955 162 121 105 0.6591 0.24169999 -0.71219999 0
0.093947016 0.027016273 0.31680813 235 196 182 -0.1259 0.2297 -0.96509999 0
0.079176664 0.028537823 0.31786937 239 204 195 -0.1349 0.2746 -0.95209998 0
0.063931845 0.03020932 0.31850472 211 168 155 -0.0165 0.32789999 -0.94459999 0
0.048688795 0.03201399 0.31828216 175 136 129 0.4928 0.53740001 -0.68430001 0
0.04455211 0.033577174 0.30586538 206 171 160 0.55800003 0.4973 -0.66439998 0
0.029257171 0.035149049 0.30763921 232 193 182 -0.4955 0.61680001 -0.61159998 0
0.00067347172 0.036407284 0.32518658 200 166 152 0.0044999998 0.40020001 -0.91640002 0
-0.018201085 0.03940789 0.31561482 230 196 183 0.1849 0.1162 -0.97589999 0
-0.034938481 0.041014746 0.31807232 255 244 227 -0.31740001 0.13339999 -0.93889999 0
-0.052006282 0.042443532 0.32148561 255 249 236 -0.3795 0.1244 -0.91680002 0
-0.070314899 0.043366238 0.3302936 167 153 144 -0.55790001 0.0933 -0.8247 0
-1.0572351 0.036364354 1.6977782 230 232 232 -0.31999999 0.0955 -0.94260001 0
-1.1321262 0.051264901 1.6415328 225 227 229 0.2375 -0.42269999 -0.87459999 0
-1.1478332 0.058249492 1.5610949 228 230 231 -0.1908 -0.38519999 -0.90289998 0
-1.0960367 0.05603924 1.485743 225 227 229 0 0 0 0
0.18767385 0.021466143 0.27703828 43 36 40 -0.21799999 -0.44490001 -0.86860001 0
0.17247832 0.021594128 0.29209018 105 102 106 -0.50840002 -0.39989999 -0.7626 0
0.16650666 0.020589065 0.31942937 175 170 176 -0.22920001 -0.56800002 -0.79040003 0
0.15378511 0.02091217 0.32814294 61 57 99 -0.38370001 0.27070001 -0.8829 0
0.13305201 0.021106033 0.34911069 103 48 37 0.63889998 0.2242 -0.73589998 0
0.12460252 0.023345582 0.3352733 165 127 110 0.75489998 0.2207 -0.61750001 0
0.097516142 0.027516956 0.31679294 206 165 152 0.0272 0.32229999 -0.94620001 0
0.082968131 0.028822273 0.31917101 231 188 173 -0.0788 0.31659999 -0.94529998 0
0.068265401 0.030422306 0.31936499 173 109 108 0.0242 0.37970001 -0.92479998 0
0.052417602 0.032316282 0.31980217 192 162 154 0.0748 0.56959999 -0.81849998 0
0.017199513 0.035943091 0.31663886 230 191 188 -0.36390001 0.63499999 -0.6814 0
-0.014803535 0.039596554 0.31771833 224 194 181 0.3601 0.1778 -0.91579998 0
-0.06624417 0.044244252 0.32714018 159 143 131 -0.50319999 0.093400002 -0.85909998 0
-0.082999222 0.04519682 0.33908737 89 92 100 -0.28099999 0.32210001 -0.90399998 0
-1.0877031 0.038461626 1.758599 229 231 232 -0.003 -0.1285 -0.99169999 0
-1.1346178 0.061079111 1.5573806 222 224 226 -0.1362 -0.52359998 -0.84100002 0
0.18189405 0.021682102 0.28474367 134 126 133 -0.1823 0.0526 -0.98180002 0
0.17500475 0.022358134 0.2908158 20 17 23 -0.3141 -0.2422 -0.91799998 0
0.15788709 0.021201348 0.32922041 30 33 66 -0.1198 0.271 -0.9551 0
0.15251617 0.019886283 0.34925848 232 195 183 -0.59299999 0.062600002 -0.80269998 0
0.13779929 0.020906158 0.3541739 192 153 137 0.1015 0.22059999 -0.97009999 0
0.10145844 0.027852345 0.31743127 203 167 152 0.1446 0.3669 -0.91900003 0
0.086556949 0.029352674 0.3191514 253 212 196 -0.17399999 0.32179999 -0.9307 0
0.071697518 0.030896494 0.31998181 205 151 146 -0.1043 0.40540001 -0.90820003 0
0.056267139 0.032736752 0.32022685 157 123 107 -0.076099999 0.53390002 -0.84210002 0
0.033152346 0.035745963 0.30618802 251 214 201 -0.51880002 0.60579997 -0.60320002 0
0.021136129 0.036450095 0.31670344 244 209 201 -0.32190001 0.69630003 -0.6415 0
-0.011097983 0.039745431 0.32004252 207 178 165 0.4339 0.26249999 -0.86189997 0
-0.030712619 0.041717421 0.31639144 255 230 210 -0.3592 0.059500001 -0.9314 0
-0.047828935 0.043105211 0.32048661 255 235 218 -0.3186 0.14749999 -0.93629998 0
-1.0601275 0.037353165 1.7822236 228 228 230 0.37279999 0.085600004 -0.92400002 0
-1.0893928 0.050124381 1.650777 237 239 241 -0.20039999 -0.28839999 -0.93629998 0
0.1906765 0.022043457 0.27586752 157 157 159 -0.54220003 -0.25560001 -0.80040002 0
0.18294254 0.023317773 0.27820125 41 42 51 -0.37760001 -0.1419 -0.91500002 0
0.16739203 0.023226036 0.29618835 157 156 161 -0.064300001 -0.0339 -0.99739999 0
0.14163966 0.021472745 0.35419032 212 178 162 -0.31580001 0.1605 -0.93510002 0
0.10560803 0.027950775 0.3195686 201 169 153 0.27720001 0.38080001 -0.88209999 0
0.090144411 0.030008813 0.31817842 231 188 173 -0.1831 0.37 -0.91079998 0
0.075144008 0.031500686 0.32014757 235 196 184 -0.19939999 0.421 -0.88489997 0
0.060081013 0.033203032 0.32017592 189 153 138 -0.090300001 0.50800002 -0.85659999 0
0.036557525 0.036651582 0.30412892 255 255 253 -0.30070001 0.63770002 -0.70920002 0
0.025009928 0.037222728 0.31499413 236 201 193 -0.32519999 0.75260001 -0.57260001 0
0.0087612635 0.038596101 0.31885126 208 182 170 -0.51359999 0.46579999 -0.72060001 0
-0.0076040663 0.039884616 0.32263353 189 157 143 0.4465 0.35159999 -0.82279998 0
-0.026677016 0.042291597 0.31570193 255 242 224 -0.23370001 0.063699998 -0.9702 0
-0.043873973 0.043547485 0.32083607 249 216 197 -0.2401 0.1754 -0.95480001 0
-0.061363321 0.044895172 0.32559115 215 187 176 -0.41600001 0.13079999 -0.89990002 0
-0.078570038 0.045603849 0.34116951 127 126 129 -0.47929999 0.18889999 -0.85710001 0
-0.95667034 0.01937972 1.8838463 227 229 230 0.53979999 0.1216 -0.83289999 0
-1.070478 0.03969685 1.8253794 227 229 230 0.6983 0.354 -0.6221 0
-1.065794 0.052653745 1.6448103 227 229 230 0.015699999 -0.50139999 -0.86510003 0
-1.0984215 0.060194943 1.5690564 230 232 234 0.0144 -0.4109 -0.91149998 0
0.19341071 0.022681659 0.27444157 167 163 162 -0.49169999 -0.29300001 -0.81999999 0
0.17667687 0.023486497 0.28787452 101 93 101 -0.35800001 0.15009999 -0.92159998 0
0.1453602 0.022212368 0.35291946 225 193 179 -0.43689999 0.089599997 -0.8951 0
0.10933466 0.028196074 0.32162586 199 167 150 0.4181 0.36629999 -0.83130002 0
0.093847439 0.030505527 0.31819326 224 180 168 -0.1199 0.4249 -0.8973 0
0.040117316 0.03694709 0.30560431 235 198 188 0.2491 0.6505 -0.71740001 0
0.012153465 0.038696282 0.32153803 148 130 116 -0.31479999 0.66619998 -0.676 0
-0.0038999608 0.039919954 0.32611606 182 151 134 0.29069999 0.3443 -0.89270002 0
-0.022874596 0.042729557 0.31601346 252 221 202 -0.0037 0.1066 -0.99430001 0
-0.03969394 0.044168532 0.32000002 255 239 223 -0.24420001 0.192 -0.95050001 0
-0.05700808 0.04552466 0.32452503 252 222 209 -0.4404 0.1608 -0.88330001 0
-0.98021513 0.0237724 1.9261235 228 230 231 0.29769999 -0.3705 -0.87980002 0
-1.0460178 0.040013645 1.8453633 230 232 234 0.72189999 0.37290001 -0.58289999 0
-1.0492859 0.054516729 1.6533856 222 224 226 0.18279999 0.2264 -0.95670003 0
-1.091365 0.06165918 1.5885354 225 227 229 -0.4219 -0.045000002 -0.90549999 0
0.19459805 0.023627408 0.27321908 117 112 116 0.26859999 -0.2872 -0.91949999 0
0.18590598 0.023789847 0.27819142 89 86 91 -0.24519999 0.17479999 -0.95359999 0
0.18012129 0.024000458 0.28672674 135 135 137 -0.2651 0.27200001 -0.92510003 0
0.16883449 0.024293898 0.29441565 160 155 159 -0.23280001 0.014 -0.97240001 0
0.16168387 0.02455382 0.30475533 95 95 99 -0.71160001 0.25920001 -0.653 0
0.15032621 0.02320453 0.33620045 222 190 178 -0.3946 0.083099999 -0.91509998 0
0.14879081 0.022970574 0.35193613 228 193 182 -0.53960001 -0.060699999 -0.83969998 0
0.13371691 0.024707226 0.35136598 133 79 63 0.60369998 0.27950001 -0.74659997 0
0.11940263 0.027599571 0.32988873 164 123 110 0.61769998 0.31009999 -0.7227 0
0.11421598 0.02797666 0.32508218 149 115 99 0.54269999 0.3265 -0.77380002 0
0.078704052 0.032088172 0.31978637 228 188 172 -0.15880001 0.44620001 -0.88069999 0
0.063532844 0.033791091 0.32033291 217 175 164 -0.037500001 0.49270001 -0.86940002 0
0.044565503 0.036758095 0.30804312 174 124 120 0.43169999 0.68559998 -0.5862 0
0.02893295 0.03772442 0.3147451 240 208 196 -0.38280001 0.78759998 -0.48280001 0
0.016762542 0.039290559 0.32033464 114 96 68 -0.32820001 0.6372 -0.69730002 0
0.00042917754 0.040144213 0.32770091 177 143 127 0.0088 0.32980001 -0.94400001 0
-0.018941509 0.043186359 0.31640267 233 201 189 0.1793 0.1302 -0.97509998 0
-0.035735283 0.044667002 0.3194834 255 232 216 -0.34079999 0.1696 -0.92470002 0
-0.052759536 0.046213318 0.32322198 255 248 233 -0.41749999 0.1462 -0.8969 0
-0.071152762 0.047305178 0.33140439 143 131 122 -0.60619998 0.045000002 -0.79409999 0
-1.0354139 0.042284615 1.8633933 228 230 231 0.32480001 0.37400001 -0.86870003 0
-1.0465878 0.055324003 1.6884962 234 236 235 0.2032 0.574 -0.79329997 0
-1.112656 0.065308012 1.6263512 227 229 230 -0.3757 0.50489998 -0.77710003 0
-1.1871132 0.079894215 1.5757811 0 0 0 -0.4316 -0.2974 -0.85159999 0
0.18849787 0.024265239 0.27874386 81 75 84 -0.1367 0.1102 -0.98449999 0
0.1835977 0.024252202 0.28789765 127 123 134 -0.48559999 0.54460001 -0.68379998 0
0.17262039 0.02470886 0.2938686 76 73 79 -0.3008 0.2674 -0.91540003 0
0.15421198 0.024389761 0.32958874 53 49 89 -0.40490001 0.1021 -0.90859997 0
0.13770516 0.024742499 0.35601187 179 141 120 0.19059999 0.22589999 -0.95529997 0
0.12462205 0.026930004 0.33736387 168 130 113 0.78289998 0.27419999 -0.55849999 0
0.097467184 0.030942211 0.31863323 219 179 160 -0.0063 0.46799999 -0.88370001 0
0.082444988 0.032497272 0.32034144 235 199 186 -0.121 0.45829999 -0.88050002 0
0.067439221 0.034062997 0.3217231 187 135 121 0.0198 0.54570001 -0.83770001 0
0.052129276 0.035609644 0.32322502 203 165 162 0.0539 0.5812 -0.81199998 0
0.032829124 0.038434215 0.31274876 255 225 211 -0.53310001 0.72850001 -0.4303 0
0.003596212 0.04073533 0.32800427 178 145 135 -0.25639999 0.34169999 -0.90420002 0
-0.015189831 0.043470297 0.31802133 223 193 180 0.38330001 0.21250001 -0.89880002 0
-0.066808812 0.048016936 0.32917237 198 179 170 -0.52450001 0.1141 -0.84369999 0
-1.0464731 0.05678368 1.7256799 228 230 231 0.5564 0.19069999 -0.80870003 0
-1.0807301 0.066683844 1.6155901 229 231 232 -0.3766 0.22040001 -0.8998 0
0.19074892 0.025209861 0.27556556 96 88 93 -0.39789999 0.26109999 -0.87949997 0
0.17581129 0.025274977 0.2930167 45 41 51 -0.4747 0.42320001 -0.77170002 0
0.15805236 0.024848672 0.32972428 48 45 51 -0.016100001 0.2115 -0.97719997 0
0.15296192 0.023592461 0.35067144 229 195 184 -0.67659998 -0.1107 -0.72799999 0
0.10151914 0.031090267 0.32078856 221 183 166 0.1037 0.4765 -0.87300003 0
0.086292587 0.032943483 0.32060969 236 198 181 -0.1644 0.4655 -0.86970001 0
0.070985898 0.034447342 0.32264972 202 161 161 -0.091700003 0.55800003 -0.82480001 0
0.055832557 0.036273841 0.32263181 217 187 176 -0.19 0.59640002 -0.7798 0
0.007981603 0.041326001 0.32684505 201 175 163 -0.1488 0.57179999 -0.80680001 0
-0.011630975 0.043629382 0.32070714 201 173 162 0.50929999 0.26409999 -0.81900001 0
-0.031384408 0.045448326 0.31776875 255 242 226 -0.37900001 0.1224 -0.91729999 0
-0.048415113 0.046933506 0.32147989 255 247 233 -0.32800001 0.15009999 -0.93269998 0
-0.062482342 0.048693649 0.32773718 218 193 181 -0.39570001 0.184 -0.89969999 0
-1.0336133 0.067113839 1.5948607 227 229 230 -0.25240001 -0.28839999 -0.92360002 0
-1.047949 0.069506511 1.5466429 230 232 234 0 0 0 0
0.1834347 0.025969921 0.28234434 154 153 156 -0.62760001 0.57419997 -0.52579999 0
0.16675952 0.026835397 0.29544875 112 109 115 -0.1241 0.4307 -0.89389998 0
0.16038728 0.027048582 0.29516864 161 158 161 -0.26750001 0.50940001 -0.8179 0
0.16126318 0.02661914 0.30769241 3 0 12 -0.4224 0.1605 -0.89209998 0
0.14162804 0.025328472 0.35572672 211 177 161 -0.31549999 0.16240001 -0.93489999 0
0.10566077 0.031313311 0.32214493 224 192 178 0.2481 0.44760001 -0.85909998 0
0.089953989 0.033386927 0.32088545 227 186 170 -0.1444 0.51779997 -0.84320003 0
0.074945092 0.034924071 0.32264656 237 198 188 -0.21960001 0.55409998 -0.80290002 0
0.059664816 0.036646765 0.32333076 217 187 176 -0.1364 0.58600003 -0.79869998 0
0.03648581 0.039681293 0.30797645 255 223 211 -0.26660001 0.741 -0.61629999 0
0.02442749 0.040216159 0.32099634 234 211 200 -0.1428 0.73629999 -0.66140002 0
-0.0081355218 0.043693349 0.32403877 179 147 135 0.51800001 0.31290001 -0.79610002 0
-0.027072074 0.046153035 0.31600872 255 235 218 -0.2678 0.1211 -0.9558 0
-0.044330183 0.047412027 0.3214519 255 230 216 -0.2271 0.1397 -0.96380001 0
-0.98439443 0.044699252 1.8751838 230 232 234 -0.0076000001 0.094099998 -0.99550003 0
-1.0445569 0.058611251 1.8072547 230 232 234 0.1043 0.0217 -0.99430001 0
-1.0084743 0.054454662 1.7457831 229 231 232 0.48989999 0.20990001 -0.84609997 0
-1.0591207 0.071143255 1.641802 225 227 229 -0.1652 -0.3238 -0.93159997 0
0.19237114 0.026094681 0.27388942 115 111 117 0.1344 0.27410001 -0.95230001 0
0.17567362 0.026721818 0.29000038 131 113 115 -0.44890001 0.47600001 -0.75620002 0
0.17060155 0.027125431 0.29605168 101 97 107 -0.0867 0.47830001 -0.8739 0
0.14492978 0.026146147 0.35438865 226 191 180 -0.47209999 0.071599998 -0.8786 0
0.11471673 0.031367801 0.32718417 181 150 131 0.50749999 0.40130001 -0.76249999 0
0.10968234 0.031527717 0.32399568 183 148 135 0.4086 0.40279999 -0.81900001 0
0.093705572 0.03384969 0.32101288 228 188 172 -0.1016 0.56770003 -0.81699997 0
0.078872949 0.035334267 0.32306352 230 193 182 -0.2101 0.54040003 -0.81480002 0
0.063522972 0.037067305 0.32378694 210 172 155 -0.0298 0.59179997 -0.80549997 0
0.043946896 0.0397183 0.31465045 208 174 161 0.29530001 0.82679999 -0.47870001 0
0.039989289 0.040032268 0.30900002 240 205 194 0.028899999 0.82190001 -0.56889999 0
0.028499015 0.040650535 0.32119083 212 176 163 -0.1227 0.81699997 -0.56349999 0
0.011812473 0.0417374 0.32748839 185 153 136 -0.32530001 0.71640003 -0.61729997 0
-0.0043816613 0.043724302 0.32732394 181 145 129 0.34119999 0.3175 -0.8847 0
-0.023222949 0.046607036 0.31643295 255 222 206 -0.054299999 0.1472 -0.98760003 0
-0.040293358 0.04792219 0.32150343 255 244 227 -0.229 0.13079999 -0.96460003 0
-0.057971168 0.049331754 0.32646912 246 216 203 -0.4339 0.1682 -0.88510001 0
-1.0551279 0.061112747 1.8593837 232 234 236 0.76819998 0.080700003 -0.63510001 0
-1.0653534 0.0734834 1.6778647 231 233 235 0.36840001 0.71179998 -0.59810001 0
0.19527969 0.026637387 0.27301171 115 107 115 0.5582 0.3996 -0.72710001 0
0.18390176 0.027250716 0.27922377 113 109 122 -0.30649999 0.56760001 -0.76410002 0
0.18017502 0.026854519 0.29051691 98 39 54 -0.39309999 0.5169 -0.7604 0
0.17351411 0.027595516 0.29671618 132 124 131 -0.2405 0.48949999 -0.83819997 0
0.16217223 0.027907716 0.30469999 37 36 45 -0.64880002 0.34760001 -0.67699999 0
0.14818914 0.027038321 0.35227501 226 195 180 -0.6092 -0.061000001 -0.79070002 0
0.13362408 0.0282677 0.35596982 118 73 57 0.47679999 0.35600001 -0.80369997 0
0.11990919 0.030896377 0.33321074 153 112 96 0.61540002 0.38139999 -0.68980002 0
0.097495444 0.03420487 0.32211035 236 198 181 -0.043299999 0.55430001 -0.8312 0
0.08268436 0.035794973 0.32318696 237 198 184 -0.1478 0.53740001 -0.83029997 0
0.0517966 0.03893429 0.32706618 215 179 176 0.0264 0.61260003 -0.7899 0
0.031942267 0.0408873 0.32346705 210 171 159 -0.1102 0.83520001 -0.5388 0
-0.00017223707 0.044179153 0.32804224 188 154 141 -0.0122 0.29679999 -0.95490003 0
-0.019608321 0.046942558 0.31740522 232 197 186 0.14210001 0.14749999 -0.9788 0
-0.036353309 0.048470352 0.320959 255 234 220 -0.3265 0.15549999 -0.93229997 0
-0.053646468 0.050034437 0.32457396 255 235 218 -0.433 0.1548 -0.88800001 0
-0.071001656 0.051021449 0.33441934 135 129 126 -0.4249 0.1706 -0.889 0
-1.0560876 0.06389036 1.8901534 227 229 230 0.36289999 0.085100003 -0.92790002 0
-1.0598584 0.076284207 1.6942894 228 230 231 0.28830001 0.6013 -0.74519998 0
-1.1524032 0.086071007 1.6639917 227 229 230 -0.44459999 0.0089999996 -0.89569998 0
-1.2494117 0.11153927 1.5358018 0 0 0 0 0 0 0
