ply
format ascii 1.0
comment PCL generated
element vertex 584
property float x
property float y
property float z
property uchar red
property uchar green
property uchar blue
property float nx
property float ny
property float nz
property float curvature
element camera 0
property float view_px
property float view_py
property float view_pz
property float x_axisx
property float x_axisy
property float x_axisz
property float y_axisx
property float y_axisy
property float y_axisz
property float z_axisx
property float z_axisy
property float z_axisz
property float focal
property float scalex
property float scaley
property float centerx
property float centery
property int viewportx
property int viewporty
property float k1
property float k2
end_header
0.17056693 -0.026555168 0.2920894 234 234 236 -0.4129 -0.1268 -0.90189999 0
0.16076517 -0.028042682 0.29756638 168 114 123 -0.56870002 -0.093400002 -0.81720001 0
0.15172531 -0.029984318 0.3052333 156 154 157 -0.0118 -0.4526 -0.89160001 0
0.13697886 -0.031589441 0.31896102 109 109 111 -0.62279999 -0.076499999 -0.77869999 0
0.12205132 -0.033815995 0.33702126 129 129 131 -0.60610002 0.49489999 -0.62269998 0
0.09588974 -0.037442263 0.3521708 93 94 91 -0.52850002 0.4707 -0.70639998 0
0.084988728 -0.043131679 0.39681378 255 234 211 -0.32049999 -0.67739999 -0.66210002 0
0.045413256 -0.040289044 0.35339242 255 236 217 0.2264 -0.55070001 -0.80339998 0
0.0096596619 -0.041911099 0.35043907 255 251 229 -0.044500001 -0.64819998 -0.76010001 0
-0.038613718 -0.045022681 0.35817772 255 255 233 0.0093 -0.79939997 -0.60070002 0
-0.055400558 -0.046416443 0.36262637 255 233 213 -0.060899999 -0.82840002 -0.55690002 0
-0.072041012 -0.047304232 0.36450639 200 192 185 -0.171 -0.71640003 -0.67640001 0
-1.1450319 -0.2712599 1.8235478 230 232 232 -0.42160001 -0.079899997 -0.90319997 0
0.17955381 -0.025054164 0.28629667 213 211 214 -0.49950001 -0.1161 -0.8585 0
0.1632728 -0.026984703 0.29671031 190 173 183 -0.59060001 -0.067199998 -0.80409998 0
0.15337536 -0.028553357 0.30250746 162 129 136 -0.2308 -0.41460001 -0.88020003 0
0.15176319 -0.02916296 0.31338832 255 255 255 0.1823 0.3908 -0.90219998 0
0.13821216 -0.029786915 0.31422463 160 162 164 -0.59200001 0.0022 -0.80599999 0
0.11229577 -0.034237854 0.34254611 133 132 137 -0.3055 0.045699999 -0.95109999 0
0.097994775 -0.03537314 0.34643757 95 92 95 -0.60720003 0.3348 -0.72060001 0
0.049057003 -0.039222099 0.35336921 250 219 200 0.2237 -0.59890002 -0.76889998 0
0.029221047 -0.040462945 0.351358 255 238 222 -0.0273 -0.71109998 -0.70249999 0
0.013395233 -0.040391453 0.3480728 246 210 191 -0.015799999 -0.61019999 -0.79210001 0
-0.0058752741 -0.042179685 0.34913033 255 252 231 -0.37079999 -0.50349998 -0.78039998 0
-0.014564525 -0.041174442 0.3520242 255 255 247 0.067500003 -0.35460001 -0.93260002 0
-0.051125128 -0.044663548 0.35923132 255 252 231 -0.1393 -0.81770003 -0.55849999 0
-0.067321144 -0.045323577 0.36005071 177 160 150 -0.1762 -0.76069999 -0.62470001 0
-0.085389137 -0.047199037 0.36673516 183 175 169 -0.1139 -0.71950001 -0.68510002 0
-0.10409611 -0.049323466 0.37435943 119 117 118 -0.067900002 -0.70730001 -0.70359999 0
0.18154028 -0.023988979 0.28515846 227 225 228 -0.22570001 -0.066399999 -0.97189999 0
0.1725945 -0.025436392 0.2907823 186 182 188 -0.5086 -0.1227 -0.85219997 0
0.15512019 -0.027147038 0.29973346 173 105 119 -0.30309999 -0.289 -0.90810001 0
0.1243974 -0.032363337 0.33445767 100 101 105 -0.66299999 0.56629997 -0.48969999 0
0.088167772 -0.041267518 0.39288247 255 223 200 -0.17399999 -0.59280002 -0.7863 0
0.052600406 -0.038265031 0.35399315 222 188 175 0.2737 -0.59289998 -0.75739998 0
0.032849189 -0.039201874 0.3502785 255 239 222 0.0286 -0.6469 -0.76200002 0
0.017072104 -0.039392095 0.34834617 255 228 210 0.1006 -0.574 -0.81269997 0
-0.0022749302 -0.040712163 0.34692022 255 241 221 -0.29820001 -0.52689999 -0.79589999 0
-0.080473557 -0.045181971 0.36218175 180 169 166 -0.067100003 -0.71899998 -0.69169998 0
0.17429976 -0.024230188 0.28890744 232 229 235 -0.58039999 -0.036699999 -0.81349999 0
0.1651642 -0.025716225 0.29450554 230 227 230 -0.48140001 -0.1083 -0.86979997 0
0.1585371 -0.026367698 0.3004334 199 110 124 -0.39629999 -0.24429999 -0.88499999 0
0.14084476 -0.028628225 0.31298304 152 154 158 -0.5399 0.1787 -0.82249999 0
0.13310595 -0.029267384 0.31928575 160 162 164 -0.62339997 0.25330001 -0.73970002 0
0.12693664 -0.030960623 0.33208609 174 171 174 -0.75300002 0.4883 -0.4411 0
0.11588768 -0.033299953 0.34295687 152 152 155 -0.1564 0.1224 -0.98009998 0
0.10106463 -0.033968419 0.34423953 125 124 129 -0.48469999 0.2075 -0.84969997 0
0.09711659 -0.035140906 0.36037672 0 0 0 0 0 0 0
0.091691747 -0.03963948 0.39018145 248 216 190 -0.1646 -0.50529999 -0.84710002 0
0.036516424 -0.037977919 0.34939739 255 243 223 0.1188 -0.5959 -0.7942 0
0.0014554994 -0.03953198 0.34619734 255 247 225 0.0020999999 -0.55930001 -0.82889998 0
-0.046818264 -0.042916335 0.35575619 255 255 231 -0.1195 -0.81959999 -0.56040001 0
-0.063340664 -0.043933492 0.35844693 236 208 197 -0.16419999 -0.75929999 -0.62970001 0
0.16718933 -0.024567239 0.29305029 186 182 188 -0.43090001 -0.1247 -0.89380002 0
0.14814626 -0.025870951 0.30005363 255 255 255 0.0911 0.0142 -0.9957 0
0.14358056 -0.027515737 0.3119404 156 156 158 -0.35769999 0.052999999 -0.93229997 0
0.11899856 -0.032081816 0.34177694 140 142 144 -0.2577 0.0616 -0.96429998 0
0.10475972 -0.032923862 0.34393498 139 138 141 -0.2078 0.1424 -0.9677 0
0.062836736 -0.038940776 0.36960301 207 175 161 0.5923 -0.6117 -0.52429998 0
0.040127937 -0.036932595 0.34942871 255 242 224 0.099299997 -0.58639997 -0.8039 0
0.020718016 -0.038235463 0.34775513 255 251 230 0.073799998 -0.59729999 -0.79860002 0
0.0050598271 -0.038463015 0.34604505 255 255 236 0.033399999 -0.5715 -0.81989998 0
-0.042741299 -0.04134706 0.35312909 255 241 222 0.15270001 -0.79430002 -0.588 0
-0.076678693 -0.044106517 0.36222056 199 178 167 -0.1228 -0.75279999 -0.64670002 0
-0.93384576 -0.21460313 1.5673685 230 230 230 0 0 0 0
0.17613718 -0.023027591 0.28683141 186 180 187 -0.46869999 -0.1408 -0.87199998 0
0.1605836 -0.025148397 0.29864556 208 115 130 -0.4086 -0.2254 -0.88440001 0
0.13580756 -0.028143197 0.31831619 143 142 147 -0.66509998 0.2202 -0.71350002 0
0.12866195 -0.029193623 0.32743138 127 126 129 -0.87040001 0.33219999 -0.36340001 0
0.12209278 -0.030831642 0.34031177 132 131 134 -0.44 0.066600002 -0.8955 0
0.098252252 -0.036349479 0.38423535 216 183 167 -0.29100001 -0.2141 -0.9325 0
0.02429527 -0.036998205 0.34673911 255 251 233 0.0118 -0.62089998 -0.78380001 0
0.0086589046 -0.037266392 0.34520569 255 255 238 -0.0093999999 -0.53719997 -0.8434 0
-0.010726072 -0.040096305 0.35189748 255 255 239 -0.2413 -0.43009999 -0.86989999 0
-0.059092443 -0.042285495 0.35542956 255 238 219 -0.1542 -0.7392 -0.65560001 0
-0.072280638 -0.042511713 0.35956174 217 196 185 -0.16419999 -0.76050001 -0.62819999 0
-0.10828294 -0.04579119 0.37075946 121 119 120 -0.3229 -0.67290002 -0.66549999 0
0.17868875 -0.022094127 0.28637058 211 208 214 -0.48100001 -0.248 -0.8409 0
0.16930752 -0.023432964 0.29153603 250 247 248 -0.40619999 -0.1697 -0.89789999 0
0.1627056 -0.023978537 0.29703295 174 84 105 -0.4488 -0.1205 -0.88550001 0
0.15220188 -0.025319405 0.30205759 146 140 149 -0.0964 0.0037 -0.99529999 0
0.15097167 -0.025967944 0.31380287 255 255 255 0.2341 0.21510001 -0.94809997 0
0.14654699 -0.026472764 0.31126678 111 110 115 -0.0121 -0.17399999 -0.98470002 0
0.13811041 -0.026802804 0.31596175 157 156 161 -0.59109998 0.2458 -0.76819998 0
0.12470627 -0.029422602 0.33788055 162 158 169 -0.44580001 0.0071 -0.8951 0
0.082476787 -0.037991334 0.39082804 239 203 188 -0.22570001 -0.61650002 -0.7543 0
0.043615662 -0.035552707 0.3475711 255 235 215 0.1032 -0.59060001 -0.8003 0
0.027779255 -0.03576773 0.34569356 255 252 233 0.0068999999 -0.58579999 -0.81040001 0
-0.006835978 -0.038513478 0.34905291 255 253 234 -0.44240001 -0.46740001 -0.76539999 0
-0.055052526 -0.040851027 0.35346147 255 242 224 -0.1388 -0.71890002 -0.68110001 0
0.17173791 -0.02239768 0.29056138 219 218 221 -0.49579999 -0.1689 -0.85189998 0
0.13054377 -0.027535528 0.32321408 125 127 129 -0.7475 0.38319999 -0.54259998 0
0.11097136 -0.03056661 0.34206232 73 74 83 -0.28560001 0.023600001 -0.95810002 0
0.086245306 -0.03655313 0.38916436 255 222 199 -0.1327 -0.53280002 -0.83579999 0
0.047181986 -0.034506243 0.34759825 255 235 217 0.1762 -0.5869 -0.7902 0
0.012269008 -0.036126129 0.34464929 255 249 232 0.056699999 -0.53009999 -0.84600002 0
-0.003309198 -0.036295988 0.34266335 255 243 225 -0.2983 -0.42899999 -0.85259998 0
-0.015301518 -0.036950864 0.34911469 255 255 251 0.00060000003 -0.38409999 -0.92330003 0
-0.050937582 -0.039104983 0.34975168 255 255 235 -0.2472 -0.74260002 -0.6225 0
-0.067545876 -0.040575802 0.3550652 241 214 196 -0.127 -0.72039998 -0.68180001 0
-0.085194886 -0.042309124 0.36147299 214 198 185 -0.1014 -0.71259999 -0.69419998 0
-0.10179865 -0.042993244 0.36220023 113 106 108 -0.0274 -0.67949998 -0.7331 0
0.18045072 -0.020946214 0.28447574 174 169 173 -0.2168 -0.2237 -0.95029998 0
0.16417414 -0.022605274 0.29414046 237 227 232 -0.54269999 -0.0126 -0.83990002 0
0.14077866 -0.02566061 0.31476673 110 111 118 -0.50650001 0.21879999 -0.83399999 0
0.13304099 -0.026274834 0.32141116 150 150 152 -0.69019997 0.40279999 -0.60119998 0
0.12779668 -0.028271478 0.33690208 108 110 111 -0.38620001 -0.061900001 -0.92030001 0
0.11454733 -0.029595444 0.34231368 35 41 46 -0.082900003 0.1374 -0.98699999 0
0.090092987 -0.035240665 0.38818097 251 219 196 -0.147 -0.4962 -0.85570002 0
0.050929721 -0.033698849 0.34897673 225 187 172 0.23710001 -0.59740001 -0.76609999 0
0.031273887 -0.034466781 0.34423715 255 239 220 0.098899998 -0.55930001 -0.82300001 0
0.015929095 -0.035146337 0.34496969 255 255 237 0.067000002 -0.52590001 -0.84789997 0
0.0003866617 -0.035315506 0.34294224 255 244 225 -0.0123 -0.39050001 -0.92049998 0
-0.063277826 -0.038988378 0.35223255 255 233 214 -0.1759 -0.7015 -0.69069999 0
-0.080733262 -0.040653378 0.35842466 248 227 215 -0.1586 -0.76239997 -0.62739998 0
0.18209365 -0.019794874 0.28261462 0 0 0 0.086400002 -0.18790001 -0.97839999 0
0.17366163 -0.021254079 0.28887513 225 222 228 -0.51660001 -0.1153 -0.8484 0
0.16591001 -0.021377446 0.29207268 255 255 255 -0.57489997 0.0133 -0.81809998 0
0.14358598 -0.024567861 0.31378946 163 165 166 -0.43079999 -0.083800003 -0.89859998 0
0.12959313 -0.026568806 0.33245772 177 177 179 -0.667 -0.2419 -0.70469999 0
0.11872984 -0.028816191 0.34367582 9 10 19 -0.1452 0.064099997 -0.98729998 0
0.054711584 -0.032721218 0.34936184 228 194 180 0.2624 -0.59859997 -0.7568 0
0.034960389 -0.033510152 0.34470719 255 240 219 0.1621 -0.5226 -0.83710003 0
0.019484231 -0.033903833 0.34381551 255 251 233 0.0166 -0.51700002 -0.85579997 0
0.0039175558 -0.034389142 0.34352639 255 252 233 -0.030099999 -0.40709999 -0.91289997 0
-0.011477758 -0.035875544 0.3489655 255 255 255 -0.2458 -0.5115 -0.82340002 0
-0.027893368 -0.037200466 0.35349938 255 255 244 0.00050000002 -0.65030003 -0.75959998 0
-0.046383612 -0.037133921 0.3447426 255 243 226 -0.056000002 -0.70569998 -0.70630002 0
-0.093591973 -0.040374395 0.3599478 197 179 174 -0.1661 -0.62279999 -0.76459998 0
-1.1157031 -0.24078993 1.9001422 230 230 230 -0.78039998 0.3396 -0.52499998 0
0.17559683 -0.020141402 0.28735319 227 225 228 -0.51090002 -0.1759 -0.84149998 0
0.15892719 -0.021844221 0.29739368 172 122 134 -0.273 -0.146 -0.95090002 0
0.14860886 -0.023212479 0.30273494 255 255 255 -0.4603 0.3202 -0.82800001 0
0.14577065 -0.023253344 0.31140518 151 147 153 -0.1462 -0.32100001 -0.9357 0
0.13512647 -0.024866462 0.31856638 125 124 127 -0.68059999 0.3761 -0.62879997 0
0.12229291 -0.027796026 0.34357521 135 139 145 -0.42320001 -0.069799997 -0.90329999 0
0.10742763 -0.028567152 0.3457337 142 142 144 -0.1479 0.42399999 -0.89349997 0
0.093844816 -0.033884224 0.38684395 240 205 185 -0.22 -0.47060001 -0.8545 0
0.058755051 -0.03208432 0.35184035 202 166 148 0.3145 -0.61129999 -0.72619998 0
0.038474068 -0.032509692 0.34494653 255 231 212 0.080499999 -0.5255 -0.847 0
0.022996334 -0.032726347 0.34299558 255 255 238 -0.022399999 -0.4734 -0.88059998 0
-0.024069935 -0.035867494 0.35190952 255 255 251 -0.16850001 -0.52609998 -0.83359998 0
-0.042646687 -0.0360066 0.34421852 236 210 198 0.1987 -0.67339998 -0.71210003 0
-0.058958638 -0.037183009 0.34809792 255 249 230 -0.20039999 -0.68839997 -0.69709998 0
-0.076224081 -0.038955811 0.35503331 255 233 216 -0.1498 -0.73900002 -0.65689999 0
-1.1602448 -0.23257095 1.8644315 224 227 226 0.2472 0.95740002 -0.1494 0
0.17728546 -0.018978646 0.2854037 227 225 228 -0.634 -0.169 -0.75470001 0
0.16853759 -0.020412348 0.29154053 160 155 159 -0.49200001 0.0033 -0.87059999 0
0.16129237 -0.020779146 0.29637873 129 36 60 -0.2633 0.019400001 -0.96450001 0
0.15111624 -0.022073733 0.3013536 255 255 255 -0.19220001 0.039500002 -0.9806 0
0.13790086 -0.023703605 0.31716707 159 159 164 -0.61360002 0.30779999 -0.72710001 0
0.1103418 -0.027165821 0.34327745 97 96 101 -0.1602 0.64740002 -0.74510002 0
0.097599909 -0.032612756 0.38603905 216 178 161 -0.1097 -0.46779999 -0.87699997 0
0.06821274 -0.031830058 0.36337447 207 173 157 0.41319999 -0.72229999 -0.55449998 0
0.063209623 -0.031884607 0.3570357 192 159 140 0.39179999 -0.63940001 -0.66149998 0
0.042064711 -0.03128203 0.34382421 255 219 200 0.050900001 -0.4901 -0.87019998 0
0.0075107147 -0.033211607 0.34268951 255 255 237 -0.064999998 -0.42429999 -0.90319997 0
-0.0078981537 -0.034642063 0.34785712 255 248 231 -0.40099999 -0.45590001 -0.79460001 0
-0.055176683 -0.036017112 0.34737581 255 255 235 -0.2463 -0.6857 -0.68489999 0
-0.071778797 -0.037357256 0.35213614 255 227 208 -0.070699997 -0.70279998 -0.70779997 0
-0.088846758 -0.038608629 0.35621235 238 217 208 -0.2304 -0.68199998 -0.69410002 0
0.17116053 -0.019469552 0.29106581 240 237 241 -0.48699999 -0.0195 -0.8732 0
0.16345824 -0.019646347 0.29482085 182 91 104 -0.46880001 0.2351 -0.85149997 0
0.13021316 -0.024394114 0.32472917 148 148 148 -0.71749997 0.1911 -0.6699 0
0.1246767 -0.02622667 0.33989942 111 113 117 -0.33469999 -0.1269 -0.93370003 0
0.10135006 -0.031255998 0.38461798 229 195 179 -0.1051 -0.4612 -0.88099998 0
0.045657001 -0.03027912 0.34402773 255 226 206 0.1371 -0.472 -0.87089998 0
0.026526231 -0.031537544 0.34209868 255 242 224 0.0073000002 -0.42140001 -0.90679997 0
0.011154869 -0.031970061 0.3414675 255 238 222 0.0020999999 -0.42989999 -0.90289998 0
-0.0043670689 -0.032487929 0.34143811 255 238 221 -0.2176 -0.27450001 -0.93660003 0
-0.020215811 -0.034260288 0.34871206 255 255 255 -0.1882 -0.45199999 -0.87190002 0
-0.084492311 -0.037101272 0.35379595 255 233 218 -0.22130001 -0.70279998 -0.67610002 0
-0.10155906 -0.038217884 0.35709026 120 109 106 0.0121 -0.66949999 -0.74269998 0
-1.0623487 -0.22645091 1.918105 224 227 226 -0.0295 -0.3301 -0.94349998 0
0.17806515 -0.017610691 0.28206912 211 208 214 -0.26429999 -0.1609 -0.95090002 0
0.14895976 -0.022331297 0.3113445 131 126 132 -0.45469999 -0.1053 -0.88440001 0
0.14385739 -0.021656279 0.31618851 109 109 113 -0.6408 -0.0691 -0.76459998 0
0.14041735 -0.022525532 0.31567547 135 135 137 -0.56459999 0.1185 -0.8168 0
0.13301201 -0.023246683 0.32353309 190 189 192 -0.71270001 0.2642 -0.6498 0
0.12781432 -0.025051985 0.33875474 156 158 159 -0.48010001 -0.1726 -0.86000001 0
0.113802 -0.026013682 0.34227082 141 140 143 -0.1365 0.60600001 -0.78369999 0
0.10603485 -0.030358912 0.38591418 241 207 189 -0.1724 -0.45120001 -0.87559998 0
0.088626012 -0.030946918 0.38660574 234 200 182 -0.055799998 -0.58939999 -0.80589998 0
0.0840047 -0.031660795 0.38361031 204 163 147 0 0 0 0
0.072249442 -0.031056337 0.36521178 193 155 136 0.2656 -0.7295 -0.63029999 0
0.049382169 -0.029423937 0.34513262 253 220 197 0.1652 -0.49520001 -0.85290003 0
0.030086648 -0.030390013 0.34141552 248 210 189 0.097400002 -0.3603 -0.92769998 0
0.014699033 -0.030971413 0.34163988 255 255 237 0.036800001 -0.4086 -0.912 0
-0.00073372258 -0.031559072 0.34200862 255 243 227 -0.0832 -0.23729999 -0.96789998 0
-0.016484506 -0.033030931 0.34761918 255 255 255 -0.156 -0.43470001 -0.88700002 0
-0.051243264 -0.034439225 0.34419787 255 252 237 -0.25400001 -0.6875 -0.6803 0
-0.067654856 -0.035915691 0.34995255 255 242 223 -0.13240001 -0.67210001 -0.72850001 0
0.18121178 -0.016868111 0.28272578 190 188 189 0.075599998 -0.061700001 -0.99519998 0
0.17255296 -0.018210702 0.28860274 187 182 188 -0.49290001 -0.052299999 -0.86849999 0
0.16570631 -0.018519839 0.29316312 209 134 148 -0.59640002 0.2095 -0.7748 0
0.13513985 -0.021833934 0.32050806 172 173 179 -0.71829998 0.167 -0.67540002 0
0.11671254 -0.024806317 0.34094968 119 121 123 -0.098300003 0.37639999 -0.92119998 0
0.052955803 -0.028335638 0.34481812 242 208 192 0.2016 -0.53359997 -0.82130003 0
0.033678938 -0.029423542 0.34179693 255 247 230 0.1083 -0.3696 -0.92290002 0
0.018211929 -0.029899782 0.34138915 255 233 217 0.0026 -0.3734 -0.92769998 0
0.0028533682 -0.030511573 0.34186324 255 249 232 -0.1349 -0.2333 -0.963 0
-0.012663184 -0.031784859 0.34637597 255 255 245 -0.2834 -0.41580001 -0.8642 0
-0.028771864 -0.033010371 0.35069537 254 220 202 0.020400001 -0.60479999 -0.79610002 0
-0.046841182 -0.032716963 0.34031385 223 204 194 0.0713 -0.5808 -0.81089997 0
-0.063779235 -0.034664057 0.34876192 255 243 225 -0.197 -0.66289997 -0.72229999 0
-0.080248751 -0.035638344 0.35153982 255 242 225 -0.1883 -0.70029998 -0.68849999 0
-0.097746789 -0.03719398 0.35741138 177 160 150 -0.0174 -0.63529998 -0.77209997 0
0.17489763 -0.017207641 0.28764349 226 223 227 -0.6221 -0.0832 -0.77850002 0
0.15778211 -0.01865807 0.29675627 191 183 188 -0.24420001 0.19140001 -0.95069999 0
0.15141815 -0.019249372 0.30329552 255 255 255 -0.3689 -0.0151 -0.92930001 0
0.12960999 -0.023445895 0.33469483 101 97 103 -0.77600002 -0.27360001 -0.56819999 0
0.092036255 -0.029442487 0.38413358 236 203 184 -0.090899996 -0.58679998 -0.8046 0
0.037283003 -0.028527055 0.34263405 255 218 200 0.071699999 -0.36500001 -0.92820001 0
0.021849573 -0.028723871 0.34048763 255 252 235 -0.0017 -0.3141 -0.94940001 0
-0.043331757 -0.031872027 0.34131488 194 171 161 0.25139999 -0.546 -0.7992 0
-0.05962529 -0.033122301 0.34586126 255 255 235 -0.21950001 -0.65930003 -0.7191 0
-0.075857654 -0.034022942 0.34830442 255 248 231 -0.1224 -0.6656 -0.73619998 0
-0.093731351 -0.035915047 0.3562305 232 212 200 -0.25400001 -0.61809999 -0.74400002 0
-1.1345069 -0.22195649 1.9569274 230 230 230 0.18260001 -0.49219999 -0.85110003 0
0.17707844 -0.016169727 0.28637087 218 215 219 -0.70050001 -0.061500002 -0.71100003 0
0.16787516 -0.017447792 0.29187572 155 53 78 -0.60869998 0.1831 -0.77200001 0
0.16084446 -0.01776973 0.29674757 182 155 164 -0.23360001 0.27469999 -0.93269998 0
0.14450382 -0.019905098 0.31066689 126 125 132 -0.52100003 -0.081100002 -0.84969997 0
0.13788667 -0.02072297 0.31942949 132 134 138 -0.62400001 0.066299997 -0.77859998 0
0.11951967 -0.023539249 0.33917758 95 97 99 -0.41190001 0.2705 -0.87010002 0
0.095848806 -0.028178534 0.3832444 234 200 182 -0.0295 -0.56480002 -0.8247 0
0.056721874 -0.027458375 0.34580019 211 173 159 0.2412 -0.54299998 -0.80440003 0
0.0407531 -0.027345316 0.34168008 255 224 203 0.055399999 -0.3777 -0.92430001 0
0.0065262062 -0.029307298 0.34079078 255 255 240 -0.1375 -0.28490001 -0.94870001 0
-0.0089174202 -0.030422861 0.34439197 255 254 235 -0.32480001 -0.2379 -0.91540003 0
-0.02490323 -0.031760581 0.34949327 255 253 234 -0.1077 -0.50590003 -0.85579997 0
-0.089020222 -0.034191724 0.35248557 255 255 241 -0.31169999 -0.61250001 -0.72640002 0
0.16969565 -0.016277183 0.28982532 198 193 192 -0.56389999 0.1172 -0.8175 0
0.16387618 -0.016901487 0.29692402 168 85 104 -0.43529999 0.28650001 -0.85339999 0
0.15409334 -0.018254008 0.30271024 255 255 255 -0.41589999 -0.0374 -0.90859997 0
0.14559337 -0.018321119 0.30627319 113 110 118 -0.3865 0.2115 -0.89770001 0
0.1401688 -0.019495955 0.31756112 165 165 169 -0.55849999 -0.032299999 -0.82889998 0
0.13364312 -0.020410765 0.32739165 159 159 161 -0.68730003 0.0218 -0.72600001 0
0.13012399 -0.021320626 0.32694745 110 112 116 -0.71100003 -0.0283 -0.70270002 0
0.12149807 -0.021839462 0.33425722 139 141 145 -0.2384 0.377 -0.89499998 0
0.099589802 -0.026908191 0.38222325 235 202 183 -0.092799999 -0.52249998 -0.84759998 0
0.060520571 -0.026583342 0.34685966 213 177 162 0.21359999 -0.57010001 -0.79329997 0
0.044274848 -0.026314944 0.34167811 255 232 210 0.081699997 -0.3786 -0.92199999 0
0.025386402 -0.027595576 0.33984587 255 243 227 0.0027000001 -0.2316 -0.97280002 0
0.010130564 -0.028123502 0.33980945 255 250 234 -0.057999998 -0.3125 -0.94819999 0
-0.005291177 -0.028674304 0.34002033 255 235 217 -0.1591 -0.1245 -0.97939998 0
-0.021114254 -0.030371318 0.34737337 255 255 255 -0.1407 -0.43340001 -0.8901 0
-0.039847471 -0.030902704 0.34151033 210 180 169 0.18970001 -0.55720001 -0.80839998 0
-0.055643789 -0.031710375 0.34357211 255 255 253 -0.3136 -0.62889999 -0.71149999 0
-0.071787611 -0.032766502 0.34707782 255 250 229 -0.080200002 -0.65020001 -0.75550002 0
0.17766894 -0.014775749 0.28260481 185 180 184 -0.2321 0.0255 -0.97240001 0
0.17192581 -0.015233483 0.28857994 250 245 249 -0.54110003 0.0148 -0.8409 0
0.16617705 -0.015783105 0.29522455 208 120 130 -0.64480001 0.2234 -0.73089999 0
0.12478618 -0.020773774 0.33366394 159 159 161 -0.27590001 0.4325 -0.85839999 0
0.11795477 -0.022115013 0.34728557 106 104 105 -0.4551 0.86330003 -0.2183 0
0.06502834 -0.026263865 0.35156408 182 146 127 0.29069999 -0.62300003 -0.72619998 0
0.028973786 -0.026559046 0.33975625 255 225 206 0.0264 -0.2159 -0.97600001 0
0.013626384 -0.027158797 0.34017771 255 243 227 0.0062000002 -0.2899 -0.95700002 0
-0.0017348317 -0.027769284 0.34074908 255 245 230 -0.1604 -0.088299997 -0.9831 0
-0.017362898 -0.029082516 0.34580162 255 255 255 -0.20200001 -0.38429999 -0.90090001 0
-0.067835569 -0.031457089 0.34544864 255 246 227 -0.1432 -0.6419 -0.75330001 0
-0.084474139 -0.032583684 0.34925652 255 255 246 -0.2863 -0.61360002 -0.73589998 0
-0.10170527 -0.033862606 0.35372648 146 132 119 0.2626 -0.59200001 -0.76190001 0
0.1812966 -0.014089601 0.28354666 218 215 219 0.0748 0.19949999 -0.977 0
0.15454371 -0.016643841 0.29797196 254 253 255 -0.2411 0.038899999 -0.96969998 0
0.14879175 -0.017430317 0.30638635 165 165 169 -0.43000001 0.32350001 -0.84289998 0
0.14253129 -0.018285392 0.31558663 172 169 172 -0.65450001 -0.043900002 -0.75480002 0
0.11499865 -0.022889934 0.36478251 249 213 200 -0.46650001 0.5399 -0.70060003 0
0.10284159 -0.025428306 0.37971267 241 207 191 -0.2042 -0.47600001 -0.85540003 0
0.073092639 -0.024829045 0.35628113 191 153 134 0.3928 -0.68309999 -0.61559999 0
0.069024295 -0.025538808 0.35382178 188 152 136 0.41280001 -0.69730002 -0.58600003 0
0.047918662 -0.025311504 0.34180853 255 223 200 0.1138 -0.38420001 -0.91619998 0
0.032581478 -0.025616465 0.3402966 255 230 210 0.0515 -0.24250001 -0.96880001 0
-0.013573119 -0.027773933 0.34407774 255 255 255 -0.26730001 -0.31110001 -0.912 0
-0.051062841 -0.029757937 0.33799884 209 195 186 -0.2131 -0.51740003 -0.82880002 0
-0.098081321 -0.032935902 0.35464227 209 193 183 -0.048500001 -0.58530003 -0.80940002 0
0.1742751 -0.014241089 0.28762305 212 209 213 -0.6408 0.0089999996 -0.76770002 0
0.16731925 -0.014471586 0.29220298 198 102 121 -0.69400001 0.23010001 -0.68220001 0
0.15728873 -0.015692789 0.29762363 255 255 255 -0.1954 0.30739999 -0.93129998 0
0.15065917 -0.016142366 0.30371699 118 115 120 -0.361 0.2122 -0.90810001 0
0.13538703 -0.018863404 0.32311907 88 88 88 -0.685 -0.032600001 -0.72780001 0
0.12696014 -0.019376898 0.3307099 70 67 73 -0.49529999 0.45269999 -0.7414 0
0.12064297 -0.020705 0.34438831 95 91 90 -0.53060001 0.67940003 -0.50690001 0
0.10623768 -0.024031565 0.37763971 250 217 196 -0.30430001 -0.37439999 -0.87589997 0
0.090029955 -0.02492602 0.3804315 211 177 161 -0.023800001 -0.64910001 -0.76029998 0
0.078031115 -0.024596307 0.36199325 181 145 127 0.37029999 -0.7008 -0.60970002 0
0.051492486 -0.024316486 0.34204164 244 207 183 0.1332 -0.40419999 -0.90490001 0
0.036133133 -0.024633532 0.34055799 255 222 203 0.068599999 -0.25420001 -0.96469998 0
0.017151428 -0.026100619 0.33992645 255 237 219 0.059999999 -0.2563 -0.96469998 0
0.0017655388 -0.026696673 0.34039029 255 246 231 -0.244 -0.1125 -0.96319997 0
-0.04727193 -0.028537439 0.33670136 170 149 138 0.0309 -0.4905 -0.87089998 0
-0.063968182 -0.03019198 0.34397918 255 255 241 -0.1839 -0.6268 -0.75709999 0
-0.080024563 -0.030998217 0.3459945 255 255 242 -0.19419999 -0.57920003 -0.79170001 0
-0.09351892 -0.031396538 0.35179445 255 254 239 -0.31189999 -0.56510001 -0.76380002 0
0.16061355 -0.014837765 0.29775962 131 127 135 -0.19679999 0.31940001 -0.92699999 0
0.14272805 -0.016414192 0.30897656 81 81 83 -0.58429998 0.069399998 -0.80860001 0
0.13747491 -0.01753135 0.32044801 95 94 102 -0.56669998 -0.1126 -0.81620002 0
0.12324223 -0.019292576 0.34137437 115 114 119 -0.2168 0.59539998 -0.77359998 0
0.1166468 -0.020921361 0.35805821 254 221 200 -0.1798 0.6613 -0.72829998 0
0.1100377 -0.022824448 0.37689897 247 218 191 -0.44600001 -0.2242 -0.86650002 0
0.093969747 -0.023771485 0.38022611 216 183 167 0.061700001 -0.55409998 -0.8301 0
0.083704218 -0.024611883 0.37016347 178 140 119 0.35890001 -0.79509997 -0.48890001 0
0.055167332 -0.023381639 0.34267813 244 209 184 0.1771 -0.43309999 -0.88380003 0
0.039660312 -0.023612693 0.34061113 255 229 207 0.073100001 -0.26089999 -0.96259999 0
0.020832954 -0.025061376 0.33984557 255 235 221 0.063699998 -0.1971 -0.97829998 0
0.0053897398 -0.025530921 0.33946583 255 250 237 -0.1832 -0.1736 -0.96759999 0
-0.010000792 -0.026417632 0.34192252 255 255 239 -0.1988 -0.15700001 -0.96740001 0
-0.025706587 -0.027504558 0.34577894 255 231 213 0.0119 -0.57099998 -0.82090002 0
-0.044027343 -0.027876357 0.33879459 190 167 154 0.235 -0.4709 -0.85030001 0
-0.059877656 -0.028749792 0.34138587 255 255 255 -0.236 -0.5844 -0.77640003 0
-0.076009862 -0.029694406 0.34438166 255 255 235 -0.13779999 -0.5862 -0.79830003 0
0.17575039 -0.013076242 0.28533953 199 197 200 -0.63880002 0.0111 -0.76929998 0
0.16938549 -0.013401503 0.29078555 177 82 103 -0.5517 0.27180001 -0.78850001 0
0.16344461 -0.013903965 0.29742381 158 153 157 -0.28929999 0.30039999 -0.90890002 0
0.15202343 -0.014768615 0.3003093 255 255 255 -0.31810001 -0.1426 -0.93730003 0
0.14632721 -0.015587635 0.30961233 166 166 170 -0.34200001 0.18629999 -0.92110002 0
0.058852889 -0.022454232 0.34335297 239 202 180 0.16410001 -0.48359999 -0.85979998 0
0.024415279 -0.024025397 0.33977586 255 233 216 0.023499999 -0.138 -0.99019998 0
0.0090207066 -0.024459878 0.33913767 255 250 234 -0.1095 -0.2 -0.97369999 0
-0.0062959408 -0.025356162 0.34170586 255 237 217 -0.1041 -0.073200002 -0.99190003 0
-0.022096995 -0.026520398 0.34608257 255 238 219 -0.0243 -0.53789997 -0.8427 0
-0.040643279 -0.02683031 0.33849183 218 186 174 0.1014 -0.5011 -0.85939997 0
-0.056153703 -0.027423086 0.33938888 255 255 253 -0.3195 -0.54409999 -0.77579999 0
-0.07219936 -0.028540015 0.34359291 255 250 228 -0.1104 -0.57370001 -0.81160003 0
-0.088955656 -0.029769819 0.34823456 255 255 255 -0.34560001 -0.55620003 -0.75580001 0
-1.0918461 -0.19026741 1.9114114 228 228 228 -0.1244 0.033399999 -0.99169999 0
0.17724393 -0.011912165 0.28299025 229 226 229 -0.26980001 0.096199997 -0.95810002 0
0.17196938 -0.012490128 0.29051533 172 116 124 -0.53280002 0.2482 -0.80900002 0
0.15474813 -0.013805873 0.29990122 255 255 255 -0.059799999 0.091700003 -0.99400002 0
0.14951603 -0.014668183 0.3096278 182 181 184 -0.20370001 0.1188 -0.97180003 0
0.13927172 -0.016151965 0.31725949 123 120 123 -0.61019999 0.076200001 -0.78850001 0
0.13243283 -0.016955698 0.32707679 128 126 129 0.02 -0.079999998 -0.99659997 0
0.1268108 -0.018305983 0.34151626 120 119 124 0.2349 0.30970001 -0.92140001 0
0.11289302 -0.021272263 0.37347153 255 223 200 -0.41850001 -0.090000004 -0.90369999 0
0.097730473 -0.022532878 0.3793492 227 191 174 0.0177 -0.51800001 -0.85519999 0
0.062590092 -0.021517422 0.34399283 233 197 180 0.19750001 -0.5223 -0.82959998 0
0.043119151 -0.022577196 0.34053349 255 226 207 0.024 -0.2475 -0.96859998 0
0.028063184 -0.023002699 0.33978447 255 227 208 -0.019200001 -0.1646 -0.98619998 0
0.012667899 -0.023365906 0.33861423 255 244 230 -0.0119 -0.1622 -0.9867 0
-0.0027609407 -0.024475431 0.3426494 255 238 223 -0.192 -0.041900001 -0.98049998 0
-0.018388435 -0.025368176 0.34527558 255 255 251 -0.0396 -0.4668 -0.88349998 0
-0.084786646 -0.028362086 0.34594461 255 255 255 -0.31279999 -0.5442 -0.77850002 0
-0.10178661 -0.029628467 0.35078791 187 172 156 0.31009999 -0.4962 -0.81099999 0
0.16611059 -0.012907979 0.29650849 150 106 112 -0.47440001 0.068700001 -0.87760001 0
0.15789478 -0.012933834 0.30005556 255 255 255 -0.20200001 0.1039 -0.97390002 0
0.14167468 -0.014972871 0.31550133 149 147 150 -0.68589997 0.1761 -0.70599997 0
0.13009124 -0.017212046 0.34085757 177 177 179 -0.212 0.047699999 -0.97610003 0
0.1165842 -0.020082032 0.37270451 255 228 205 -0.3768 0.1927 -0.90600002 0
0.10141405 -0.021337235 0.37876716 220 184 167 -0.1157 -0.43579999 -0.8926 0
0.066090599 -0.020474486 0.34384894 230 194 176 0.19750001 -0.53579998 -0.82090002 0
0.046662163 -0.021474378 0.33997172 246 209 185 0.033399999 -0.25299999 -0.96689999 0
0.031559575 -0.021983504 0.3397963 255 219 198 -0.013 -0.1851 -0.98259997 0
-0.05177132 -0.025824802 0.33568266 233 215 210 -0.2192 -0.45140001 -0.86500001 0
-0.068206273 -0.027253041 0.34192744 255 255 241 -0.1613 -0.56800002 -0.8071 0
-0.098329149 -0.028705543 0.35162526 208 187 176 -0.064400002 -0.51959997 -0.852 0
0.17365763 -0.011335656 0.28820261 203 198 202 -0.71109998 0.1476 -0.68739998 0
0.16763438 -0.011716358 0.294305 192 112 123 -0.61979997 -0.0127 -0.78460002 0
0.15007611 -0.013092007 0.30457354 189 188 191 -0.1035 -0.131 -0.986 0
0.13338691 -0.015202788 0.32098427 116 115 124 -0.45519999 -0.41240001 -0.78909999 0
0.13420442 -0.016347861 0.34158951 148 145 149 -0.3707 -0.17829999 -0.91149998 0
0.11986443 -0.018751364 0.37079391 255 230 208 -0.1961 0.28 -0.93980002 0
0.10492774 -0.020005265 0.37701675 255 228 207 -0.15719999 -0.36570001 -0.9174 0
0.050264925 -0.02050329 0.34033439 248 210 189 0.0867 -0.28420001 -0.95490003 0
0.034972951 -0.020825438 0.33883384 255 218 197 0.063199997 -0.1736 -0.98280001 0
0.016226672 -0.02220838 0.33767518 255 236 221 0.1052 -0.1106 -0.98830003 0
0.00080745388 -0.02309249 0.3401894 255 226 212 -0.2933 -0.078400001 -0.95279998 0
-0.014592484 -0.024140449 0.34393448 255 255 255 -0.1031 -0.3346 -0.93669999 0
-0.047925711 -0.024627436 0.33439791 176 158 153 0.073700003 -0.34940001 -0.93409997 0
-0.064246431 -0.025942447 0.34003705 255 255 240 -0.21089999 -0.54720002 -0.81 0
-0.080285877 -0.026807932 0.34264246 255 255 251 -0.2278 -0.54100001 -0.8096 0
-1.0970218 -0.17210197 1.8769774 232 232 232 -0.30680001 -0.0206 -0.95160002 0
0.17480148 -0.010101556 0.28530613 194 191 194 -0.67659998 0.0449 -0.73500001 0
0.16063577 -0.011929347 0.29908395 158 158 162 -0.18520001 0.073200002 -0.98000002 0
0.14344493 -0.013622555 0.31229311 111 115 120 -0.59329998 0.2271 -0.7723 0
0.13600756 -0.014064073 0.31953368 167 169 173 -0.53460002 -0.26140001 -0.80369997 0
0.1352666 -0.014617042 0.33600602 143 142 147 -0.37450001 -0.191 -0.9073 0
0.12346897 -0.017562188 0.36990336 255 246 223 -0.35069999 0.079400003 -0.93309999 0
0.10865904 -0.018755972 0.37578857 255 223 197 -0.24789999 -0.30930001 -0.9181 0
0.070349075 -0.019914329 0.34730786 166 129 107 0.25369999 -0.58789998 -0.76810002 0
0.053860247 -0.01951888 0.34059832 248 210 187 0.1023 -0.34279999 -0.93379998 0
0.019806975 -0.021356773 0.3388471 255 232 218 0.1035 -0.071400002 -0.9921 0
0.0044315145 -0.021920241 0.33914918 255 233 221 -0.2041 -0.063900001 -0.97689998 0
-0.010813559 -0.02281075 0.34187523 255 255 238 -0.0515 -0.1805 -0.98220003 0
-0.044466119 -0.023814522 0.33559385 176 158 146 0.212 -0.33090001 -0.91949999 0
-0.060248189 -0.024594592 0.33782274 255 255 255 -0.24330001 -0.486 -0.83939999 0
-0.076418281 -0.025623605 0.34159312 255 255 238 -0.14380001 -0.5438 -0.82679999 0
-0.094025992 -0.027287332 0.34928891 255 245 231 -0.33970001 -0.52880001 -0.77780002 0
0.17722532 -0.0091613457 0.28451428 205 202 206 -0.2987 -0.032900002 -0.95380002 0
0.16893516 -0.010484045 0.29153824 177 119 136 -0.34900001 0.014 -0.93699998 0
0.16299212 -0.010892231 0.29798424 113 111 112 -0.1389 0.026000001 -0.99000001 0
0.14962566 -0.011287628 0.29759511 170 162 171 -0.29879999 0.1973 -0.93370003 0
0.14673713 -0.012709865 0.31234875 145 142 147 -0.27720001 -0.0012000001 -0.96079999 0
0.091813952 -0.019256104 0.37572068 194 156 137 0.1987 -0.54229999 -0.81639999 0
0.078569882 -0.018407904 0.35160094 164 124 104 0.3294 -0.6455 -0.68910003 0
0.07466723 -0.019270821 0.3502363 190 155 135 0.2061 -0.70160002 -0.6821 0
0.057324037 -0.018474769 0.34043384 255 221 197 0.066200003 -0.4237 -0.9034 0
0.038595617 -0.019873684 0.33932799 255 220 196 0.092699997 -0.14650001 -0.98479998 0
0.023455095 -0.020397753 0.33927405 255 230 213 0.0094999997 -0.068499997 -0.99760002 0
0.0079532741 -0.020786097 0.338303 255 246 234 -0.15700001 -0.043299999 -0.98659998 0
-0.0071742213 -0.021796411 0.34192142 255 245 226 -0.0189 -0.067000002 -0.99760002 0
-0.04123877 -0.02289949 0.33608881 221 192 179 0.087899998 -0.3583 -0.92949998 0
-0.089191206 -0.025595002 0.34505418 255 255 255 -0.36899999 -0.52520001 -0.76679999 0
-1.0925225 -0.16870669 1.9023908 226 226 226 -0.1838 -0.21349999 -0.95950001 0
0.17123717 -0.0094887251 0.29052347 214 207 212 -0.3872 0.030300001 -0.92150003 0
0.16548972 -0.0098799262 0.29699758 153 73 91 -0.33250001 -0.0363 -0.94239998 0
0.15400562 -0.010734327 0.30030224 255 255 255 -0.0381 0.090800002 -0.99510002 0
0.14999124 -0.01181138 0.31260362 155 154 159 -0.0221 -0.32440001 -0.94569999 0
0.13798866 -0.012727779 0.31638625 95 94 104 -0.57059997 0.1097 -0.81389999 0
0.12668434 -0.015024956 0.34378201 9 6 27 0.0016 -0.024900001 -0.99970001 0
0.12609215 -0.01605024 0.3663215 255 243 222 -0.42640001 -0.0337 -0.90390003 0
0.11191967 -0.017401911 0.37369868 255 229 208 -0.2852 -0.2377 -0.9285 0
0.09586598 -0.018225703 0.37644204 203 165 148 0.1104 -0.4984 -0.8599 0
0.042070828 -0.018848568 0.33930916 245 208 184 -0.0057999999 -0.1428 -0.98970002 0
0.026991766 -0.019368937 0.33921355 255 226 207 -0.081200004 -0.1196 -0.98949999 0
-0.0038393303 -0.020823851 0.34225947 255 242 227 -0.2098 -0.096000001 -0.97299999 0
-0.056658618 -0.023458026 0.33686441 255 255 254 -0.2669 -0.42030001 -0.86720002 0
-0.072757296 -0.024517404 0.34098202 255 251 230 -0.1231 -0.55080003 -0.82550001 0
-0.10231262 -0.025629492 0.3489525 183 164 157 0.3813 -0.4779 -0.7913 0
-0.10511223 -0.026095854 0.34500971 112 105 107 0.2193 -0.53320003 -0.81709999 0
-1.0779692 -0.1645425 1.9140714 229 229 229 0.0068000001 -0.1005 -0.99489999 0
0.18025526 -0.0083635692 0.28483742 226 224 225 0.037300002 -0.022700001 -0.99900001 0
0.17286484 -0.0083307996 0.28800082 214 207 210 -0.6376 -0.0187 -0.7701 0
0.15741819 -0.00992906 0.30103353 255 255 255 -0.2332 -0.061999999 -0.97039998 0
0.14107126 -0.011762823 0.31614405 143 142 147 -0.048799999 0.55519998 -0.83029997 0
0.13034678 -0.014082728 0.34438255 16 15 36 -0.2165 -0.087700002 -0.97229999 0
0.12719297 -0.014136638 0.35867727 255 239 226 -0.49489999 -0.1244 -0.86000001 0
0.1154517 -0.016162304 0.37244964 255 236 215 -0.27169999 -0.1525 -0.95020002 0
0.099740759 -0.017100736 0.37634414 216 179 164 0.052499998 -0.44310001 -0.89490002 0
0.060859658 -0.017453831 0.34040272 246 209 185 0.1137 -0.4578 -0.8818 0
0.045511376 -0.017745042 0.33867657 235 195 175 -0.0407 -0.17219999 -0.9842 0
0.030436803 -0.018234752 0.33835191 255 219 198 -0.076200001 -0.1429 -0.98680001 0
0.011580504 -0.019598456 0.33706623 255 239 224 -0.051100001 0.0189 -0.99849999 0
-0.019278474 -0.021329559 0.34236112 255 230 215 0.092 -0.41350001 -0.90579998 0
-0.037604988 -0.021811228 0.33543158 255 240 221 -0.0337 -0.35210001 -0.93540001 0
-0.05261337 -0.022054195 0.33410484 218 201 191 -0.1936 -0.39210001 -0.89929998 0
-0.068594337 -0.023190713 0.3389059 255 255 244 -0.1481 -0.51819998 -0.8423 0
-0.085127063 -0.024286455 0.34319034 255 255 255 -0.29699999 -0.52960002 -0.79460001 0
-1.0754274 -0.16141841 1.9454378 226 226 226 -0.0206 -0.421 -0.90679997 0
0.16690403 -0.0086912578 0.29446891 189 113 118 -0.5399 -0.33140001 -0.77380002 0
0.13342194 -0.012936162 0.34321204 12 13 33 -0.3141 -0.18870001 -0.93049997 0
0.11900664 -0.01495577 0.37144032 255 240 216 -0.26269999 -0.1032 -0.9594 0
0.10347175 -0.015884046 0.37535241 216 179 164 -0.039799999 -0.38029999 -0.92400002 0
0.064541042 -0.01648378 0.34079355 255 223 198 0.1539 -0.47530001 -0.86629999 0
0.049065176 -0.016730249 0.33867797 255 217 194 -0.003 -0.2138 -0.97689998 0
0.03397762 -0.017184285 0.33812723 249 211 190 0.041900001 -0.1153 -0.99239999 0
0.015151459 -0.018685883 0.33783263 255 228 211 0.1001 0.076399997 -0.99199998 0
-0.00014697181 -0.019455198 0.33973658 255 228 213 -0.3179 -0.1197 -0.94050002 0
-0.015613245 -0.020258285 0.3420243 255 255 247 0.092 -0.30790001 -0.94700003 0
-0.048989605 -0.020971175 0.33346191 185 170 161 0.021600001 -0.36649999 -0.93019998 0
-0.064806409 -0.022025649 0.33780441 255 255 238 -0.17020001 -0.48609999 -0.85720003 0
-0.080917403 -0.022927534 0.34092471 255 255 255 -0.22239999 -0.53920001 -0.81230003 0
-0.098552123 -0.024539523 0.34865701 229 206 198 -0.1432 -0.48719999 -0.86150002 0
0.174978 -0.0073390417 0.28686231 182 178 179 -0.6692 -0.1144 -0.7342 0
0.15967174 -0.008834199 0.29925334 174 171 174 -0.18080001 -0.038199998 -0.98280001 0
0.068002895 -0.01555207 0.34148085 242 208 183 0.1779 -0.51249999 -0.83999997 0
0.052693292 -0.015773516 0.33915293 255 218 197 -0.0020000001 -0.294 -0.9558 0
0.018815866 -0.017828258 0.33903143 255 227 210 0.1011 0.073100001 -0.99220002 0
0.0035198184 -0.018330976 0.33893961 255 236 223 -0.1874 -0.0427 -0.98140001 0
-0.012050061 -0.01920134 0.34173864 255 254 232 0.0735 -0.1455 -0.98659998 0
-0.04554484 -0.02012876 0.33453882 163 144 137 0.2085 -0.29949999 -0.93099999 0
-0.094214216 -0.023140769 0.34619829 255 252 239 -0.35859999 -0.51450002 -0.77890003 0
-0.51852113 -0.10230042 1.4623123 47 45 55 0.3089 -0.8671 -0.39070001 0
0.16874428 -0.007601589 0.29273573 207 182 193 -0.28099999 -0.37029999 -0.8854 0
0.16246054 -0.0078593399 0.29846668 130 73 90 -0.048900001 0.0048000002 -0.99879998 0
0.15615316 -0.0082695158 0.30606097 235 235 237 -0.23639999 0.1073 -0.96569997 0
0.1357276 -0.011560054 0.33991823 21 22 45 -0.29660001 -0.1245 -0.94690001 0
0.12622985 -0.011607332 0.34538305 70 72 117 0.037999999 -0.1278 -0.99110001 0
0.12244487 -0.013724116 0.37013552 255 252 229 -0.38170001 -0.1188 -0.91659999 0
0.1071836 -0.014690822 0.37456635 250 217 196 -0.148 -0.32550001 -0.9339 0
0.071506776 -0.014547756 0.34159565 227 191 176 0.1178 -0.57069999 -0.81269997 0
0.037575237 -0.016282957 0.33904192 238 201 179 0.1237 -0.082500003 -0.98890001 0
0.022480259 -0.016762393 0.33866686 255 227 210 -0.041200001 0.0055999998 -0.99910003 0
0.0070309825 -0.017241566 0.33838892 255 226 214 -0.1112 0.033599999 -0.9932 0
-0.0085598435 -0.018073572 0.34089416 255 241 223 -0.025699999 -0.072300002 -0.99699998 0
-0.060882755 -0.020726882 0.3356925 255 255 255 -0.2184 -0.44620001 -0.86790001 0
-0.076924019 -0.021671945 0.33923167 255 255 245 -0.15899999 -0.52600002 -0.8355 0
0.17700955 -0.0063218446 0.28530911 179 174 178 -0.38699999 -0.2229 -0.89469999 0
0.17180382 -0.0067695612 0.29311338 211 204 206 -0.2534 -0.30379999 -0.91839999 0
0.1668866 -0.00728537 0.30139154 141 53 73 -0.27489999 -0.055 -0.95990002 0
0.1386811 -0.010425617 0.33872715 62 61 86 -0.2042 0.1496 -0.96740001 0
0.12568808 -0.012452937 0.36834255 255 255 238 -0.43630001 -0.1452 -0.88800001 0
0.11053903 -0.013423684 0.37304485 255 225 203 -0.22040001 -0.2667 -0.9382 0
0.094059929 -0.013950098 0.37333721 160 117 100 0.19239999 -0.49829999 -0.84539998 0
0.079166904 -0.012649502 0.34273568 176 136 115 0.63730001 -0.40700001 -0.65429997 0
0.075080834 -0.013488782 0.34119621 171 131 111 0.2823 -0.59079999 -0.75580001 0
0.056140773 -0.014743528 0.33902618 233 193 163 -0.037 -0.3757 -0.926 0
0.041125376 -0.015313151 0.33943564 224 181 166 -0.0065000001 -0.106 -0.99430001 0
0.025933627 -0.015735226 0.33860368 255 217 198 -0.1656 -0.082599998 -0.98269999 0
-0.004917291 -0.017203944 0.34208396 255 240 222 -0.2304 -0.095600002 -0.9684 0
-0.023622582 -0.018230114 0.33850542 217 185 175 -0.13680001 -0.24070001 -0.96090001 0
-0.042185668 -0.019188294 0.33486626 231 206 192 0.1745 -0.2581 -0.95020002 0
-0.057224974 -0.019569717 0.33451059 255 255 250 -0.2167 -0.4163 -0.88300002 0
-0.073177904 -0.020522108 0.3381992 255 253 234 -0.1295 -0.52399999 -0.84179997 0
-0.089549951 -0.021586858 0.34254673 255 255 255 -0.36179999 -0.50050002 -0.78649998 0
-1.0747838 -0.14262012 1.898802 229 229 229 -0.082800001 0.024900001 -0.99629998 0
0.17930257 -0.005368059 0.2842772 182 177 181 -0.1292 -0.2324 -0.96399999 0
0.17386775 -0.0057194908 0.29143593 181 176 178 -0.35789999 -0.26050001 -0.89670002 0
0.14127482 -0.0092241103 0.33684495 40 38 66 -0.31240001 0.259 -0.91399997 0
0.12849241 -0.010222878 0.34192795 11 11 40 -0.25220001 -0.30579999 -0.9181 0
0.1288131 -0.011156162 0.36623716 255 255 238 -0.4754 -0.13689999 -0.86900002 0
0.11410043 -0.012216487 0.37198946 255 228 206 -0.1926 -0.2193 -0.95649999 0
0.098039202 -0.012929044 0.37408879 196 155 137 0.1419 -0.42879999 -0.89219999 0
0.059508275 -0.013656548 0.33840486 255 233 212 0.021 -0.45210001 -0.89170003 0
0.044623602 -0.014233801 0.33893317 253 216 192 -0.107 -0.1705 -0.9795 0
0.029404223 -0.014671304 0.33825746 251 216 193 -0.13789999 -0.1619 -0.97710001 0
0.010575132 -0.016093679 0.33734065 255 229 216 -0.0173 0.1085 -0.9939 0
-0.020120557 -0.017340507 0.33942941 228 189 173 0.1892 -0.098200001 -0.977 0
-0.053404976 -0.01833158 0.3326939 239 218 211 -0.12639999 -0.3662 -0.92189997 0
-0.069218159 -0.019299265 0.33664 255 255 241 -0.1197 -0.50129998 -0.85699999 0
-0.085359648 -0.020249156 0.34026167 255 255 255 -0.2872 -0.48140001 -0.82810003 0
-0.10270546 -0.021586837 0.34645247 165 146 134 0.37459999 -0.49160001 -0.78609997 0
-0.10441152 -0.021707121 0.33989346 108 98 101 0.2753 -0.38940001 -0.87889999 0
-1.0770358 -0.14032264 1.9392484 227 227 227 -0.0471 0.42660001 -0.90319997 0
0.1557156 -0.0065926057 0.29903758 107 111 117 -0.3348 0.1045 -0.93650001 0
0.14826876 -0.0067485883 0.30464715 137 139 143 -0.085600004 -0.1793 -0.98009998 0
0.13190906 -0.0091992579 0.34180012 21 24 48 -0.26350001 -0.26230001 -0.92830002 0
0.11784105 -0.011077177 0.37152824 255 244 221 -0.18700001 -0.1873 -0.96429998 0
0.086826645 -0.01356962 0.35984281 160 119 101 0.70850003 -0.2482 -0.66060001 0
0.063115515 -0.012699986 0.33887064 255 231 207 0.099399999 -0.50239998 -0.85890001 0
0.048101518 -0.013155905 0.33842033 255 231 212 -0.089400001 -0.24250001 -0.96600002 0
0.014156324 -0.015194472 0.33828223 255 224 208 0.084700003 0.154 -0.98439997 0
-0.0011525576 -0.015924988 0.34006494 255 232 215 -0.29969999 -0.1285 -0.9454 0
-0.01658142 -0.016473921 0.34058008 255 237 220 0.22840001 -0.0407 -0.9727 0
-0.099134974 -0.020556696 0.3465322 230 204 193 -0.085100003 -0.5176 -0.85140002 0
-1.1669657 -0.14275417 1.939127 225 225 225 -0.38659999 -0.70529997 -0.59429997 0
0.17444623 -0.0044333823 0.2874729 146 138 143 -0.49450001 -0.1166 -0.86129999 0
0.16619664 -0.0056647328 0.29465798 112 96 101 -0.74559999 -0.27489999 -0.60699999 0
0.15789717 -0.0055408822 0.29758224 130 129 136 -0.1552 0.081600003 -0.98449999 0
0.1282623 -0.0088729542 0.35433799 239 209 196 -0.44190001 -0.2507 -0.86129999 0
0.10173628 -0.011741009 0.37325147 201 163 146 0.1089 -0.36269999 -0.92549998 0
0.066635117 -0.01178555 0.33973938 255 224 201 0.097400002 -0.5539 -0.82679999 0
0.051607277 -0.012132815 0.33832175 255 228 207 -0.063199997 -0.317 -0.94630003 0
0.033034764 -0.013642863 0.33813554 236 205 186 0.024700001 -0.21600001 -0.97610003 0
0.017751241 -0.014315938 0.33941293 254 214 195 0.059999999 0.1086 -0.99229997 0
0.0024701208 -0.014746678 0.33877507 255 234 221 -0.1268 -0.0568 -0.9903 0
-0.013030846 -0.015520482 0.34108195 255 231 212 0.1101 -0.0184 -0.99370003 0
-0.028536424 -0.016271768 0.34340021 103 115 111 -0.1242 -0.2069 -0.97049999 0
-0.049735304 -0.017276723 0.3321678 173 160 155 0.0229 -0.3536 -0.93510002 0
-0.06553597 -0.018226771 0.33610621 255 255 233 -0.15700001 -0.48769999 -0.85879999 0
-0.081195794 -0.018923964 0.33798188 255 255 252 -0.2274 -0.46110001 -0.85769999 0
-1.1367722 -0.1357442 1.9232763 228 228 228 -0.14820001 -0.55680001 -0.81730002 0
0.1670267 -0.0043806555 0.29088822 150 143 148 -0.26910001 -0.37450001 -0.88730001 0
0.16097797 -0.0046469006 0.29747567 109 110 117 0.0185 0.090999998 -0.9957 0
0.150824 -0.0057275575 0.30349308 164 163 168 -0.1644 0.1849 -0.96890002 0
0.14577405 -0.0066690398 0.3311128 7 11 30 -0.7974 0.44729999 -0.40509999 0
0.13457991 -0.007979881 0.33969977 14 16 43 -0.18880001 -0.1758 -0.96609998 0
0.12131948 -0.0098480759 0.37006152 255 251 226 -0.3346 -0.18709999 -0.92360002 0
0.10575604 -0.010695064 0.373799 223 191 177 -0.079300001 -0.28009999 -0.95670003 0
0.070235446 -0.010728611 0.33930117 255 221 199 0.0581 -0.59600002 -0.80089998 0
0.036596421 -0.012695194 0.33871257 223 190 174 0.14560001 -0.228 -0.96270001 0
0.021416502 -0.013258045 0.33910081 236 192 168 -0.121 -0.0076000001 -0.99260002 0
0.0061016162 -0.013808072 0.33944246 255 230 216 -0.021 0.067699999 -0.9975 0
-0.0094912359 -0.014590341 0.34181914 255 240 222 -0.082800001 -0.102 -0.99129999 0
-0.046442483 -0.016375808 0.33272803 157 142 135 0.2271 -0.2667 -0.93660003 0
-0.06169739 -0.017016795 0.33447817 255 255 250 -0.17649999 -0.4375 -0.88169998 0
-0.077087015 -0.017626403 0.3358061 255 255 255 -0.19490001 -0.43439999 -0.87940001 0
-0.094435915 -0.019088596 0.34334797 255 255 255 -0.34619999 -0.47229999 -0.81059998 0
-1.0955793 -0.12676841 1.8880082 227 227 227 0.1256 -0.28049999 -0.95160002 0
0.17528448 -0.0032146499 0.28389665 120 112 119 -0.46439999 -0.0094999997 -0.88559997 0
0.16409063 -0.0038036208 0.2978577 163 157 161 -0.2414 0.037700001 -0.96969998 0
0.15459794 -0.0049534864 0.30457553 161 157 166 -0.2429 0.18709999 -0.95179999 0
0.138108 -0.0069706934 0.33958703 20 22 51 -0.0263 0.040600002 -0.99879998 0
0.12450165 -0.0085768262 0.36811554 255 255 233 -0.4411 -0.2016 -0.87449998 0
0.10903858 -0.0094001908 0.37175608 244 211 193 -0.16240001 -0.25650001 -0.95279998 0
0.05494659 -0.011018234 0.33741671 255 227 206 -0.093000002 -0.36790001 -0.92519999 0
0.040115904 -0.011688886 0.33883342 212 170 152 0.031199999 -0.31920001 -0.9472 0
0.025021393 -0.01221226 0.33885604 255 229 209 -0.2466 -0.16 -0.9558 0
0.0096565513 -0.012664002 0.33837122 255 227 213 0.0319 0.13699999 -0.99010003 0
-0.005771989 -0.01361953 0.34227049 255 242 222 -0.2331 -0.1137 -0.96579999 0
-0.024611086 -0.014608756 0.33812466 139 132 119 -0.095200002 -0.081900001 -0.9921 0
-0.043025471 -0.015447034 0.33322394 198 168 156 0.2994 -0.1797 -0.93699998 0
-0.057847358 -0.015792048 0.33262071 255 255 255 -0.1621 -0.38929999 -0.90670002 0
-0.073324814 -0.016480995 0.33466038 255 255 246 -0.1585 -0.4267 -0.89039999 0
-0.089695759 -0.017568216 0.33961645 255 255 255 -0.37110001 -0.39669999 -0.83960003 0
-1.0946438 -0.12399997 1.922218 228 228 228 0.096299998 0.47049999 -0.87709999 0
0.17748065 -0.0022528809 0.28255284 150 145 147 -0.32699999 0.075900003 -0.94199997 0
0.16947119 -0.0034591155 0.29033542 129 128 133 -0.1556 -0.34619999 -0.92519999 0
0.14932303 -0.0039144713 0.30803365 120 120 122 -0.1568 0.2414 -0.95770001 0
0.14786565 -0.0053908085 0.32802901 22 28 46 -0.82779998 0.4201 -0.37180001 0
0.14178321 -0.0060027381 0.33987254 18 23 51 -0.0995 0.2318 -0.9677 0
0.12711708 -0.0065411679 0.34084138 58 63 103 -0.2624 -0.36179999 -0.89459997 0
0.12764882 -0.0073123253 0.36610702 255 255 239 -0.4479 -0.1327 -0.88419998 0
0.11275441 -0.0082708988 0.37137452 254 221 198 -0.1573 -0.2133 -0.96420002 0
0.073798344 -0.0096809678 0.33892348 208 168 152 0.1602 -0.5952 -0.78740001 0
