ply
format ascii 1.0
comment PCL generated
element vertex 594
property float x
property float y
property float z
property uchar red
property uchar green
property uchar blue
property float nx
property float ny
property float nz
property float curvature
element camera 0
property float view_px
property float view_py
property float view_pz
property float x_axisx
property float x_axisy
property float x_axisz
property float y_axisx
property float y_axisy
property float y_axisz
property float z_axisx
property float z_axisy
property float z_axisz
property float focal
property float scalex
property float scaley
property float centerx
property float centery
property int viewportx
property int viewporty
property float k1
property float k2
end_header
0.12831144 0.034124315 0.32882756 112 111 118 -0.31709999 0.0933 -0.94379997 0
0.12039022 0.035447832 0.33805263 99 100 106 -0.76099998 -0.092 -0.64219999 0
0.11201099 0.037855837 0.37721094 188 151 129 -0.3998 0.1584 -0.90280002 0
0.096850641 0.039220665 0.38259268 177 132 113 -0.053199999 0.55379999 -0.83099997 0
0.083395652 0.039344892 0.35926256 164 129 109 0.5869 0.68769997 -0.42739999 0
0.077360868 0.039405223 0.34803376 157 126 104 0.5733 0.66979998 -0.47189999 0
0.057176035 0.040765081 0.34151903 227 187 168 -0.00019999999 0.5007 -0.86559999 0
0.04232626 0.042202771 0.34279713 177 132 113 0.1373 0.42629999 -0.89410001 0
0.0077496646 0.044784382 0.34229365 234 198 183 -0.096500002 0.28400001 -0.95389998 0
-0.0078543769 0.046283696 0.34392351 231 199 189 0.022700001 0.2726 -0.9619 0
-0.044718459 0.048701916 0.33173037 174 162 150 0.257 0.46270001 -0.84850001 0
-0.05985707 0.050199755 0.33224976 255 227 213 -0.2313 0.44100001 -0.86720002 0
-0.075617604 0.051637463 0.33534154 252 222 207 -0.1902 0.44389999 -0.8757 0
-0.092826672 0.052990269 0.34325272 218 192 183 -0.26429999 0.21879999 -0.9393 0
0.17713049 0.029778438 0.29531702 186 138 152 -0.57029998 -0.23649999 -0.78670001 0
0.16003132 0.031867627 0.30564481 179 169 172 -0.66970003 0.347 -0.6566 0
0.14317732 0.033784647 0.3215493 161 159 159 -0.31979999 0.1529 -0.93510002 0
0.13192937 0.034623615 0.32920468 127 126 133 -0.1777 0.1629 -0.97049999 0
0.10073769 0.039851431 0.38231602 206 168 147 -0.29899999 0.50160003 -0.8118 0
0.060984973 0.041252393 0.34250751 230 192 173 0.053399999 0.52179998 -0.85140002 0
0.046122227 0.042699829 0.34379011 214 175 163 0.083499998 0.40650001 -0.90979999 0
0.026856391 0.043803703 0.34163016 244 207 194 -0.24600001 0.1689 -0.9544 0
0.01154541 0.04533862 0.34184992 232 194 179 -0.020400001 0.241 -0.97030002 0
-0.0041408069 0.046842862 0.34379941 255 228 215 -0.026900001 0.2915 -0.9562 0
-0.038157318 0.049584746 0.33776587 190 162 149 0.41670001 0.44949999 -0.79009998 0
-0.041198168 0.049154662 0.3336761 126 113 106 0.45899999 0.4395 -0.77209997 0
0.17017627 0.031062005 0.30030945 194 191 194 -0.53350002 0.3396 -0.77460003 0
0.13502398 0.03521521 0.32815054 83 82 87 -0.3592 -0.0098000001 -0.9332 0
0.1226164 0.036254898 0.33405164 97 99 103 -0.76700002 0.089100003 -0.63550001 0
0.064812817 0.041744508 0.3434858 219 179 160 0.1028 0.56819999 -0.81639999 0
0.049753509 0.043231849 0.34440115 232 194 179 0.0243 0.42269999 -0.9059 0
0.030461747 0.044401523 0.34045264 235 202 191 -0.044399999 0.32089999 -0.9461 0
0.015366896 0.045835473 0.34271973 239 200 188 0.085900001 0.1505 -0.9849 0
-0.05610564 0.050759379 0.33135673 255 236 223 -0.177 0.50160003 -0.84680003 0
-0.071789391 0.052172765 0.33495504 255 222 208 -0.1367 0.47029999 -0.87180001 0
-0.088347062 0.053590905 0.34041682 239 207 195 -0.3926 0.3515 -0.84990001 0
-0.12184612 0.057183981 0.3572154 74 86 100 -0.3942 0.1971 -0.8976 0
0.17232841 0.031688392 0.29908285 168 163 169 -0.72310001 0.18960001 -0.66430002 0
0.15684673 0.033529308 0.31386736 188 115 119 -0.3251 0.1998 -0.92439997 0
0.15388857 0.032963514 0.3144151 120 112 119 -0.2739 0.050700001 -0.96039999 0
0.14593905 0.034405187 0.32012233 255 255 255 -0.2353 0.4289 -0.87220001 0
0.12517875 0.036957059 0.33184579 95 95 95 -0.6663 0.152 -0.73000002 0
0.11424013 0.037671108 0.34366429 126 125 128 -0.25510001 -0.24339999 -0.93580002 0
0.10436258 0.040537719 0.38051757 211 174 154 -0.3633 0.45100001 -0.81529999 0
0.078401662 0.042810027 0.35612011 162 126 109 0.61000001 0.6846 -0.39910001 0
0.068647735 0.042250261 0.34419286 216 178 159 0.2271 0.62910002 -0.74339998 0
0.03418155 0.044912752 0.34124988 241 211 199 0.1149 0.3976 -0.91030002 0
0.019101901 0.046314545 0.34461379 251 214 199 0.025699999 0.0678 -0.99739999 0
-0.0003819112 0.047448762 0.34200644 255 233 216 -0.045400001 0.33520001 -0.9411 0
-0.015835928 0.04893944 0.34385589 219 187 177 0.2296 0.28080001 -0.93190002 0
-0.03450134 0.050113183 0.33800179 221 191 181 0.098099999 0.4197 -0.90240002 0
-0.052512854 0.051276084 0.3317304 239 209 194 -0.065399997 0.5298 -0.84560001 0
-0.068168119 0.05271088 0.33497968 255 225 213 -0.13789999 0.4603 -0.87699997 0
-0.084250733 0.054166991 0.33876663 255 230 215 -0.35120001 0.435 -0.82910001 0
0.1804767 0.031165443 0.29079306 113 27 35 -0.3712 0.0319 -0.92799997 0
0.1652195 0.033029664 0.30375025 229 226 229 -0.4235 0.42089999 -0.80220002 0
0.13727762 0.035944693 0.32551506 127 124 130 -0.55449998 -0.0634 -0.82969999 0
0.1079906 0.041202918 0.37925962 196 159 137 -0.33450001 0.46090001 -0.82200003 0
0.09197624 0.042766508 0.38219649 179 139 119 0.26280001 0.58950001 -0.76380002 0
0.084251866 0.042930547 0.36560303 152 116 98 0.60320002 0.70310003 -0.37670001 0
0.072766975 0.042676326 0.34678915 201 165 143 0.43239999 0.68430001 -0.58719999 0
0.053428963 0.043787897 0.34398413 232 196 181 -0.0276 0.44769999 -0.89380002 0
0.037921168 0.045428991 0.34186989 220 190 178 0.1585 0.38569999 -0.90890002 0
0.0034121401 0.047965709 0.34270194 255 227 211 -0.085000001 0.3071 -0.9479 0
-0.012089382 0.049487237 0.3438094 230 197 188 0.092799999 0.29350001 -0.9515 0
-0.030928982 0.050659861 0.33824027 233 202 187 -0.41319999 0.3125 -0.85530001 0
-0.049132876 0.051787551 0.33281329 237 211 200 -0.00060000003 0.51660001 -0.85619998 0
-0.064545825 0.053241633 0.33516991 248 214 198 -0.1655 0.46290001 -0.87080002 0
-0.080264196 0.054726601 0.33752975 255 233 218 -0.24690001 0.4813 -0.84100002 0
-0.11491975 0.057780005 0.34856707 97 106 119 -0.62199998 0.2456 -0.74349999 0
0.17425781 0.032355621 0.29673323 199 197 200 -0.75700003 0.076499999 -0.64899999 0
0.14000317 0.036593094 0.32358423 79 79 81 -0.42219999 -0.0141 -0.90640002 0
0.12798844 0.037618432 0.32955995 113 110 116 -0.39469999 0.1145 -0.91159999 0
0.12035764 0.038979862 0.33983836 123 126 132 -0.65679997 0.0261 -0.7536 0
0.096825883 0.043223795 0.38536119 183 141 121 -0.1486 0.59850001 -0.78729999 0
0.057052389 0.044340085 0.34404489 230 192 175 -0.00050000002 0.4948 -0.86900002 0
0.041723363 0.045909159 0.34344825 199 160 144 0.1242 0.34740001 -0.92940003 0
0.02278799 0.046892971 0.34367305 245 209 191 -0.097000003 0.060800001 -0.99339998 0
0.0071834018 0.048474118 0.34372082 250 216 200 -0.1195 0.2924 -0.94880003 0
-0.0082943393 0.050017081 0.34421504 245 212 203 0.034000002 0.28459999 -0.958 0
-0.045271549 0.05230267 0.33258885 156 145 140 0.167 0.4817 -0.8603 0
-0.06077252 0.053791471 0.33444706 255 231 216 -0.17560001 0.4998 -0.84810001 0
-0.076572686 0.055261973 0.33758581 255 233 221 -0.1909 0.5126 -0.83710003 0
-0.09366259 0.056737736 0.34408754 198 180 166 -0.033 0.37940001 -0.92460001 0
-0.11092603 0.058308333 0.34857085 105 114 127 -0.36719999 0.56699997 -0.73729998 0
0.17579809 0.033066329 0.29356933 206 203 209 -0.65979999 0.078699999 -0.74730003 0
0.17033519 0.034175083 0.301797 181 178 183 -0.56830001 0.39680001 -0.72079998 0
0.16083595 0.034934137 0.30858546 205 138 161 -0.68349999 0.4012 -0.6099 0
0.15093006 0.03569857 0.31634194 255 255 255 -0.2367 0.35890001 -0.90289998 0
0.14352915 0.03709767 0.32347107 85 82 88 -0.3867 0.070600003 -0.91949999 0
0.13160315 0.038116604 0.33015013 147 145 153 -0.2385 0.1181 -0.96390003 0
0.12296189 0.03969169 0.33688334 147 149 151 -0.72759998 0.0691 -0.6825 0
0.10982002 0.040854074 0.34325626 161 161 161 -0.2437 0.26879999 -0.93190002 0
0.10051761 0.043892264 0.38396505 217 179 160 -0.23710001 0.59219998 -0.7701 0
0.060717501 0.044882316 0.34416986 228 189 173 0.1 0.52460003 -0.84539998 0
0.045561302 0.046404358 0.34457469 208 168 152 0.1152 0.31760001 -0.94120002 0
0.026476748 0.047479168 0.34246436 249 214 194 -0.1127 0.1813 -0.977 0
0.01096688 0.049021117 0.34343496 254 220 204 -0.090800002 0.25960001 -0.96139997 0
-0.0046561714 0.050551254 0.34514773 246 214 200 -0.0482 0.3206 -0.94599998 0
-0.03891087 0.053236496 0.33966157 195 168 154 0.4093 0.48289999 -0.77410001 0
-0.041755915 0.052794028 0.33411458 126 117 118 0.4226 0.465 -0.77789998 0
-0.057042632 0.05433267 0.33405647 255 229 216 -0.1336 0.53759998 -0.8326 0
-0.089303717 0.057290755 0.34227923 231 203 195 -0.29679999 0.45320001 -0.84060001 0
0.17820996 0.033626661 0.29258016 187 170 178 -0.45390001 0.1274 -0.88190001 0
0.16320294 0.035557475 0.3069315 160 156 157 -0.5553 0.39430001 -0.73220003 0
0.15213114 0.036547761 0.31175369 117 114 117 -0.22830001 0.31470001 -0.92129999 0
0.13446669 0.038745366 0.32855186 144 140 146 -0.45719999 0.048799999 -0.88800001 0
0.10446071 0.044522218 0.38313955 203 162 144 -0.096199997 0.6821 -0.72490001 0
0.064684987 0.04535656 0.34589449 224 186 169 0.2617 0.61210001 -0.74620003 0
0.049316421 0.046928365 0.34522784 227 188 172 0.102 0.34189999 -0.93419999 0
0.030126022 0.048034277 0.34201288 241 205 188 0.0156 0.33140001 -0.94340003 0
0.014753265 0.049563985 0.34323704 250 216 202 -0.060699999 0.193 -0.97930002 0
-0.00080036424 0.051101871 0.34489986 255 240 225 -0.058899999 0.35010001 -0.93489999 0
-0.035099849 0.05377955 0.33928737 236 208 197 0.1166 0.47130001 -0.8743 0
-0.053378027 0.054865025 0.33403286 253 223 210 -0.093999997 0.56620002 -0.81889999 0
-0.072741151 0.055804767 0.33701119 255 229 214 -0.15880001 0.5298 -0.83310002 0
-0.12264743 0.061086997 0.35797581 120 131 143 -0.37349999 0.2705 -0.88730001 0
0.17281847 0.034741409 0.30094469 168 165 170 -0.79509997 0.27430001 -0.54100001 0
0.15714031 0.036775112 0.31558809 156 150 155 -0.2622 0.28639999 -0.92150003 0
0.14577097 0.037787721 0.3208499 145 142 145 -0.2388 0.1665 -0.95670003 0
0.12525645 0.040429108 0.33299965 87 86 95 -0.72149998 0.1178 -0.68229997 0
0.11309388 0.041468538 0.34165487 104 103 106 -0.33590001 0.29159999 -0.89560002 0
0.086350948 0.046437323 0.37803501 158 120 101 0.54339999 0.7087 -0.44999999 0
0.079454862 0.046331119 0.36427012 167 131 115 0.565 0.73970002 -0.3655 0
0.072896384 0.046280913 0.35060537 163 127 110 0.4788 0.7001 -0.52969998 0
0.068682462 0.045833521 0.34760496 219 183 166 0.36449999 0.65270001 -0.66420001 0
0.053082131 0.047460627 0.34552705 228 189 173 0.051800001 0.4131 -0.90920001 0
0.034012552 0.048493396 0.34476236 236 202 186 0.1261 0.3653 -0.92229998 0
0.018421408 0.050105676 0.34344399 245 209 193 -0.064199999 0.15809999 -0.9853 0
0.0029501072 0.051633529 0.34539396 255 234 217 -0.074600004 0.36480001 -0.92809999 0
-0.016482765 0.052659106 0.34547654 218 192 183 0.1753 0.37279999 -0.91119999 0
-0.06914144 0.056347031 0.33719036 255 230 215 -0.1574 0.53250003 -0.83170003 0
-0.085393712 0.057845991 0.34144071 252 225 213 -0.3513 0.52039999 -0.77829999 0
-0.11669286 0.061606135 0.35266328 118 127 140 -0.48640001 0.48379999 -0.72750002 0
0.18057337 0.034189112 0.29147628 173 119 126 -0.3836 0.1684 -0.90799999 0
0.16561595 0.036154803 0.30545142 209 204 210 -0.4068 0.4021 -0.82020003 0
0.15027188 0.038136136 0.3231256 219 219 219 -0.2613 0.1135 -0.95859998 0
0.13662986 0.039462727 0.32523602 83 82 85 -0.56840003 0.082400002 -0.8186 0
0.11652216 0.042038787 0.34107086 55 54 59 -0.4224 0.2872 -0.85970002 0
0.092834406 0.046655849 0.38820809 180 137 118 -0.064099997 0.61669999 -0.78460002 0
0.056828063 0.047982275 0.34632438 232 194 177 0.049699999 0.48539999 -0.87290001 0
0.037853241 0.048989188 0.346266 225 191 173 0.1348 0.34940001 -0.92720002 0
0.022129146 0.050653774 0.34326702 249 215 199 -0.017000001 0.1934 -0.98100001 0
-0.01265673 0.053227033 0.34456724 231 199 189 0.1131 0.34999999 -0.92989999 0
-0.027346052 0.054894857 0.33668879 207 196 193 -0.122 0.54089999 -0.83219999 0
-0.031289969 0.054311045 0.33906418 240 212 201 -0.2088 0.45320001 -0.86659998 0
-0.04989855 0.055396952 0.3346062 234 209 197 -0.0682 0.5654 -0.82200003 0
-0.065325119 0.056872632 0.33700505 255 231 215 -0.154 0.5377 -0.82889998 0
-0.081413336 0.058400434 0.34020868 254 226 213 -0.27070001 0.56290001 -0.7809 0
0.18355811 0.034650642 0.2918818 226 225 228 -0.4206 0.1417 -0.89609998 0
0.17403197 0.035488248 0.29712394 166 163 168 -0.85909998 0.18780001 -0.4761 0
0.1686523 0.036655717 0.30526587 191 185 191 -0.38850001 0.32480001 -0.86229998 0
0.15188722 0.038900323 0.31953347 255 255 255 -0.34560001 0.2006 -0.91670001 0
0.13959168 0.040050302 0.32385108 83 80 86 -0.37419999 0.1416 -0.91649997 0
0.12778732 0.041106399 0.33027869 133 132 137 -0.51980001 0.078900002 -0.8506 0
0.11935569 0.04269404 0.3384361 152 154 156 -0.54149997 0.3389 -0.7694 0
0.10625871 0.043903194 0.34506091 147 146 149 -0.1943 0.4355 -0.87900001 0
0.096953675 0.047262486 0.38851222 203 165 146 -0.2678 0.55369997 -0.78850001 0
0.04138872 0.049573179 0.34524354 238 202 184 0.1052 0.33360001 -0.9368 0
0.025938867 0.051173065 0.34384432 248 212 197 0.021500001 0.27160001 -0.96219999 0
0.0066671129 0.052197423 0.34464288 255 230 216 -0.1251 0.3418 -0.9314 0
-0.0088764811 0.053759195 0.34518567 238 208 195 0.024499999 0.39539999 -0.91820002 0
-0.046355732 0.05592946 0.33510762 200 190 182 0.064400002 0.52340001 -0.84960002 0
-0.061616357 0.057414331 0.33680174 255 226 211 -0.1241 0.5722 -0.81059998 0
-0.077642642 0.058939885 0.34007886 246 216 203 -0.2007 0.579 -0.79030001 0
-0.09474723 0.060511682 0.34594381 168 160 152 0.074100003 0.48539999 -0.87120003 0
0.17566845 0.036162645 0.29418352 213 211 214 -0.6825 0.20039999 -0.70289999 0
0.17135116 0.03720019 0.3047044 163 160 168 -0.57520002 0.1406 -0.80580002 0
0.16160771 0.038073622 0.31086779 161 57 83 -0.66949999 0.21510001 -0.71100003 0
0.1430254 0.040564816 0.3235063 154 153 156 -0.33309999 0.155 -0.93010002 0
0.1309935 0.041669663 0.33010525 127 126 133 -0.3276 -0.012 -0.9447 0
0.10957919 0.044505123 0.34423548 115 117 118 -0.2392 0.43020001 -0.87040001 0
0.10095903 0.047886658 0.38796356 198 160 136 -0.031800002 0.58139998 -0.81300002 0
0.060543224 0.048520699 0.34650689 226 190 173 0.1846 0.5758 -0.79640001 0
0.045144055 0.050107434 0.3453739 233 197 180 0.1292 0.35890001 -0.92439997 0
0.010439911 0.052736111 0.34474599 253 218 207 -0.13940001 0.30669999 -0.94150001 0
-0.0051877229 0.054296881 0.34601718 248 218 206 -0.0167 0.3725 -0.92790002 0
-0.020477314 0.055875819 0.34408689 168 169 162 0.38080001 0.33090001 -0.86339998 0
-0.042815682 0.05645052 0.33617792 117 113 112 0.32620001 0.47760001 -0.81580001 0
-0.058083635 0.057950329 0.33746195 254 226 213 -0.1016 0.59729999 -0.7956 0
-0.073876649 0.059480816 0.33989331 249 216 204 -0.1611 0.58950001 -0.79149997 0
-0.090961441 0.061056323 0.34605411 215 189 179 -0.1235 0.55140001 -0.82499999 0
0.1786892 0.0366273 0.29432258 218 215 219 -0.41049999 0.24259999 -0.87900001 0
0.16409177 0.038658377 0.30969939 207 152 168 -0.54960001 0.155 -0.82090002 0
0.15305308 0.03970132 0.31458607 182 178 186 -0.049699999 0.37740001 -0.92470002 0
0.14603136 0.041134235 0.3226116 110 107 112 -0.28470001 -0.090499997 -0.95429999 0
0.13515191 0.042107686 0.33152661 138 135 138 -0.37079999 -0.071800001 -0.92589998 0
0.12230144 0.04331734 0.33678851 45 51 58 -0.65079999 0.3213 -0.68800002 0
0.11314849 0.045053892 0.34355667 101 101 103 -0.39359999 0.44929999 -0.80199999 0
0.10644179 0.048342001 0.39225802 120 84 69 0.3251 0.5345 -0.78009999 0
0.087904774 0.050255939 0.38828844 174 137 113 0.17129999 0.66060001 -0.73100001 0
0.081069164 0.049989067 0.3743951 162 126 111 0.5812 0.72850001 -0.36269999 0
0.074878886 0.049716949 0.36332923 177 143 127 0.51999998 0.7471 -0.41409999 0
0.068929583 0.049453463 0.35215658 185 146 130 0.4533 0.66399997 -0.59469998 0
0.064613208 0.04899684 0.34867913 212 176 159 0.31510001 0.63609999 -0.7044 0
0.049018558 0.050612275 0.3468267 244 208 190 0.15899999 0.3978 -0.90359998 0
0.02960022 0.051729918 0.34320536 251 217 202 0.068800002 0.3391 -0.9382 0
0.014115464 0.053286079 0.3447246 255 224 211 -0.1428 0.28929999 -0.9465 0
-0.0013922914 0.054834604 0.34628215 255 226 210 -0.0241 0.34900001 -0.9368 0
-0.03613754 0.057461835 0.34329873 240 215 205 0.1996 0.38890001 -0.8994 0
-0.039783929 0.05694605 0.34116212 201 181 165 0.41350001 0.43470001 -0.80000001 0
-0.054429024 0.058493111 0.33738327 255 234 222 -0.1167 0.61519998 -0.77969998 0
-0.0702402 0.060024988 0.34000441 255 240 228 -0.16320001 0.59549999 -0.78659999 0
-0.086890578 0.06159981 0.34486154 247 222 212 -0.2287 0.60430002 -0.7633 0
-0.12021358 0.065620013 0.36155009 120 129 142 -0.077600002 0.92930001 -0.36109999 0
-1.2062455 0.25077295 1.9317857 230 234 237 -0.55000001 -0.63609999 -0.54119998 0
0.16637704 0.039267685 0.30791324 200 190 195 -0.50590003 0.1114 -0.85540003 0
0.15694541 0.040119089 0.31610814 136 130 137 -0.212 0.38870001 -0.89660001 0
0.13762522 0.042764049 0.32884189 87 83 89 -0.43040001 -0.0083999997 -0.90259999 0
0.12502867 0.043963365 0.33426464 191 191 189 -0.77410001 0.1796 -0.60699999 0
0.11663069 0.045619927 0.34335166 115 111 117 -0.3822 0.4903 -0.78329998 0
0.093058877 0.050748643 0.39288256 157 113 89 -0.2863 0.54170001 -0.79040003 0
0.052904461 0.05112407 0.34811053 227 188 174 0.1168 0.44980001 -0.88550001 0
0.033316065 0.052252542 0.34442839 251 215 197 0.1178 0.36309999 -0.92430001 0
0.017834567 0.053845648 0.34332806 241 205 192 -0.089299999 0.32249999 -0.94239998 0
0.0022955795 0.055381209 0.34720871 255 240 225 -0.087800004 0.35510001 -0.9307 0
-0.01701151 0.056433566 0.3449454 213 197 182 0.30930001 0.38550001 -0.86930001 0
-0.032262631 0.058003806 0.34272462 241 213 202 -0.059300002 0.3743 -0.92540002 0
-0.050745588 0.059038781 0.33704177 235 211 204 -0.1018 0.61229998 -0.7841 0
0.1809902 0.037183464 0.29311681 182 179 184 -0.3874 0.17839999 -0.90450001 0
0.17478552 0.038514167 0.29917678 227 225 228 -0.82999998 -0.0027999999 -0.55769998 0
0.15942742 0.040717799 0.31442636 133 95 101 -0.69160002 0.2277 -0.68550003 0
0.14952378 0.041629858 0.32282436 162 160 161 -0.38820001 -0.2001 -0.89960003 0
0.12770395 0.044597939 0.3318294 114 114 114 -0.63190001 0.126 -0.7647 0
0.10274843 0.046967674 0.34763002 111 113 117 -0.2568 0.2226 -0.94050002 0
0.096912079 0.051385771 0.39150891 204 164 143 -0.27990001 0.51209998 -0.81199998 0
0.056545742 0.051676057 0.34807476 220 181 165 0.15970001 0.54049999 -0.82609999 0
0.037136629 0.052766602 0.34546968 235 197 178 0.1126 0.35350001 -0.92860001 0
-0.013398375 0.056973342 0.34711748 219 187 177 0.1974 0.45829999 -0.86659998 0
-0.047205705 0.059582558 0.3376058 167 153 151 -0.071800001 0.56639999 -0.82099998 0
-0.066416815 0.06056032 0.33973494 255 229 216 -0.1441 0.6153 -0.77499998 0
-0.08267726 0.06212863 0.34337708 255 239 228 -0.27829999 0.63230002 -0.72299999 0
-0.099429555 0.063759431 0.34658438 114 118 126 0.19599999 0.50950003 -0.83789998 0
-1.1570195 0.255887 1.9209569 228 229 233 0.2358 0.37979999 -0.89450002 0
0.18299025 0.037769742 0.29186213 241 239 242 -0.47870001 0.17110001 -0.86110002 0
0.16874816 0.039847646 0.30662984 236 233 236 -0.4492 0.0135 -0.8933 0
0.13974088 0.043446422 0.32537478 93 92 97 -0.29370001 0.1472 -0.94450003 0
0.11954489 0.04624914 0.34120053 16 16 20 -0.4192 0.53920001 -0.73040003 0
0.11032801 0.048056714 0.34871414 48 52 57 -0.15710001 0.3231 -0.9332 0
0.1062161 0.047550492 0.34687206 99 100 106 -0.1123 0.28690001 -0.95139998 0
0.060397174 0.052208163 0.34905803 213 178 160 0.25099999 0.60070002 -0.75910002 0
0.040954858 0.053291738 0.34608284 235 196 180 0.1138 0.41159999 -0.90420002 0
0.025408695 0.05489343 0.34506688 239 203 186 0.073899999 0.42089999 -0.9041 0
0.021578152 0.054380704 0.34326619 242 207 189 0.033399999 0.37529999 -0.92629999 0
0.0061155045 0.055930771 0.34645009 255 227 211 -0.14229999 0.36359999 -0.9206 0
-0.0096363034 0.057516787 0.34796679 239 209 198 -0.035999998 0.50489998 -0.8624 0
-0.062569126 0.061090913 0.33934924 255 230 216 -0.096199997 0.6376 -0.76429999 0
-0.078945011 0.06267488 0.34340921 254 230 220 -0.2323 0.64130002 -0.7313 0
-0.09595833 0.06430652 0.34867036 156 155 160 0.1177 0.51569998 -0.84869999 0
0.18455169 0.038398869 0.28982678 238 235 238 -0.47479999 0.1331 -0.87 0
0.17626543 0.039168563 0.29593685 208 208 210 -0.64420003 0.055399999 -0.76289999 0
0.17157479 0.040368218 0.30620289 195 192 197 -0.57349998 -0.1565 -0.80409998 0
0.16118038 0.041385997 0.31124184 164 75 91 -0.62540001 0.0416 -0.77920002 0
0.15438731 0.042866886 0.3186481 255 255 255 0.096799999 0.0242 -0.995 0
0.15183552 0.042256832 0.32044604 255 255 255 -0.2334 -0.1476 -0.96109998 0
0.14280589 0.044000469 0.32436973 125 124 129 -0.33680001 0.2404 -0.91039997 0
0.13049817 0.045204695 0.3300842 207 207 209 -0.39559999 0.096699998 -0.91329998 0
0.12244824 0.046864081 0.33910158 106 106 108 -0.48949999 0.59630001 -0.63630003 0
0.10073325 0.052014433 0.38980442 181 140 113 -0.082699999 0.4551 -0.88660002 0
0.082789436 0.05384301 0.38620073 156 117 93 0.26969999 0.565 -0.7798 0
0.076281972 0.053440932 0.37397546 176 145 126 0.54769999 0.73369998 -0.40220001 0
0.070188195 0.053082388 0.36197743 158 120 101 0.55110002 0.73369998 -0.39750001 0
0.06469699 0.052688718 0.35280457 188 153 130 0.3962 0.71850002 -0.57160002 0
0.044740979 0.053820923 0.34666497 234 198 181 0.122 0.48359999 -0.86680001 0
0.029217215 0.055422358 0.34562114 248 212 197 0.039299998 0.4271 -0.90329999 0
0.0098801879 0.056478608 0.34592047 251 217 204 -0.1647 0.38069999 -0.90990001 0
-0.005832891 0.058065593 0.34773314 247 218 202 -0.0911 0.47099999 -0.87739998 0
-0.043606788 0.060126472 0.33780846 127 123 119 0.1362 0.5086 -0.8502 0
-0.059045941 0.061642606 0.34007958 245 217 209 -0.080499999 0.66930002 -0.73860002 0
-0.075130731 0.063215949 0.34312698 246 212 210 -0.182 0.65350002 -0.73470002 0
-0.092475824 0.064888909 0.34938747 198 180 179 0.062799998 0.5478 -0.83429998 0
-1.1184443 0.26298031 1.9270115 230 232 236 0.56260002 -0.4269 -0.708 0
0.17876244 0.039700437 0.29527518 191 191 193 -0.40689999 0.16150001 -0.89910001 0
0.16369596 0.041961983 0.31004694 215 124 136 -0.53860003 0.087499999 -0.838 0
0.15794258 0.043352827 0.31943128 240 237 241 -0.093599997 0.2814 -0.95499998 0
0.11334567 0.048669949 0.34658143 107 106 111 -0.29030001 0.36379999 -0.88510001 0
0.089048386 0.054291077 0.39595178 183 143 122 0.0125 0.56529999 -0.82480001 0
0.048565641 0.054348823 0.34778795 244 207 192 0.1213 0.53140002 -0.83840001 0
0.01360892 0.057023223 0.34598586 250 216 202 -0.16580001 0.3942 -0.90390003 0
-0.0020854205 0.058619332 0.34732234 249 220 203 -0.069200002 0.43669999 -0.89700001 0
-0.017690659 0.060210686 0.34635141 215 199 188 0.41460001 0.48199999 -0.7719 0
-0.021332925 0.059622686 0.34668145 186 183 175 0.37850001 0.43079999 -0.81919998 0
-0.036906 0.061221711 0.34401479 229 203 193 0.31510001 0.37329999 -0.87260002 0
-0.040326964 0.0606784 0.34035519 185 163 155 0.37259999 0.43079999 -0.82190001 0
-0.055392742 0.062188946 0.34026253 255 236 226 -0.1276 0.68099999 -0.72109997 0
-0.071326651 0.06376189 0.3427262 250 222 211 -0.1649 0.6584 -0.73439997 0
-0.088647768 0.06544514 0.34921673 232 215 207 -0.1251 0.66930002 -0.7324 0
0.14572611 0.044563524 0.32335547 20 17 21 -0.4639 -0.0113 -0.8858 0
0.13356768 0.045764901 0.32872787 99 98 105 -0.25409999 0.1265 -0.95889997 0
0.12502521 0.04749798 0.33616111 103 100 105 -0.75169998 0.41460001 -0.51279998 0
0.11676977 0.049238749 0.34598699 125 124 129 -0.2428 0.4465 -0.86119998 0
0.10233547 0.050689511 0.34815875 125 124 127 -0.0221 -0.078400001 -0.99669999 0
0.093244664 0.054919269 0.39674205 183 143 122 -0.3937 0.43470001 -0.80989999 0
0.052424237 0.054876044 0.34897119 233 198 185 0.1479 0.56849998 -0.80930001 0
0.032904122 0.055963423 0.34621236 249 214 196 0.068000004 0.4826 -0.8732 0
0.017397508 0.057561211 0.34530163 242 207 189 -0.096500002 0.43799999 -0.89380002 0
0.0015395592 0.059179433 0.34807566 255 228 215 -0.087700002 0.41859999 -0.90390003 0
-0.01401467 0.060758237 0.34893331 214 181 170 0.17120001 0.63630003 -0.75220001 0
-0.051720452 0.062733881 0.34028667 224 205 197 -0.1473 0.68190002 -0.71640003 0
-0.067582831 0.064301126 0.34300289 241 213 202 -0.15180001 0.66960001 -0.72710001 0
-0.084511116 0.065970533 0.3483955 255 237 231 -0.25600001 0.67900002 -0.68809998 0
0.17469171 0.041661587 0.29996485 180 176 184 -0.7493 -0.082000002 -0.65710002 0
0.16610746 0.042531092 0.3086994 179 98 109 -0.59460002 0.057500001 -0.80190003 0
0.14814837 0.045179378 0.32145825 123 123 123 -0.55680001 -0.1073 -0.82370001 0
0.13655998 0.04633243 0.32739577 116 115 122 -0.31119999 0.1788 -0.93339998 0
0.12767117 0.048109014 0.33331624 140 140 140 -0.72180003 0.31920001 -0.61409998 0
0.096737862 0.055571977 0.39405009 165 126 101 -0.4346 0.25580001 -0.86360002 0
0.056330465 0.055407606 0.35037526 219 183 170 0.19769999 0.59009999 -0.7827 0
0.036688134 0.056496479 0.34662753 241 205 188 0.1152 0.54479998 -0.83060002 0
0.021077788 0.058106251 0.34482798 241 205 192 0.0348 0.48699999 -0.87269998 0
0.0055274274 0.059700668 0.34807089 255 227 213 -0.1228 0.41769999 -0.90030003 0
-0.033281222 0.061777003 0.34433824 238 211 200 0.057799999 0.35609999 -0.93269998 0
-0.048152134 0.063286625 0.34082991 195 185 177 -0.17299999 0.64600003 -0.74339998 0
-0.063717142 0.064834736 0.34267443 243 217 207 -0.086800002 0.7051 -0.70370001 0
-0.080403104 0.066493623 0.34730238 248 224 216 -0.2647 0.69190001 -0.67180002 0
-1.1433705 0.27375942 1.8950177 227 231 235 0.0060999999 0.1734 -0.98479998 0
0.16823266 0.043126829 0.30684936 225 222 226 -0.59619999 -0.032600001 -0.80220002 0
0.1395646 0.046901688 0.32645059 94 94 98 -0.30610001 0.289 -0.90710002 0
0.11986621 0.049823269 0.34369472 94 95 102 -0.1742 0.50029999 -0.84820002 0
0.1062718 0.051223896 0.34939739 32 33 42 0.065200001 0.067000002 -0.99559999 0
0.084291466 0.057960968 0.39727366 175 138 114 0.2418 0.63889998 -0.73030001 0
0.071763471 0.056877811 0.37403962 182 151 132 0.45750001 0.80620003 -0.37509999 0
0.065566257 0.056420226 0.36121163 155 122 99 0.61489999 0.69739997 -0.3682 0
0.060463596 0.055924624 0.35299349 214 176 159 0.3978 0.7044 -0.58789998 0
0.040609773 0.057017978 0.3478308 244 207 192 0.1148 0.59439999 -0.79589999 0
0.024856851 0.058644451 0.34652957 238 199 187 0.086900003 0.51599997 -0.85219997 0
-0.010254776 0.06130825 0.34944546 241 211 201 -0.1019 0.59350002 -0.79830003 0
-0.096622117 0.068112798 0.34939045 132 135 145 0.1824 0.50770003 -0.84200001 0
0.17594765 0.04231621 0.29645431 218 215 221 -0.5959 0.074000001 -0.79960001 0
0.17055455 0.043683585 0.30514532 160 155 161 -0.59960002 -0.020400001 -0.80000001 0
0.160768 0.044715963 0.31148359 156 150 159 -0.59329998 0.13500001 -0.79360002 0
0.14977953 0.045846839 0.31726494 255 255 255 -0.2018 -0.069700003 -0.97689998 0
0.14255457 0.04745907 0.32542384 148 148 148 -0.40040001 0.3495 -0.84710002 0
0.12986702 0.048749488 0.32981175 124 126 128 -0.54650003 0.31060001 -0.77780002 0
0.12344472 0.050378401 0.34364372 100 102 103 -0.41460001 0.4973 -0.76209998 0
0.11034235 0.051738679 0.35066515 58 62 70 -0.0217 0.1804 -0.98339999 0
0.089186832 0.058550104 0.40021348 175 135 112 -0.1657 0.57309997 -0.80250001 0
0.044479631 0.057553973 0.34925547 239 205 189 0.1117 0.63319999 -0.76590002 0
0.028697699 0.059172817 0.34710851 247 210 198 0.061999999 0.53460002 -0.84280002 0
0.0093345325 0.06024104 0.34758133 241 205 192 -0.141 0.44499999 -0.88440001 0
-0.0065306178 0.061870657 0.34967974 246 216 205 -0.15629999 0.55369997 -0.8179 0
-0.044404261 0.063824929 0.34065372 160 153 151 -0.0272 0.57660002 -0.81660002 0
-0.060362618 0.065418966 0.34435058 226 196 186 -0.051600002 0.7342 -0.67699999 0
-0.076471046 0.067030959 0.34668252 250 226 221 -0.2211 0.69929999 -0.67970002 0
-0.093524434 0.068735674 0.35165244 149 142 144 0.1619 0.59490001 -0.78729999 0
0.1782755 0.042851958 0.29543817 152 149 152 -0.43759999 0.2185 -0.87220001 0
0.16369274 0.045236476 0.31115308 173 89 101 -0.55260003 0.22750001 -0.80180001 0
0.15856539 0.046671059 0.32196158 255 255 255 0.20020001 -0.1523 -0.96780002 0
0.15384565 0.046277516 0.31865916 255 255 255 0.1205 -0.071400002 -0.99010003 0
0.14566237 0.04799892 0.32447419 125 125 125 -0.5977 0.26010001 -0.75840002 0
0.1325568 0.049340457 0.3278124 176 175 180 -0.29750001 0.4341 -0.85030001 0
0.12639131 0.050973106 0.34159288 136 135 142 -0.6279 0.33430001 -0.70279998 0
0.11306767 0.052362684 0.34769449 83 81 81 -0.15800001 0.28709999 -0.94480002 0
0.04829444 0.058095392 0.3502872 238 201 188 0.089400001 0.65319997 -0.75190002 0
0.032482173 0.059713427 0.34774137 238 202 186 0.0902 0.58050001 -0.80930001 0
0.013080006 0.06078345 0.34729671 252 222 207 -0.12540001 0.5036 -0.85479999 0
-0.0026567937 0.062407918 0.34957466 252 222 209 -0.1267 0.53210002 -0.83719999 0
-0.021984251 0.063412547 0.34369591 142 163 147 0.35339999 0.49219999 -0.79549998 0
-0.037462059 0.064972013 0.34462237 194 171 163 0.2349 0.55629998 -0.79710001 0
-0.040853038 0.064383477 0.34161064 168 153 149 0.241 0.55930001 -0.7931 0
-0.056583554 0.065960161 0.34448314 254 225 221 -0.1 0.74239999 -0.66250002 0
-0.072724216 0.067584507 0.34680158 249 221 212 -0.18719999 0.70719999 -0.68169999 0
-0.090281747 0.069357738 0.35397345 217 203 201 -0.057999998 0.72820002 -0.68290001 0
0.18102604 0.04334579 0.29527324 217 216 219 -0.546 0.1432 -0.82539999 0
0.17222007 0.044294368 0.30216646 188 185 188 -0.74309999 0.0014 -0.6692 0
0.16572024 0.045823961 0.30887309 180 83 102 -0.64770001 0.2246 -0.72799999 0
0.13613635 0.049848579 0.32782528 103 105 109 -0.27680001 0.46509999 -0.8409 0
0.11643751 0.052920382 0.34634614 151 151 153 -0.1162 0.50999999 -0.85229999 0
0.092776336 0.059165459 0.39738795 132 92 69 -0.40540001 0.43779999 -0.80250001 0
0.052183434 0.058638103 0.35168749 228 194 180 0.16869999 0.67009997 -0.72289997 0
0.036281992 0.060261261 0.34891522 241 205 190 0.1357 0.62199998 -0.7712 0
0.016843507 0.061322361 0.3473219 244 207 194 -0.078599997 0.53759998 -0.83950001 0
0.0010289078 0.06297341 0.35010552 248 218 206 -0.1305 0.50779998 -0.85149997 0
-0.01473798 0.06460657 0.35328245 233 216 206 -0.0129 0.73949999 -0.67309999 0
-0.018410742 0.063993387 0.34827453 218 201 189 0.31720001 0.71579999 -0.6221 0
-0.033770595 0.06552995 0.34501082 233 204 196 0.0682 0.56809998 -0.82010001 0
-0.052861262 0.06651523 0.34441063 253 227 222 -0.1576 0.73540002 -0.65899998 0
-0.069037355 0.068145014 0.34700313 240 214 209 -0.1416 0.72189999 -0.67729998 0
-0.086315304 0.069904469 0.35322106 240 222 217 -0.22750001 0.70200002 -0.67479998 0
0.1735941 0.044917207 0.29905099 155 154 159 -0.7033 0.1543 -0.69400001 0
0.1277834 0.051634725 0.33514792 159 159 161 -0.69849998 0.32159999 -0.63929999 0
0.12048548 0.053438235 0.3467226 36 35 40 -0.1182 0.3795 -0.91759998 0
0.10168737 0.054434683 0.34860015 79 81 82 0.153 0.0876 -0.98430002 0
0.061064288 0.059732422 0.35994831 178 145 126 0.58530003 0.69669998 -0.4147 0
0.056364089 0.059178684 0.35453844 213 177 162 0.3256 0.68419999 -0.65259999 0
0.040212303 0.060809433 0.35094681 225 188 176 0.1665 0.66549999 -0.72759998 0
0.02062791 0.061870836 0.34818053 237 200 189 0.0232 0.58130002 -0.81330001 0
0.0049537104 0.06351018 0.3503477 255 226 212 -0.1161 0.51670003 -0.84829998 0
-0.010960057 0.065164469 0.35270029 243 217 207 -0.199 0.66649997 -0.7184 0
-0.049265586 0.067082942 0.34488767 229 212 204 -0.24950001 0.7202 -0.6473 0
-0.06527485 0.0686993 0.34701726 244 218 209 -0.063000001 0.74070001 -0.66890001 0
-0.082200892 0.070433542 0.352411 248 229 224 -0.26100001 0.69940001 -0.66540003 0
0.18251728 0.043936204 0.29260227 212 206 210 -0.52810001 0.0015 -0.84920001 0
0.16772783 0.046401959 0.30664441 174 85 99 -0.66579998 0.2139 -0.7148 0
0.14953624 0.049233291 0.31806061 255 255 255 -0.1715 0.3858 -0.90649998 0
0.14677237 0.048673026 0.31948844 116 113 116 -0.66570002 0.1865 -0.72250003 0
0.13955261 0.050365645 0.32776198 116 116 118 -0.32600001 0.4781 -0.81550002 0
0.12516774 0.053946439 0.34987718 124 126 128 -0.26589999 0.58749998 -0.76429999 0
0.10558762 0.054975145 0.34936461 29 35 40 0.1294 0.1655 -0.9777 0
0.044238582 0.061355412 0.35308462 234 198 185 0.1481 0.68349999 -0.7148 0
0.024522534 0.062412407 0.34950486 242 208 194 0.034899998 0.60549998 -0.79509997 0
0.0088036666 0.06405443 0.35060951 232 190 181 -0.098800004 0.55220002 -0.82779998 0
-0.0303369 0.066118807 0.34643716 229 201 190 -0.0149 0.62089998 -0.78380001 0
-0.04522229 0.067581274 0.34306175 169 162 160 -0.1794 0.70090002 -0.6904 0
-0.061756 0.069289088 0.34861138 238 212 203 -0.0123 0.76349998 -0.64569998 0
-0.078154758 0.070963047 0.35193527 255 240 233 -0.228 0.7263 -0.64850003 0
-1.1200781 0.28897229 1.8522936 225 229 232 -0.70389998 0.1617 -0.69169998 0
0.18462555 0.044472001 0.29140836 148 145 151 -0.33520001 0.0176 -0.94199997 0
0.17605379 0.045432616 0.29767418 140 132 139 -0.58289999 0.29550001 -0.75690001 0
0.16988499 0.046955746 0.30465016 216 201 206 -0.6444 0.28650001 -0.70899999 0
0.16100858 0.047992289 0.31314442 114 93 100 -0.51539999 0.2445 -0.82130003 0
0.14252031 0.050919782 0.32685131 132 131 136 -0.38789999 0.46509999 -0.79579997 0
0.12983796 0.052257311 0.33126676 110 114 115 -0.58780003 0.4594 -0.66600001 0
0.10914283 0.05552588 0.34896743 87 88 95 -0.045699999 0.26629999 -0.96280003 0
0.094548337 0.057071462 0.35281652 62 60 59 -0.347 -0.2233 -0.9109 0
0.04814744 0.06191105 0.3542887 239 207 195 0.096799999 0.69270003 -0.71469998 0
0.028323695 0.062956102 0.34987777 227 191 178 0.062199999 0.62699997 -0.7766 0
0.012641547 0.064593188 0.35049453 246 214 202 -0.1008 0.59030002 -0.80080003 0
-0.0071485685 0.065719917 0.3527832 240 208 196 -0.20720001 0.62360001 -0.75379997 0
-0.019314129 0.067945942 0.35454184 232 215 207 0.26339999 0.75120002 -0.60519999 0
-0.022790054 0.067276113 0.34972578 185 172 149 0.3576 0.78320003 -0.5086 0
-0.041372404 0.068113312 0.34288892 155 148 148 0.0307 0.71259999 -0.70090002 0
-0.058040809 0.069858879 0.3492091 238 212 205 -0.0623 0.77139997 -0.63330001 0
-0.074223213 0.071504503 0.35155287 255 237 231 -0.18780001 0.73790002 -0.64819998 0
0.17834936 0.0459527 0.29621202 152 148 156 -0.47670001 0.34439999 -0.80879998 0
0.17216609 0.047490649 0.30285311 181 178 181 -0.73799998 0.3105 -0.59920001 0
0.16389917 0.048512958 0.31275135 160 86 95 -0.5984 0.294 -0.74529999 0
0.14578123 0.051441126 0.32637036 137 134 137 -0.47580001 0.48800001 -0.7317 0
0.1334433 0.052776128 0.33153483 122 122 124 -0.28119999 0.54089999 -0.79269999 0
0.12726763 0.054555111 0.34573364 121 121 123 -0.4655 -0.092699997 -0.88020003 0
0.11273687 0.056080241 0.3484014 131 128 131 0.062799998 0.58289999 -0.81010002 0
0.097134903 0.057630572 0.34739789 142 143 147 -0.079000004 0.039299998 -0.99610001 0
0.032270201 0.063509621 0.35162592 240 205 192 0.1323 0.64810002 -0.75 0
-0.003258544 0.066258483 0.35238895 253 223 212 -0.1638 0.60039997 -0.78280002 0
-0.038259659 0.068780698 0.34719464 186 171 162 0.1631 0.71579999 -0.67900002 0
-0.054351993 0.070433721 0.34991819 233 209 201 -0.1199 0.77600002 -0.61919999 0
-0.088017762 0.07393419 0.3583799 214 202 197 -0.1392 0.70810002 -0.69220001 0
0.18084846 0.046460245 0.29555598 138 134 142 -0.57429999 0.3538 -0.73820001 0
0.16600345 0.049070179 0.31030223 194 103 117 -0.7119 0.2252 -0.6652 0
0.13712354 0.053287633 0.33189565 63 62 65 -0.26899999 0.54110003 -0.79680002 0
0.11680121 0.056618426 0.34938306 74 77 83 -0.106 0.62400001 -0.77420002 0
0.051995736 0.062464379 0.35503581 232 197 186 0.16779999 0.70359999 -0.69050002 0
0.03617584 0.064077139 0.35348073 236 202 191 0.15530001 0.68720001 -0.70969999 0
0.016405154 0.065117426 0.34941342 255 224 213 -0.0275 0.64960003 -0.7597 0
0.00064055208 0.066805676 0.3526997 252 230 226 -0.1469 0.60540003 -0.7823 0
-0.015554436 0.068558298 0.35772711 241 224 214 0.0116 0.73589998 -0.67699999 0
-0.034657031 0.069369279 0.34839585 201 182 172 0.1261 0.73680001 -0.66430002 0
-0.050534569 0.070985988 0.34993142 249 230 225 -0.1974 0.78329998 -0.58939999 0
-0.070455872 0.072070792 0.35170656 234 212 206 -0.1418 0.75389999 -0.6415 0
0.17383161 0.048060663 0.30030191 212 209 213 -0.67699999 0.34639999 -0.6494 0
0.15862115 0.05076756 0.3158564 156 131 132 -0.50730002 0.12710001 -0.85229999 0
0.14694399 0.052084606 0.32142895 255 255 255 -0.53869998 0.52609998 -0.65810001 0
0.14000253 0.0538348 0.33029562 105 107 111 -0.3134 0.55580002 -0.76999998 0
0.12801568 0.05521635 0.33785942 138 140 144 -0.5424 0.1805 -0.82050002 0
0.12154893 0.05712105 0.35188317 66 68 72 -0.1714 0.34689999 -0.92210001 0
0.10496832 0.058729313 0.34949109 62 63 74 0.1479 0.5309 -0.8344 0
0.10095467 0.058169641 0.34784007 58 59 65 0.18430001 0.4393 -0.87919998 0
0.056264292 0.063038476 0.35822508 211 179 167 0.428 0.67690003 -0.59890002 0
0.040002547 0.064650863 0.35476717 227 193 179 0.1305 0.70840001 -0.6936 0
0.020211045 0.065675363 0.35037526 234 199 188 0.0094999997 0.69300002 -0.7209 0
0.0045684073 0.067315429 0.35166007 253 223 212 -0.1101 0.61260003 -0.7827 0
-0.011706631 0.069106631 0.35704622 242 214 205 -0.26679999 0.68269998 -0.6803 0
-0.030899933 0.069946803 0.34934202 219 196 185 0.15899999 0.78479999 -0.59899998 0
-0.0667632 0.072651289 0.35213524 227 203 197 -0.068000004 0.7737 -0.62980002 0
-0.084010877 0.074481785 0.35799444 240 222 217 -0.2052 0.70950001 -0.6742 0
0.17671034 0.048534531 0.29978031 203 202 205 -0.58039999 0.37720001 -0.72170001 0
0.16813295 0.049622267 0.30829921 219 193 199 -0.62440002 0.22589999 -0.74769998 0
0.16112901 0.051316716 0.31472233 190 94 108 -0.4941 0.2079 -0.84420002 0
0.13056429 0.055769198 0.33469689 99 98 103 -0.52960002 0.45480001 -0.71609998 0
0.10897434 0.059279259 0.35041353 0 0 9 0.1894 0.60140002 -0.7762 0
0.089576699 0.063268863 0.3858982 52 47 49 -0.4718 -0.86830002 -0.15350001 0
0.044018384 0.065229923 0.35678989 232 197 186 0.1203 0.70230001 -0.70160002 0
0.024093393 0.066229448 0.35148355 238 206 194 -0.0049000001 0.71700001 -0.69700003 0
0.0083726952 0.067870721 0.35205567 243 211 199 -0.067900002 0.65030003 -0.75660002 0
-0.0078248493 0.069651499 0.356563 245 214 204 -0.2841 0.65039998 -0.70450002 0
-0.046458393 0.07147947 0.34813121 189 181 177 -0.2353 0.78640002 -0.5711 0
-0.063122518 0.07324741 0.35316584 232 206 199 0.0049000001 0.80510002 -0.59320003 0
-0.079926074 0.075012922 0.35725766 244 224 219 -0.1882 0.74479997 -0.64020002 0
0.17045149 0.050146997 0.30658773 182 174 179 -0.5395 0.2529 -0.80309999 0
0.16423145 0.051820453 0.31462014 196 95 109 -0.65799999 0.1653 -0.73460001 0
0.14309908 0.054380979 0.32969433 128 128 128 -0.34119999 0.57459998 -0.7439 0
0.11391045 0.059817094 0.3539415 107 106 115 0.15989999 0.65530002 -0.73820001 0
0.04806472 0.065802269 0.35852391 238 207 197 0.097000003 0.7044 -0.70319998 0
0.027963553 0.066789337 0.35253951 243 210 201 0.092600003 0.71160001 -0.69639999 0
0.012148852 0.068450488 0.35318652 250 220 210 -0.032699998 0.71170002 -0.70169997 0
-0.020273091 0.072015531 0.36207938 234 216 204 0.2406 0.73250002 -0.63679999 0
-0.023622703 0.071246736 0.35677382 217 203 190 0.32699999 0.75980002 -0.56190002 0
-0.042548865 0.072011955 0.3477689 157 151 148 -0.1276 0.79259998 -0.59630001 0
-0.059550505 0.073866546 0.35455176 230 204 195 -0.020300001 0.81269997 -0.58240002 0
-0.076030567 0.075574718 0.35701501 232 213 206 -0.1824 0.77100003 -0.61019999 0
-0.093640111 0.077480011 0.36300874 152 153 160 0.037300002 0.72619998 -0.68650001 0
0.17903614 0.049042694 0.29843074 213 211 214 -0.51109999 0.3599 -0.78049999 0
0.17300738 0.050644945 0.30526114 166 166 166 -0.70700002 0.2395 -0.66549999 0
0.14583014 0.054918464 0.32789999 139 139 139 -0.39649999 0.54879999 -0.73589998 0
0.13381642 0.056291595 0.33369586 82 84 88 -0.23810001 0.60699999 -0.75819999 0
0.12298246 0.057688195 0.34544989 87 88 92 -0.53280002 0.025 -0.84579998 0
0.11885674 0.060375389 0.35758427 59 55 65 -0.60829997 0.25400001 -0.75190002 0
0.096895985 0.061366968 0.34901494 86 94 98 0.088500001 0.4095 -0.90799999 0
0.052165385 0.066393197 0.36058667 224 192 182 0.162 0.69700003 -0.69849998 0
0.031875469 0.067370854 0.35425788 239 209 198 0.13169999 0.75059998 -0.64749998 0
0.016022041 0.069001123 0.35351616 231 199 189 -0.0068999999 0.74769998 -0.66399997 0
-0.0039141858 0.070179701 0.35582894 249 221 212 -0.2369 0.6049 -0.76020002 0
-0.016325213 0.072595075 0.36248302 247 228 219 -0.019200001 0.69279999 -0.72079998 0
-0.039092779 0.072640732 0.3497414 159 149 143 0.056600001 0.79009998 -0.61040002 0
-0.055837542 0.074464589 0.3554132 233 210 199 -0.095200002 0.82249999 -0.56080002 0
-0.072099268 0.076129958 0.35692126 228 211 205 -0.13600001 0.80379999 -0.57920003 0
-0.089720421 0.078053802 0.36293033 196 189 189 -0.1092 0.7105 -0.69520003 0
0.16611534 0.052353628 0.31148329 201 196 200 -0.68019998 0.030400001 -0.7324 0
0.13719162 0.056825332 0.33345899 77 74 80 -0.24860001 0.6099 -0.7525 0
0.12495326 0.058293194 0.34120417 76 80 85 -0.4641 0.30770001 -0.83060002 0
0.10111176 0.061930425 0.35087967 2 0 2 0.16590001 0.56739998 -0.80650002 0
0.089618474 0.063637398 0.36720562 27 26 31 -0.65060002 -0.20819999 -0.73030001 0
0.035817523 0.067962885 0.35616663 233 201 191 0.1121 0.76609999 -0.6329 0
0.019942468 0.069605224 0.35567495 234 204 196 0.0149 0.79930001 -0.60079998 0
0.00026556847 0.070690013 0.3558172 252 231 222 -0.1487 0.62849998 -0.76340002 0
-0.035550535 0.073297203 0.35249683 176 164 154 0.15000001 0.81760001 -0.55599999 0
-0.051862169 0.075013787 0.35537422 234 210 202 -0.1236 0.82929999 -0.54500002 0
-0.068301812 0.076713346 0.3572959 221 204 196 -0.063900001 0.83050001 -0.55330002 0
-0.085799076 0.078630857 0.36293074 211 198 193 -0.1301 0.741 -0.65869999 0
0.17480564 0.051184472 0.30286935 234 232 233 -0.69849998 0.1856 -0.6911 0
0.16853736 0.052857924 0.30964395 246 245 248 -0.5147 0.032299999 -0.8567 0
0.15920569 0.054110531 0.31826001 189 111 119 -0.39860001 0.051399998 -0.91570002 0
0.14058799 0.057345808 0.33290997 119 122 121 -0.3118 0.64780003 -0.69510001 0
0.12828267 0.058827408 0.34039643 117 119 123 -0.39649999 0.39160001 -0.83029997 0
0.12129179 0.060889866 0.35319704 16 17 24 -0.57550001 0.26409999 -0.77399999 0
0.10497747 0.062500611 0.35200444 29 35 40 0.18619999 0.62410003 -0.75880003 0
0.090262406 0.064088546 0.35431466 66 66 68 -0.58850002 0.18709999 -0.78649998 0
0.039784327 0.068534218 0.35748488 227 197 187 0.113 0.74629998 -0.65600002 0
0.023815379 0.070153028 0.35592023 240 210 200 -0.0023000001 0.82050002 -0.57169998 0
0.0040326132 0.071251146 0.35559198 238 208 195 -0.032900002 0.7001 -0.71329999 0
-0.012406976 0.073153637 0.3620888 211 181 170 -0.29179999 0.64789999 -0.70359999 0
-0.032031775 0.073999763 0.35630918 187 168 156 0.25639999 0.8351 -0.48660001 0
-0.048064899 0.075608104 0.35619307 235 213 205 -0.1446 0.8452 -0.51450002 0
-0.064737372 0.07736095 0.35888049 240 221 212 -0.0038000001 0.84869999 -0.52890003 0
-0.081923112 0.079217762 0.36306751 222 207 203 -0.079700001 0.8082 -0.58350003 0
-0.10161012 0.080193043 0.36159816 162 168 173 0.098399997 0.73110002 -0.67510003 0
0.1769598 0.051701374 0.30136418 231 228 229 -0.56770003 0.21699999 -0.79409999 0
0.16216493 0.054630123 0.31788126 172 84 96 -0.51810002 0.1542 -0.84130001 0
0.13092454 0.059347581 0.33725432 79 80 88 -0.449 0.53380001 -0.7166 0
0.047978338 0.069802508 0.36318567 230 204 195 0.098700002 0.68110001 -0.72549999 0
0.043966316 0.069172777 0.36093599 243 215 204 0.091200002 0.73909998 -0.6674 0
0.027736584 0.07072033 0.35679191 237 206 196 -0.0077999998 0.80190003 -0.59740001 0
0.0078340806 0.07182689 0.35615021 240 210 197 0.0217 0.77640003 -0.62989998 0
-0.0085206628 0.07369943 0.36137268 248 223 213 -0.3391 0.6358 -0.69340003 0
-0.04435331 0.076211788 0.35689047 167 158 145 -0.16320001 0.85699999 -0.4887 0
-0.061181091 0.078024842 0.36073515 221 199 191 -0.0284 0.8409 -0.54049999 0
-0.078173801 0.079822369 0.36338481 234 217 209 -0.1141 0.8251 -0.55339998 0
-0.098419264 0.080911584 0.36398697 151 157 164 0.13950001 0.7317 -0.66729999 0
-1.0618417 0.3340525 1.9302356 234 235 239 -0.70270002 -0.098999999 -0.70450002 0
0.17915204 0.052207392 0.29987401 180 177 180 -0.43090001 0.2401 -0.86989999 0
0.17104876 0.053364653 0.30842382 217 214 217 -0.47729999 0.1072 -0.87220001 0
0.14320377 0.057890642 0.33113515 119 118 121 -0.35139999 0.61860001 -0.70270002 0
0.1341756 0.059874628 0.33626482 116 117 124 -0.2193 0.63069999 -0.74440002 0
0.12151378 0.061408829 0.34297937 107 106 113 -0.63840002 0.41440001 -0.64859998 0
0.11544886 0.063686013 0.36110583 1 0 7 0.0063999998 0.52609998 -0.85039997 0
0.10956523 0.063058078 0.35446113 61 63 67 0.317 0.6451 -0.69520003 0
0.092169978 0.064561836 0.34765917 125 124 129 -0.20100001 0.4014 -0.89359999 0
0.072337732 0.07373412 0.41569787 40 39 42 -0.30759999 -0.49630001 -0.8118 0
0.031778913 0.071367688 0.35985246 241 213 204 0.074299999 0.7877 -0.61159998 0
0.011662518 0.07242699 0.35741982 239 209 198 0.049600001 0.81910002 -0.5715 0
-0.0003645746 0.074870832 0.36327374 255 249 245 -0.081299998 0.70829999 -0.70120001 0
-0.004634711 0.074195705 0.35968986 250 223 216 -0.2949 0.62489998 -0.72289997 0
-0.020960236 0.076061495 0.36486164 237 221 209 0.1187 0.76950002 -0.6275 0
-0.057546832 0.078679509 0.36235347 222 201 192 -0.068499997 0.83499998 -0.54589999 0
-0.074365407 0.080427997 0.36390927 227 210 202 -0.1269 0.82959998 -0.54369998 0
-0.095256142 0.081661597 0.36708802 150 154 162 0.0854 0.73970002 -0.6674 0
0.18740448 0.05107623 0.29229128 220 218 221 -0.4465 0.33070001 -0.83139998 0
0.17322466 0.053877734 0.30666077 192 192 194 -0.68790001 0.098499998 -0.7191 0
0.16468917 0.05513842 0.31631306 194 184 189 -0.70029998 0.1053 -0.70599997 0
0.14644459 0.058415357 0.33046585 255 255 255 -0.4747 0.56840003 -0.67199999 0
0.1379336 0.060426392 0.33715823 109 111 115 -0.1221 0.67159998 -0.73079997 0
0.12467601 0.061929129 0.34148091 129 128 135 -0.43779999 0.56510001 -0.69929999 0
0.11886196 0.064216167 0.35972977 3 4 13 -0.68910003 0.2811 -0.66799998 0
0.096726209 0.065162897 0.35117713 53 55 59 0.2142 0.51279998 -0.83130002 0
0.035919819 0.072051913 0.36366898 228 198 190 0.1292 0.77039999 -0.6243 0
0.015658157 0.073009402 0.35861769 228 198 188 0.077500001 0.84020001 -0.53670001 0
-0.01709877 0.076736026 0.3672961 243 224 212 -0.094499998 0.73900002 -0.667 0
-0.036670901 0.077389203 0.35806116 209 193 185 0.14300001 0.88260001 -0.4479 0
-0.040245797 0.076670557 0.35472697 179 169 163 -0.0418 0.8707 -0.49000001 0
-0.053765994 0.079301357 0.36319235 231 210 201 -0.046700001 0.8466 -0.53009999 0
-0.091462679 0.082281478 0.36776707 150 154 160 0.0162 0.74940002 -0.66189998 0
0.14988683 0.058938939 0.33054069 159 154 160 -0.67409998 0.37239999 -0.63789999 0
0.10167423 0.065774769 0.35547948 27 32 42 0.24950001 0.61500001 -0.74800003 0
0.039855938 0.072669223 0.36502588 233 207 200 0.0889 0.76120001 -0.64240003 0
0.019694932 0.073654696 0.36133388 238 212 203 0.015699999 0.8283 -0.56010002 0
0.0034079202 0.075303443 0.36026397 236 210 200 0.024599999 0.76380002 -0.64499998 0
-0.013105917 0.077292323 0.36706048 246 227 218 -0.26350001 0.62059999 -0.7385 0
-0.033280209 0.07818193 0.36238936 204 186 174 0.1497 0.84680003 -0.51050001 0
-0.049805135 0.079887673 0.36357978 227 205 197 -0.051600002 0.86409998 -0.5007 0
-0.070406742 0.081020437 0.36444387 227 210 204 -0.065499999 0.84069997 -0.53750002 0
-0.087561041 0.082874089 0.36789891 161 163 167 -0.0306 0.78549999 -0.61809999 0
-0.10497874 0.084788956 0.37150463 237 239 239 0.040800001 0.71869999 -0.69419998 0
0.17506878 0.054392271 0.30441314 140 139 144 -0.6961 0.1135 -0.70889997 0
0.16537514 0.05567025 0.31096894 94 94 98 -0.61979997 0.12989999 -0.77389997 0
