ply
format ascii 1.0
comment PCL generated
element vertex 584
property float x
property float y
property float z
property uchar red
property uchar green
property uchar blue
property float nx
property float ny
property float nz
property float curvature
element camera 0
property float view_px
property float view_py
property float view_pz
property float x_axisx
property float x_axisy
property float x_axisz
property float y_axisx
property float y_axisy
property float y_axisz
property float z_axisx
property float z_axisy
property float z_axisz
property float focal
property float scalex
property float scaley
property float centerx
property float centery
property int viewportx
property int viewporty
property float k1
property float k2
end_header
0.19529478 -0.010927259 0.2727727 181 176 182 -0.37920001 -0.2465 -0.8919 0
0.18820278 -0.010388072 0.27758867 236 233 236 -0.55470002 -0.12970001 -0.82190001 0
0.17059359 -0.010152595 0.28938121 190 112 118 -0.498 0.278 -0.82139999 0
0.15303485 -0.01053961 0.3065173 153 150 153 -0.58520001 -0.29069999 -0.75700003 0
0.13389353 -0.011246166 0.32831353 119 119 119 -0.53839999 0.7274 -0.42550001 0
0.12767383 -0.012256475 0.34625852 86 85 120 -0.70130002 -0.0149 -0.71270001 0
0.1252832 -0.012957511 0.36935225 255 249 227 -0.4032 -0.097800002 -0.90990001 0
0.050835446 -0.0080501251 0.33748424 255 235 211 -0.0638 -0.39590001 -0.91610003 0
0.034390498 -0.0070811291 0.33784431 240 206 190 0.052099999 -0.39930001 -0.91540003 0
0.017662704 -0.0063735517 0.340404 248 213 191 -0.2726 0.1688 -0.9472 0
0.00075696816 -0.0053506754 0.34080616 255 233 219 -0.067699999 -0.1236 -0.99000001 0
-0.056129422 -0.0019044802 0.32931009 255 255 235 -0.095200002 -0.2148 -0.972 0
-0.073130235 -0.0011041054 0.33181107 255 255 248 -0.2159 -0.0288 -0.97600001 0
-0.090737626 -0.0006094969 0.3366442 255 255 255 -0.43200001 -0.0977 -0.89660001 0
0.19809557 -0.010213938 0.27205119 210 209 214 -0.2974 -0.27360001 -0.91469997 0
0.18118449 -0.0099586258 0.28338298 226 223 227 -0.61229998 0.0071999999 -0.7906 0
0.14356473 -0.0097108772 0.3118411 144 146 148 -0.40669999 -0.2226 -0.88599998 0
0.13012533 -0.010846683 0.34196728 15 16 41 -0.74959999 0.23980001 -0.61699998 0
0.10874788 -0.012539797 0.37476078 255 223 202 -0.079000004 -0.3933 -0.91600001 0
0.071322441 -0.0084435008 0.33817667 255 225 201 0.127 -0.54839998 -0.8265 0
0.054714818 -0.0072068227 0.33674476 255 229 207 -0.036699999 -0.3935 -0.91860002 0
0.03853048 -0.0065750689 0.33946866 169 121 108 0.1252 -0.43279999 -0.89279997 0
0.021718092 -0.0056297886 0.34034559 255 235 217 -0.3969 -0.054299999 -0.91619998 0
-0.016121488 -0.0041614086 0.34019566 237 200 189 -0.071099997 -0.29899999 -0.95160002 0
-0.086183533 0.00045281067 0.33402333 255 255 255 -0.40360001 -0.0616 -0.91280001 0
0.18989359 -0.0093172491 0.27500257 192 190 193 -0.48140001 -0.079099998 -0.87290001 0
0.17344533 -0.009369744 0.28861749 185 166 170 -0.54790002 0.22930001 -0.80449998 0
0.15543821 -0.0094157085 0.30366382 255 255 255 -0.5061 -0.2324 -0.83060002 0
0.13580754 -0.0097125303 0.32283527 206 206 208 -0.66009998 0.62169999 -0.42160001 0
0.12885657 -0.01185857 0.36713004 255 251 231 -0.49290001 -0.1011 -0.8642 0
0.11270851 -0.011535461 0.37325734 255 231 208 -0.1733 -0.3299 -0.92799997 0
0.081899859 -0.0090581635 0.35286918 164 124 106 0.67030001 -0.53820002 -0.51090002 0
0.076834515 -0.0090584075 0.34747481 197 164 143 0.45910001 -0.50840002 -0.72850001 0
0.058652177 -0.006456709 0.33661318 255 228 204 -0.0207 -0.39089999 -0.92019999 0
0.04251181 -0.0057716821 0.33899754 255 226 213 0.0126 -0.54729998 -0.83679998 0
0.0049216975 -0.0045302548 0.34013069 255 217 201 0.085000001 -0.033199999 -0.99580002 0
-0.012084726 -0.0034023093 0.3399817 242 207 196 0.0048000002 -0.36199999 -0.93220001 0
-0.048344605 -0.00049033569 0.32930303 230 204 193 0.28830001 -0.2014 -0.93610001 0
-0.052048732 -0.0010784112 0.32834625 255 236 219 0.0046999999 -0.19679999 -0.98040003 0
-0.068660207 -0.00011581716 0.32958353 255 233 221 -0.24169999 -0.0275 -0.97000003 0
0.19231647 -0.0084795505 0.27371031 170 167 173 -0.49880001 -0.063199997 -0.86440003 0
0.18311788 -0.0089138411 0.2810128 213 210 216 -0.72930002 -0.0175 -0.68400002 0
0.17600189 -0.0084885499 0.28720766 210 207 212 -0.48280001 0.1662 -0.85979998 0
0.16510995 -0.0086602559 0.29352212 159 141 145 -0.44769999 0.36250001 -0.81739998 0
0.15727481 -0.008163074 0.30007884 255 255 255 -0.2581 -0.31850001 -0.91210002 0
0.14649481 -0.0087487511 0.30988008 94 90 96 -0.2683 -0.0363 -0.96270001 0
0.13239445 -0.0094092321 0.33731374 4 5 27 -0.69679999 0.3678 -0.61580002 0
0.11691733 -0.010673247 0.37265933 255 240 218 -0.25650001 -0.27160001 -0.92760003 0
0.099000171 -0.0096241888 0.37385997 187 149 130 0.50529999 -0.25490001 -0.82440001 0
0.092628166 -0.0091139507 0.36439878 160 117 100 0.74169999 -0.4104 -0.53049999 0
0.08677236 -0.0088274498 0.35671651 175 135 114 0.57859999 -0.56919998 -0.58420002 0
0.062419754 -0.0056343973 0.33602592 255 234 208 -0.054200001 -0.4508 -0.89099997 0
0.025685646 -0.0046183015 0.3382917 255 251 235 -0.36930001 -0.2802 -0.88609999 0
0.012944498 -0.0033135558 0.34219164 240 200 179 0.057 0.070600003 -0.99589998 0
0.0088728359 -0.0038784829 0.34082639 242 203 180 0.2536 0.13699999 -0.9576 0
-0.0081009837 -0.0027851977 0.34090397 255 255 247 0.1229 -0.42410001 -0.89719999 0
-0.064597182 0.00069276249 0.32876229 255 255 235 -0.1798 -0.0305 -0.98320001 0
-0.081889927 0.0013147778 0.33279365 255 255 241 -0.2775 -0.032699998 -0.96020001 0
-1.0946654 -0.029960837 1.7393603 228 228 228 0 0 0 0
0.1850834 -0.0078762807 0.27839679 219 218 221 -0.64499998 0.0102 -0.76410002 0
0.16814366 -0.0079140523 0.29305807 164 75 91 -0.4305 0.2617 -0.86379999 0
0.14958437 -0.007845372 0.3083103 159 159 159 -0.4061 0.039099999 -0.91299999 0
0.13498209 -0.0081410958 0.33364311 21 21 49 -0.345 0.5219 -0.78009999 0
0.12827934 -0.0088461097 0.35112506 255 228 222 0.9271 -0.12800001 -0.3524 0
0.1207175 -0.0096393134 0.37087047 255 243 222 -0.2403 -0.2388 -0.94090003 0
0.04620368 -0.0048007872 0.33739403 255 219 198 -0.0309 -0.51719999 -0.85530001 0
0.029606635 -0.003684045 0.33679909 255 242 224 -0.24879999 -0.41620001 -0.87459999 0
-0.0041088522 -0.0021276106 0.34151262 255 245 226 0.094800003 -0.419 -0.903 0
-0.040919363 0.00019812377 0.33490506 175 144 127 0.58139998 -0.076800004 -0.81 0
-0.044504225 0.0001674766 0.32971194 142 126 113 0.51419997 -0.15800001 -0.84299999 0
-0.060902618 0.001295295 0.3296127 255 255 251 -0.1336 -0.058600001 -0.98930001 0
-0.077734038 0.0020937615 0.33218974 255 255 244 -0.1337 0.0174 -0.99089998 0
-0.096216634 0.0023921959 0.33921158 245 214 204 -0.32190001 -0.072899997 -0.94400001 0
-1.1395434 -0.031112367 1.8451444 225 225 225 -0.191 0.4657 -0.86409998 0
0.19465148 -0.0076463423 0.27237937 226 223 227 -0.46270001 -0.082099997 -0.88270003 0
0.17850275 -0.0075959442 0.28565326 201 195 202 -0.54979998 0.044199999 -0.83410001 0
0.17118485 -0.0071334839 0.29212064 180 80 105 -0.51249999 0.055199999 -0.85689998 0
0.15211016 -0.0068182414 0.30605778 147 146 149 -0.65679997 0.036699999 -0.75319999 0
0.13830285 -0.0071566198 0.33165678 76 79 87 0.176 0.3594 -0.91640002 0
0.10306753 -0.0086627975 0.37254673 186 143 123 0.2868 -0.32600001 -0.90079999 0
0.066231564 -0.0048110401 0.33535963 255 247 223 -0.046700001 -0.50870001 -0.85970002 0
0.050058804 -0.0039261626 0.33637521 255 229 207 0.060600001 -0.43990001 -0.89600003 0
0.033463135 -0.0027580597 0.33535549 255 227 203 -0.050999999 -0.48609999 -0.87239999 0
0.017011877 -0.0025484061 0.3419818 255 225 209 -0.30039999 -0.1346 -0.9443 0
-0.037260775 0.00085472118 0.33555886 188 152 134 0.40040001 -0.122 -0.90820003 0
-0.056862913 0.0020593209 0.32908252 255 255 238 -0.131 -0.1051 -0.98580003 0
-0.073718265 0.0028894886 0.33152863 255 241 225 -0.211 -0.0080000004 -0.97750002 0
-0.091613516 0.0033557063 0.33714756 255 255 242 -0.40880001 -0.089100003 -0.90829998 0
-1.1349183 -0.028052328 1.8709141 227 227 227 0.3285 0.55549997 -0.76389998 0
0.19667625 -0.0067175166 0.27033731 190 187 193 -0.3565 -0.1145 -0.92729998 0
0.18706067 -0.006906684 0.27636385 236 231 235 -0.59119999 0.078199998 -0.80269998 0
0.18068184 -0.0066303289 0.28370237 237 234 237 -0.6408 0.0473 -0.76630002 0
0.16381207 -0.0067476686 0.29939237 136 128 136 -0.30090001 0.033500001 -0.95310003 0
0.1298711 -0.0070159002 0.34327081 27 31 64 -0.78130001 -0.0242 -0.62370002 0
0.12423097 -0.008533068 0.36849633 255 252 229 -0.28760001 -0.1294 -0.949 0
0.10758662 -0.0079545742 0.37307936 215 179 159 0.029300001 -0.34509999 -0.93809998 0
0.069968134 -0.0039170929 0.33410987 255 239 216 0.064900003 -0.51550001 -0.8545 0
0.053947091 -0.0031527118 0.33608854 255 226 205 0.0052 -0.3673 -0.93010002 0
0.020960538 -0.0016062995 0.34040356 255 239 224 -0.41600001 -0.29010001 -0.86189997 0
8.4532941e-05 -0.0012186619 0.34004217 255 217 197 0.095299996 -0.38150001 -0.91939998 0
-0.01699182 -0.00031842859 0.34182614 230 195 187 -0.085199997 -0.53359997 -0.84140003 0
0.18948531 -0.0060839928 0.27521938 186 183 186 -0.5194 0.035100002 -0.8538 0
0.1831781 -0.0057921456 0.2824963 218 215 219 -0.61040002 0.1636 -0.77499998 0
0.1734236 -0.0061314856 0.2898533 174 119 124 -0.56569999 -0.077799998 -0.82090002 0
0.16475309 -0.005236662 0.29393184 127 57 67 -0.34330001 0.1216 -0.93129998 0
0.154928 -0.0058702747 0.3040235 255 255 255 -0.54369998 -0.1584 -0.82419997 0
0.12846255 -0.0077204695 0.368173 255 255 235 -0.43200001 -0.1515 -0.88910002 0
0.11152668 -0.0069849431 0.37168273 248 215 192 -0.1097 -0.34099999 -0.93360001 0
0.074157029 -0.0033892186 0.33557171 211 170 152 0.29530001 -0.4664 -0.83380002 0
0.057707701 -0.0023017714 0.33522534 255 231 213 -0.067000002 -0.3265 -0.94279999 0
0.03745779 -0.0020542708 0.33553886 228 188 172 0.0162 -0.55629998 -0.8308 0
0.0041211001 -0.00048021294 0.34001735 238 195 178 0.19599999 -0.285 -0.93830001 0
-0.012744483 0.00067243114 0.33963585 255 245 228 0.050700001 -0.59729999 -0.80040002 0
-0.052605152 0.0029091588 0.32778099 255 235 217 -0.020500001 -0.1021 -0.9946 0
-0.069673061 0.0036188923 0.33134127 255 247 233 -0.25209999 -0.0127 -0.96759999 0
-0.087075375 0.0043135085 0.33503661 255 255 243 -0.38659999 -0.080399998 -0.91869998 0
0.19265236 -0.00547759 0.27523497 224 221 226 -0.5715 -0.0076000001 -0.82059997 0
0.17546755 -0.0050832354 0.28718039 230 225 229 -0.36680001 -0.1241 -0.92199999 0
0.15827507 -0.0051775565 0.30405042 255 255 255 -0.37970001 -0.30149999 -0.87459999 0
0.14546132 -0.0049361419 0.30904129 160 162 164 -0.33059999 0.29339999 -0.89700001 0
0.13318549 -0.0060432712 0.34159127 25 28 54 -0.60350001 -0.0594 -0.79519999 0
0.12972529 -0.0056876419 0.35863245 255 255 234 -0.56339997 -0.1355 -0.815 0
0.11550564 -0.0060547437 0.37055603 255 227 205 -0.2123 -0.336 -0.91759998 0
0.084711306 -0.0037473647 0.34976286 179 139 121 0.55159998 -0.4799 -0.68220001 0
0.078888088 -0.0033014771 0.34047207 180 144 124 0.60439998 -0.37419999 -0.70340002 0
0.024799274 -0.00044173156 0.33700791 255 252 234 -0.39140001 -0.4122 -0.82270002 0
0.012451159 -5.8708061e-05 0.34877154 229 184 165 0.084700003 -0.55150002 -0.82990003 0
0.0081986068 -6.3719337e-05 0.34263888 231 186 170 0.1259 -0.52429998 -0.84219998 0
-0.048925657 0.0034893434 0.32881486 255 224 207 0.20209999 -0.12729999 -0.97109997 0
-0.06549152 0.0044649043 0.33012265 255 255 242 -0.2032 -0.017200001 -0.97899997 0
-0.082689926 0.0052321614 0.33328363 255 255 247 -0.26179999 -0.0451 -0.9641 0
-0.1009629 0.0057040565 0.33922905 159 139 132 -0.17 0.045299999 -0.98439997 0
0.18495731 -0.0047323001 0.27964714 186 182 188 -0.50300002 0.30140001 -0.81 0
0.1791001 -0.0045276778 0.28764677 162 159 163 -0.47310001 -0.18359999 -0.8617 0
0.16782144 -0.0045107752 0.29345128 191 107 120 -0.38550001 0.14830001 -0.91070002 0
0.16095698 -0.0042511872 0.30218351 102 102 106 -0.29480001 -0.29269999 -0.90960002 0
0.14906026 -0.0042938665 0.30924687 181 178 181 -0.2735 0.57660002 -0.76990002 0
0.13654874 -0.0050780489 0.33977911 31 34 60 -0.24240001 0.035700001 -0.96950001 0
0.11960577 -0.0051971744 0.36996412 255 242 222 -0.18000001 -0.28979999 -0.94 0
0.097232357 -0.0046632891 0.36889088 167 124 107 0.66600001 -0.2455 -0.7044 0
0.090134718 -0.0038433983 0.35640571 177 137 116 0.65829998 -0.3924 -0.64240003 0
0.06146406 -0.0014055502 0.33391777 255 242 221 -0.1505 -0.34560001 -0.92619997 0
0.045217246 -0.00045072977 0.33447358 252 208 189 0.0447 -0.57029998 -0.82020003 0
0.028778676 0.00048041379 0.33538499 236 215 204 -0.32300001 -0.4862 -0.81199998 0
-0.0086920047 0.0014777425 0.33895329 255 242 224 0.12729999 -0.59119999 -0.79640001 0
-0.045322955 0.0040930854 0.32979017 220 198 190 0.43000001 -0.1552 -0.88940001 0
-0.061433218 0.0052551548 0.3293511 255 255 250 -0.16339999 -0.0096000005 -0.98650002 0
-0.078527637 0.00602144 0.33258665 255 250 230 -0.13259999 0.015699999 -0.991 0
-0.096938334 0.0064267921 0.33930406 229 203 191 -0.32460001 -0.102 -0.94029999 0
-1.1145973 -0.0088443141 1.79864 230 230 230 0.1129 -0.0145 -0.99349999 0
0.19386549 -0.0043569896 0.27214068 244 234 239 -0.5729 -0.0038000001 -0.81959999 0
0.18681718 -0.0037291679 0.27723143 245 242 245 -0.54979998 0.40090001 -0.73280001 0
0.17119136 -0.0038579388 0.29340884 159 86 99 -0.55500001 -0.075800002 -0.82840002 0
0.15121379 -0.0031358434 0.30581042 79 75 72 -0.53259999 0.55500001 -0.639 0
0.14055628 -0.0043321378 0.33930904 43 45 72 0.1821 0.1199 -0.97589999 0
0.10168975 -0.0040103318 0.37005565 186 143 123 0.38870001 -0.24950001 -0.88690001 0
0.065126017 -0.00053165585 0.33277655 255 229 208 -0.1673 -0.38589999 -0.90719998 0
0.049088769 0.00031680038 0.33417422 216 178 161 0.2137 -0.44060001 -0.87190002 0
0.016439587 0.0011721402 0.34460959 229 190 178 0.0261 -0.67089999 -0.74110001 0
-0.0048169177 0.0021491495 0.33955795 255 240 216 0.1175 -0.61110002 -0.78280002 0
-0.038135003 0.004835506 0.33579457 183 147 130 0.3258 -0.1055 -0.93949997 0
-0.041628983 0.0044649518 0.33262357 160 135 123 0.5772 -0.1194 -0.80779999 0
-0.057348423 0.0060734954 0.32829514 255 253 234 -0.14300001 0.017100001 -0.9896 0
-0.074599117 0.0067708972 0.33230662 255 246 230 -0.1899 -0.0126 -0.9817 0
-0.092467867 0.0073124999 0.33778626 255 247 232 -0.3865 -0.1235 -0.91399997 0
-1.1211196 -0.006294887 1.8418945 229 229 229 0.14380001 0.70550001 -0.69400001 0
0.19580662 -0.0034437932 0.27023244 183 99 114 -0.4777 0.059799999 -0.87650001 0
0.1811879 -0.0035600972 0.2854957 203 200 203 -0.50650001 -0.1707 -0.8452 0
0.16302282 -0.0031176421 0.2988914 105 95 101 -0.1503 -0.30090001 -0.94169998 0
0.14523636 -0.0038622543 0.34100193 31 34 60 0.141 -0.027100001 -0.9896 0
0.12931082 -0.003072612 0.34394318 76 86 124 -0.74839997 -0.24259999 -0.61729997 0
0.12322986 -0.0041228514 0.36757785 255 252 229 -0.1463 -0.2482 -0.9576 0
0.10639793 -0.0034130749 0.37150821 184 144 121 0.071699999 -0.1882 -0.9795 0
0.06885273 0.00031736848 0.33175611 255 233 209 -0.0074 -0.40720001 -0.91329998 0
0.053013965 0.0010482408 0.33414751 248 210 187 0.13959999 -0.3423 -0.92919999 0
0.032579519 0.0014389398 0.3335011 255 235 214 -0.096600004 -0.5244 -0.84600002 0
-0.00071209844 0.0028181917 0.34012133 255 217 194 0.1193 -0.63230002 -0.76550001 0
-0.03376469 0.0058686258 0.33283803 186 148 131 -0.1051 -0.066399999 -0.99220002 0
-1.1125982 -0.0034740937 1.8631153 228 228 228 0.1002 0.34779999 -0.93220001 0
0.18925662 -0.0029278058 0.27605391 190 187 193 -0.54909998 0.37889999 -0.74489999 0
0.17306569 -0.0028042237 0.29075778 201 184 192 -0.62459999 -0.1954 -0.7561 0
0.16730317 -0.0027149701 0.30065992 127 58 76 -0.23549999 -0.1919 -0.95279998 0
0.15289597 -0.0018230823 0.3010076 224 221 224 -0.56410003 0.0134 -0.82560003 0
0.14940539 -0.0032460149 0.34189802 20 22 49 -0.2404 -0.22400001 -0.94450003 0
0.12775525 -0.0034647109 0.36850783 255 255 236 -0.35949999 -0.219 -0.90710002 0
0.11059144 -0.002576293 0.3710618 230 194 176 -0.1167 -0.182 -0.9763 0
0.072949968 0.0008861596 0.33296475 221 188 169 0.27200001 -0.3617 -0.89170003 0
0.036554936 0.0022171109 0.33299685 232 176 157 -0.00019999999 -0.51800001 -0.85540003 0
0.020336077 0.0024495334 0.34003818 255 225 213 -0.0625 -0.62559998 -0.77759999 0
0.0032579666 0.003552869 0.34015378 232 189 172 0.0074999998 -0.73180002 -0.68150002 0
-0.017293386 0.0045281751 0.33466959 237 211 202 -0.034400001 -0.78100002 -0.62360001 0
-0.053220399 0.0068755033 0.32731587 255 227 210 -0.0594 0.0060999999 -0.9982 0
-0.070397377 0.0075895195 0.33120164 255 241 221 -0.2314 -0.017200001 -0.9727 0
-0.087656438 0.0083775586 0.33446568 255 255 253 -0.35499999 -0.0942 -0.93010002 0
-0.10222672 0.0095619084 0.341232 163 146 136 -0.176 -0.2307 -0.95700002 0
-1.0908536 0.00072770205 1.8600389 229 229 229 -0.35589999 0.051800001 -0.93309999 0
-1.1815882 0.0030130192 1.8357915 222 224 223 0.062899999 -0.55900002 -0.82679999 0
0.19165239 -0.0021289585 0.27490422 223 223 223 -0.62489998 0.2462 -0.74080002 0
0.18217795 -0.0023181927 0.28159398 216 213 218 -0.29539999 -0.038800001 -0.95459998 0
0.17521733 -0.0018110627 0.28831217 176 168 175 -0.39449999 -0.29359999 -0.8707 0
0.15614358 -0.0011087963 0.30059505 141 140 147 -0.31869999 -0.4639 -0.82660002 0
0.15035206 -0.0012450715 0.31376094 175 175 175 -0.1514 0.71399999 -0.68360001 0
0.13198876 -0.001862149 0.340215 40 44 79 -0.50830001 -0.25780001 -0.82169998 0
0.12994893 -0.0018781879 0.36153898 255 255 244 -0.68330002 -0.27320001 -0.6771 0
0.11440888 -0.0015887159 0.36931568 247 214 193 -0.2626 -0.2022 -0.94349998 0
0.077105314 0.0013997926 0.33478984 188 156 142 0.57709998 -0.2476 -0.77819997 0
0.056795776 0.0018749031 0.33331579 255 231 211 -0.032400001 -0.26499999 -0.9637 0
0.02413434 0.00357263 0.33673635 255 242 228 -0.31819999 -0.57279998 -0.7554 0
-0.013236511 0.0052151168 0.33500582 255 237 218 0.1481 -0.70380002 -0.69480002 0
-0.04950653 0.0075030257 0.32805681 255 222 206 0.067900002 -0.0252 -0.99739999 0
-0.066226885 0.0083953924 0.33021873 255 255 240 -0.2042 -0.0145 -0.9788 0
-0.083365239 0.0092615383 0.33284217 255 255 239 -0.22759999 -0.0352 -0.97310001 0
-1.080119 0.0037423335 1.8804611 230 230 232 -0.062799998 0.1825 -0.98119998 0
-1.1589459 0.006793981 1.8319973 228 228 230 -0.45429999 -0.2146 -0.8646 0
0.18483198 -0.0015344167 0.28056538 188 185 188 -0.30610001 0.14650001 -0.94069999 0
0.17831947 -0.0011031703 0.28772354 191 189 192 -0.46520001 -0.28240001 -0.83899999 0
0.15317902 -0.00030481894 0.31175429 116 112 118 -0.49810001 0.72170001 -0.48069999 0
0.13529201 -0.00088659051 0.33809388 24 28 56 -0.19320001 -0.17039999 -0.96630001 0
0.088117734 0.0010729715 0.34994492 196 160 141 0.71429998 -0.2288 -0.66140002 0
0.082936265 0.0010041893 0.34401849 168 128 107 0.81519997 -0.2701 -0.5122 0
0.060701255 0.0026014426 0.33330169 255 233 213 -0.19329999 -0.2256 -0.95490003 0
0.04419614 0.0038824605 0.33109051 255 249 243 0.0625 -0.49939999 -0.86409998 0
0.0075104907 0.004996195 0.33333316 255 255 244 -0.2422 -0.87830001 -0.4122 0
-0.009359166 0.0059930487 0.33458409 255 232 216 0.14309999 -0.6965 -0.70319998 0
-0.045757458 0.0081503028 0.32858324 231 204 193 0.29030001 -0.1119 -0.95039999 0
-0.062237125 0.009178441 0.32949862 255 255 252 -0.19410001 0.0038999999 -0.98100001 0
-0.079222329 0.0099774562 0.33269089 255 255 243 -0.1441 0.0243 -0.98930001 0
-0.097527154 0.010493881 0.33902466 219 194 180 -0.24150001 -0.2085 -0.94770002 0
-1.1701092 0.010074888 1.8821731 228 228 230 -0.1006 -0.62349999 -0.77530003 0
0.19380358 -0.0012644117 0.27321851 187 182 184 -0.60100001 0.075000003 -0.79570001 0
0.18799609 -0.00088772434 0.2802937 196 193 196 -0.4427 0.2326 -0.866 0
0.15850058 -0.00010164353 0.2979497 141 140 145 -0.2467 -0.37090001 -0.89529997 0
0.13927872 -0.00017610747 0.33804423 25 27 59 0.13410001 -0.059099998 -0.9892 0
0.11843974 -0.00071765884 0.36849329 255 227 207 -0.19069999 -0.16500001 -0.9677 0
0.10060745 0.00042536386 0.3691017 192 152 132 0.44710001 -0.059799999 -0.89249998 0
0.094334558 0.00068926287 0.35972992 171 131 113 0.81879997 -0.20819999 -0.53490001 0
0.064393088 0.0034419529 0.33236057 255 230 208 -0.2467 -0.2414 -0.93849999 0
0.028035469 0.0046990286 0.33304921 255 249 233 -0.35890001 -0.5395 -0.76169997 0
-0.0053795935 0.0067360685 0.33435225 255 246 225 0.042399999 -0.74360001 -0.66729999 0
-0.042102925 0.0086464081 0.33058909 175 150 136 0.55449998 -0.1663 -0.8154 0
-1.0760764 0.0066852234 1.9111954 232 231 234 -0.099699996 0.030300001 -0.9946 0
-1.1652855 0.013197425 1.9091815 227 229 230 -0.1246 -0.61250001 -0.78060001 0
0.1963702 -0.00051941024 0.27219155 223 211 215 -0.46950001 0.0669 -0.8804 0
0.17990069 -4.2225438e-06 0.28435954 197 194 198 -0.3811 -0.2374 -0.89359999 0
0.16165172 0.00063145062 0.29740956 94 90 96 -0.0814 -0.38100001 -0.921 0
0.1550997 0.00087584229 0.30784625 172 172 172 -0.38100001 0.80190003 -0.46020001 0
0.15152223 4.4233562e-05 0.32754493 34 34 61 -0.87029999 0.0964 -0.48300001 0
0.14360575 0.00040269856 0.33922955 5 7 36 0.045499999 -0.0605 -0.9971 0
0.12864138 0.0009684668 0.34376785 122 119 150 -0.78710002 -0.099699996 -0.60869998 0
0.12254278 0.00014578503 0.36762846 255 243 225 -0.1252 -0.1811 -0.97549999 0
0.10520892 0.0010662364 0.37028879 192 152 134 0.2236 -0.083300002 -0.97109997 0
0.052207801 0.0050533526 0.33367994 208 162 150 0.2906 -0.28479999 -0.91350001 0
0.048038904 0.0045689875 0.33150762 197 144 130 0.3044 -0.38960001 -0.86919999 0
0.031750202 0.0057271444 0.33032024 255 255 248 -0.13950001 -0.51800001 -0.84390002 0
0.015360591 0.0064682988 0.33324099 225 175 164 0.59249997 -0.57349998 -0.56569999 0
0.01148755 0.0058696284 0.33179307 255 255 235 0.27919999 -0.79879999 -0.53280002 0
-0.0013753615 0.0072975345 0.33578521 255 218 197 -0.0052999998 -0.79280001 -0.60949999 0
-0.038646534 0.0089105936 0.33497936 190 156 140 0.43790001 -0.1645 -0.88380003 0
-0.058068935 0.010022607 0.32804674 255 250 232 -0.15700001 0.046 -0.98650002 0
-0.075260051 0.010690134 0.33267313 255 247 229 -0.197 0.0274 -0.98000002 0
-0.092936732 0.011420345 0.33690026 255 232 216 -0.33739999 -0.1318 -0.9321 0
0.18936075 0.00019125846 0.27707618 219 216 220 -0.52249998 0.27759999 -0.80620003 0
0.18221849 0.00085059914 0.28299448 177 175 178 -0.1224 -0.059 -0.99070001 0
0.17115627 0.0010221472 0.28792921 127 125 128 -0.40130001 -0.29960001 -0.86559999 0
0.15288255 0.001459947 0.32197234 19 20 40 -0.78799999 0.22499999 -0.57309997 0
0.14791048 0.0010216119 0.339928 40 44 75 -0.51770002 -0.1314 -0.84539998 0
0.12670359 0.00093182304 0.36756986 255 254 229 -0.28400001 -0.1785 -0.94209999 0
0.10936178 0.0018971297 0.36982527 215 181 166 -0.091700003 -0.0638 -0.99370003 0
0.067805275 0.0044760751 0.32955161 255 227 205 -0.098200001 -0.2172 -0.97119999 0
0.03567598 0.0063733771 0.33102986 186 120 117 0.00050000002 -0.43130001 -0.90219998 0
0.019545421 0.0068835369 0.33611757 150 95 86 0.068800002 -0.59509999 -0.80070001 0
-0.05407868 0.01071374 0.32812548 255 239 222 -0.085500002 0.037900001 -0.99559999 0
-0.070966154 0.011606469 0.33056363 255 232 215 -0.23989999 0.033399999 -0.9702 0
-0.088331595 0.012381569 0.33431399 255 254 237 -0.3281 -0.070500001 -0.94199997 0
-1.1465651 0.024328416 1.775676 230 230 232 -0.36719999 0.67180002 -0.6433 0
0.19115758 0.0011312409 0.27489132 191 189 190 -0.59100002 0.1543 -0.79170001 0
0.18611044 0.001314136 0.28414133 191 189 192 -0.1718 0.078900002 -0.98199999 0
0.17451486 0.0016514066 0.28794917 120 117 123 -0.4885 -0.2045 -0.84820002 0
0.16447778 0.0014490458 0.29600513 80 76 82 -0.17380001 -0.52999997 -0.82999998 0
0.1308448 0.0022780604 0.33897611 25 28 66 -0.56639999 -0.0199 -0.82389998 0
0.13002387 0.0020578594 0.36413282 255 255 246 -0.65649998 -0.271 -0.704 0
0.11330215 0.0028235249 0.36841804 232 194 177 -0.27700001 -0.079899997 -0.9576 0
0.071582362 0.0052016913 0.32950908 224 188 172 0.16859999 -0.13950001 -0.97579998 0
0.056037877 0.0058510224 0.33298683 239 197 177 0.1019 -0.20370001 -0.97369999 0
0.03963796 0.007206412 0.32979983 255 247 251 -0.040100001 -0.4104 -0.91100001 0
0.023321349 0.0078389207 0.33399737 223 194 190 -0.25479999 -0.49349999 -0.83160001 0
0.002565498 0.008202929 0.3340086 255 236 217 -0.3046 -0.84460002 -0.44029999 0
-0.013648258 0.0096072815 0.33086431 167 161 156 0.3123 -0.61549997 -0.72359997 0
-0.017628072 0.0092465291 0.32752952 231 220 203 0.1203 -0.53789997 -0.8344 0
-0.05026995 0.011381462 0.32846117 255 229 213 -0.0125 0.0275 -0.99949998 0
-0.066839583 0.012401676 0.32958937 255 255 241 -0.21789999 0.060199998 -0.97409999 0
-0.084190249 0.013167526 0.33358175 255 255 244 -0.22400001 -0.00019999999 -0.97460002 0
-1.1592385 0.027373107 1.8279241 230 230 232 -0.033 0.4862 -0.8732 0
0.19348308 0.0019429176 0.27327815 213 208 210 -0.55980003 -0.028899999 -0.82810003 0
0.14938192 0.0024967487 0.33341363 45 48 86 -0.85570002 -0.18529999 -0.48320001 0
0.13433471 0.0031630904 0.33744097 24 23 55 -0.1838 -0.0131 -0.98290002 0
0.087277524 0.0052416869 0.34929708 173 138 113 0.79909998 -0.1294 -0.58710003 0
0.075588524 0.0057766493 0.33080444 194 162 146 0.4919 -0.069200002 -0.86790001 0
0.059893221 0.0066492474 0.33216956 255 242 225 -0.16850001 -0.1187 -0.97850001 0
-0.0099452352 0.010134688 0.33289787 255 240 218 0.0328 -0.69410002 -0.7191 0
-0.046284448 0.012150771 0.32773572 241 206 195 0.15719999 -0.021500001 -0.98729998 0
-0.062910929 0.013086683 0.32977286 255 255 243 -0.2148 0.045899998 -0.9756 0
-0.079973802 0.013923205 0.33299312 255 244 222 -0.1531 0.051800001 -0.98689997 0
-0.098101534 0.014598104 0.33835664 204 181 168 -0.1561 -0.41479999 -0.89639997 0
-1.1740704 0.030688925 1.8833162 227 227 229 -0.1822 -0.0482 -0.98210001 0
0.18880084 0.0020827143 0.2829487 121 118 124 -0.30090001 0.153 -0.94129997 0
0.17649503 0.0026106662 0.28550252 136 135 140 -0.5851 -0.2219 -0.77999997 0
0.16990554 0.0031096081 0.29327327 114 107 119 -0.046100002 -0.20029999 -0.97869998 0
0.15412952 0.0028965285 0.31540659 233 231 232 -0.42449999 0.59649998 -0.68120003 0
0.13855734 0.0037913551 0.33810806 20 20 50 0.093500003 0.088799998 -0.99169999 0
0.13017169 0.0041909334 0.3516205 255 255 250 0.93010002 0.0083999997 -0.3671 0
0.11715 0.0037719349 0.36661908 240 205 185 -0.2112 -0.0502 -0.97610003 0
0.09998773 0.0047358768 0.36865973 156 111 94 0.6354 -0.051100001 -0.7705 0
0.092466943 0.0054309424 0.35470966 196 155 137 0.78369999 -0.087399997 -0.61500001 0
0.08068423 0.0057922751 0.33742332 168 132 113 0.69510001 -0.067500003 -0.71579999 0
0.063615464 0.0074333395 0.33160555 255 236 215 -0.2983 -0.096600004 -0.94959998 0
0.043156534 0.0081271864 0.32803088 255 238 237 -0.022299999 -0.39500001 -0.91839999 0
0.027196947 0.0089110397 0.33043975 255 238 229 -0.36989999 -0.42480001 -0.82630002 0
0.0067241471 0.009897898 0.32415462 255 255 244 -0.2649 -0.7719 -0.57789999 0
-0.042571824 0.012705351 0.32931736 214 184 174 0.4073 -0.0462 -0.91210002 0
0.19546875 0.0027944702 0.27156246 196 192 193 -0.29800001 -0.0995 -0.94940001 0
0.19093247 0.0029809205 0.28079998 166 163 166 -0.41530001 0.2251 -0.88139999 0
0.1780827 0.0036775828 0.28211313 74 71 76 -0.38530001 -0.17120001 -0.90679997 0
0.16216457 0.0038626362 0.29962423 59 55 61 -0.2428 -0.032000002 -0.96950001 0
0.15170686 0.0036346146 0.32985309 46 51 86 -0.82300001 -0.065899998 -0.56419998 0
0.14298503 0.004344861 0.3396059 24 26 55 -0.0099999998 0.0129 -0.99989998 0
0.12154511 0.0044998112 0.3669782 255 231 210 -0.15719999 -0.070100002 -0.98509997 0
0.10453465 0.0053458698 0.37059501 194 154 136 0.32120001 -0.0164 -0.94690001 0
0.046963565 0.0088787442 0.32763985 220 158 150 0.3592 -0.25920001 -0.89649999 0
0.030900719 0.0099524073 0.32715103 255 255 255 -0.19239999 -0.35699999 -0.91409999 0
-0.0058596847 0.011131331 0.32987359 255 255 235 -0.1434 -0.77689999 -0.61309999 0
-0.039034884 0.013101812 0.33269951 197 162 149 0.54869998 -0.1578 -0.82099998 0
-0.058756128 0.013906958 0.32843903 255 255 239 -0.1552 0.0124 -0.9878 0
-0.075907454 0.014678289 0.33244908 255 249 234 -0.17309999 0.045400001 -0.98379999 0
-0.093461588 0.015504262 0.33611906 224 197 184 -0.3109 -0.054400001 -0.94889998 0
-1.1571741 0.034285579 1.8901472 227 227 229 -0.67760003 0.1225 -0.72509998 0
0.18115935 0.0043223356 0.28204647 192 191 196 0.033300001 0.1149 -0.9928 0
0.17152356 0.0041999733 0.28984421 99 93 99 -0.2006 -0.0151 -0.9795 0
0.15632829 0.0038774256 0.29411957 87 87 91 -0.32640001 -0.50040001 -0.80190003 0
0.15424618 0.0046978761 0.326718 17 20 46 -0.61479998 -0.1558 -0.77319998 0
0.12563461 0.0052994615 0.36679596 255 250 230 -0.3276 -0.0638 -0.94270003 0
0.10890406 0.0061017 0.37081757 214 176 157 -0.058499999 -0.048900001 -0.9971 0
0.070909001 0.0090464 0.33008116 243 212 193 0.115 0.0294 -0.99290001 0
0.066966474 0.0084164422 0.32915914 247 214 193 -0.1957 -0.048900001 -0.9795 0
0.051433794 0.0091636991 0.33176747 170 125 108 0.4657 -0.1675 -0.8689 0
0.034821518 0.010583889 0.32794455 184 115 118 0.030999999 -0.28650001 -0.9576 0
0.018553302 0.011198405 0.33279458 157 111 99 0.4901 -0.48100001 -0.72689998 0
0.014368181 0.011137121 0.32599977 208 165 150 0.71799999 -0.49070001 -0.49360001 0
0.010578695 0.0109643 0.32043713 255 241 226 0.226 -0.62870002 -0.74400002 0
-0.0019583097 0.01195816 0.32864949 255 246 224 -0.22849999 -0.78979999 -0.56919998 0
-0.035500873 0.013500532 0.33623612 191 155 138 0.43169999 -0.29750001 -0.85149997 0
-0.054951809 0.014539584 0.32918441 255 244 228 -0.092600003 0.0026 -0.9957 0
-0.071851686 0.015466402 0.33161205 255 242 227 -0.2297 0.057799999 -0.97149998 0
-0.089113027 0.016346753 0.33468336 254 227 207 -0.29660001 -0.0046000001 -0.95499998 0
0.19281019 0.0038885465 0.27861792 94 89 93 -0.6401 -0.0148 -0.76819998 0
0.17371051 0.0050857603 0.28791961 118 113 117 -0.57779998 0.23360001 -0.78200001 0
0.14713435 0.0050170165 0.33975729 27 33 67 -0.50220001 -0.1559 -0.8506 0
0.13011567 0.0062312209 0.33941048 11 18 59 -0.62150002 0.1584 -0.76719999 0
0.12909476 0.0063126241 0.36441272 255 255 242 -0.69270003 -0.1154 -0.71200001 0
0.11311214 0.0069185072 0.37036601 229 192 177 -0.2773 -0.029899999 -0.96030003 0
0.055334002 0.0097868238 0.33291534 222 181 172 0.189 -0.055599999 -0.98040003 0
0.038989399 0.011165033 0.32908997 219 156 166 0.0062000002 -0.27320001 -0.9619 0
-0.014055341 0.014007075 0.32577798 237 205 193 0.044500001 -0.35229999 -0.93480003 0
-0.017833743 0.013761489 0.32093301 165 168 160 0.14820001 0.1503 -0.97750002 0
-0.050955474 0.015304476 0.32844952 255 239 223 -0.0502 -0.0066 -0.99870002 0
-0.067797191 0.016243549 0.33078402 255 252 237 -0.2207 0.076099999 -0.97240001 0
-0.085081458 0.017084084 0.33437562 255 241 224 -0.2245 0.024800001 -0.97420001 0
0.19481395 0.004763972 0.27663538 88 85 88 -0.59429997 -0.1295 -0.7938 0
0.18436797 0.0049341293 0.28216869 158 155 158 -0.0066 0.2428 -0.97000003 0
0.14899273 0.0063110609 0.33451369 47 55 93 -0.81639999 -0.25420001 -0.51849997 0
0.13372688 0.0070612743 0.33820546 30 34 64 -0.32499999 0.1185 -0.93830001 0
0.074785076 0.0097322818 0.33035108 207 178 163 0.4542 0.087200001 -0.88660002 0
0.058987614 0.010612396 0.33193511 255 228 213 -0.1618 -0.0146 -0.9867 0
0.022495829 0.012010733 0.33176178 162 118 110 0.0616 -0.47279999 -0.87900001 0
0.0020006518 0.013063733 0.32423574 255 255 240 -0.36019999 -0.62730002 -0.6904 0
-0.047010314 0.016098889 0.32741389 246 212 196 0.068000004 -0.0051000002 -0.99769998 0
-0.063802324 0.016958436 0.33061013 255 246 230 -0.22130001 0.0458 -0.97409999 0
-0.080895349 0.017875969 0.33336946 255 249 232 -0.168 0.0491 -0.98460001 0
-0.10250977 0.018041469 0.33655822 152 139 134 0.071500003 -0.53350002 -0.84280002 0
0.18635546 0.0058325427 0.27991712 183 180 184 -0.18529999 0.3443 -0.92040002 0
0.13778725 0.0077546542 0.33827713 24 26 55 0.019099999 0.1382 -0.99019998 0
0.1304215 0.0079106493 0.35594514 255 255 242 -0.2033 -0.50279999 -0.84020001 0
0.11663701 0.0079475632 0.36772981 240 204 187 -0.2227 0.0031000001 -0.97490001 0
0.098460928 0.0093720928 0.36478856 149 102 82 0.78240001 0.044199999 -0.62120003 0
0.085307218 0.0098571433 0.34380299 186 148 129 0.8387 0.0222 -0.54409999 0
0.07929799 0.01008633 0.33408177 169 136 115 0.63370001 0.089900002 -0.76840001 0
0.062779203 0.011373904 0.33149913 255 231 215 -0.3294 -0.0043000001 -0.94419998 0
0.042394329 0.012071886 0.32739797 255 255 255 -0.0999 -0.26699999 -0.95850003 0
0.026404964 0.012926397 0.32949558 207 180 173 -0.29640001 -0.33140001 -0.89569998 0
0.0059776655 0.014296169 0.31829095 255 255 255 -0.1824 -0.53390002 -0.82560003 0
-0.010336552 0.014611325 0.32684562 255 250 228 -0.24330001 -0.49250001 -0.83560002 0
-0.043251913 0.016673408 0.32891273 222 190 178 0.3294 -0.0147 -0.94410002 0
-1.1240094 0.055197183 1.830523 228 228 230 -0.14579999 -0.30180001 -0.94220001 0
-1.138052 0.051388934 1.819162 230 230 232 -0.38909999 0.030400001 -0.92070001 0
0.1947922 0.0060236924 0.27174947 159 154 158 -0.241 -0.41339999 -0.87809998 0
0.18919206 0.0065480131 0.27890736 160 158 156 -0.2122 0.46439999 -0.8599 0
0.17124249 0.0075660124 0.29039827 209 204 206 -0.13789999 -0.099600002 -0.98540002 0
0.16712153 0.0071027572 0.28901598 194 190 187 0.1763 -0.030099999 -0.98390001 0
0.1506684 0.0075988281 0.32900169 43 49 84 -0.58530003 -0.51310003 -0.62779999 0
0.12072659 0.0087737171 0.3671141 246 210 191 -0.1807 0.0094999997 -0.9835 0
0.1035261 0.009751305 0.36955515 186 141 122 0.4684 0.083999999 -0.87949997 0
0.090476446 0.010088586 0.34929794 190 156 138 0.8071 0.0026 -0.59039998 0
0.046167623 0.012905126 0.32594007 254 193 188 0.27869999 -0.1011 -0.95499998 0
0.029997732 0.01392024 0.32645726 255 237 227 -0.28870001 -0.23639999 -0.9278 0
-0.0063283974 0.015556937 0.32401338 255 255 239 -0.27590001 -0.59780002 -0.75260001 0
-0.039506815 0.017231207 0.33067241 197 162 149 0.47830001 -0.037799999 -0.87739998 0
-0.059534751 0.017797768 0.32884258 255 245 230 -0.19230001 0.0041999999 -0.9813 0
-0.076744199 0.018635646 0.33271226 255 247 228 -0.1497 0.0284 -0.98830003 0
-0.12862296 0.021749087 0.34849608 116 118 122 -0.38839999 0.34290001 -0.85530001 0
0.15460895 0.0082411943 0.32974511 25 24 43 -0.31220001 -0.63309997 -0.70829999 0
0.14617048 0.0090487236 0.33961573 3 8 34 -0.36570001 -0.1636 -0.91619998 0
0.14212279 0.0083670774 0.33915195 38 41 67 -0.0407 0.0266 -0.99879998 0
0.12481413 0.0095862197 0.36663336 255 231 210 -0.3161 -0.0074 -0.94870001 0
0.10797279 0.010480518 0.36997095 206 161 140 0.0219 0.022399999 -0.99949998 0
0.066258289 0.012300368 0.32919809 255 222 201 -0.19679999 -0.0049000001 -0.98040003 0
0.050505869 0.013266406 0.32974577 165 120 103 0.53969997 0.017999999 -0.84170002 0
0.0097717261 0.015235269 0.31543761 255 244 224 0.1161 -0.49020001 -0.86379999 0
-0.035944741 0.017752813 0.33316648 209 171 154 0.4102 -0.0889 -0.90759999 0
-0.055526137 0.018531125 0.32837138 255 246 230 -0.1205 0.0089999996 -0.99269998 0
-0.072780743 0.019342976 0.33270866 255 238 223 -0.20280001 0.0233 -0.97890002 0
-0.090054587 0.020232929 0.33601528 204 181 166 -0.33430001 0.1013 -0.93699998 0
0.18542179 0.0079459734 0.28503403 80 76 82 0.2277 0.0024999999 -0.97369999 0
0.17310238 0.008528172 0.28757948 140 128 130 -0.1972 0.066399999 -0.9781 0
0.12972936 0.010105375 0.34053332 22 26 56 -0.66189998 0.2141 -0.7184 0
0.12856343 0.010512511 0.36467364 255 252 231 -0.64639997 -0.1796 -0.74150002 0
0.11202469 0.011316109 0.36935753 226 190 175 -0.27829999 0.0114 -0.96039999 0
0.070352159 0.012879706 0.33059558 249 218 196 0.1102 0.031599998 -0.99339998 0
0.054566193 0.013755794 0.33252624 198 157 143 0.37200001 0.079599999 -0.92479998 0
0.033707552 0.014701376 0.32566497 225 155 154 0.0023000001 -0.15279999 -0.98820001 0
0.017819123 0.015591827 0.32733825 178 131 124 0.76840001 -0.3326 -0.54680002 0
0.013726958 0.015603275 0.31901845 239 204 195 0.60159999 -0.33809999 -0.72369999 0
-0.0023374371 0.016508048 0.32085088 255 255 255 -0.38139999 -0.458 -0.80299997 0
-0.032036789 0.018395454 0.33405218 241 207 193 0.243 -0.1057 -0.96429998 0
-0.051669437 0.019221667 0.32853997 255 243 227 -0.050700001 0.0031999999 -0.99870002 0
-0.068633467 0.020128844 0.33162627 255 249 234 -0.19859999 0.033799998 -0.9795 0
-0.08557751 0.021087116 0.33397296 244 214 199 -0.2951 0.090300001 -0.95120001 0
-0.12297031 0.02270359 0.34472147 134 131 137 -0.41949999 0.34959999 -0.83770001 0
0.18751985 0.0088078985 0.28294623 52 46 55 0.1472 -0.076099999 -0.98619998 0
0.13346858 0.010901592 0.33960825 15 18 42 -0.52450001 0.16419999 -0.83539999 0
0.084513664 0.013970997 0.3429606 180 142 125 0.81800002 0.1107 -0.56440002 0
0.074158147 0.013575206 0.33088428 219 190 175 0.40470001 0.1189 -0.90670002 0
0.05848581 0.014465178 0.33259305 248 209 195 -0.066699997 0.079599999 -0.9946 0
0.037885334 0.015200513 0.32790029 137 69 81 0.093099996 -0.1186 -0.98860002 0
0.021792809 0.016087176 0.33000255 156 112 106 0.3105 -0.27680001 -0.90939999 0
0.0015294879 0.017467085 0.31760931 255 255 255 -0.41159999 -0.3416 -0.84490001 0
-0.014814523 0.017843887 0.3264049 255 255 255 -0.43849999 0.2466 -0.8642 0
-0.047788855 0.019955566 0.32816607 252 216 200 0.045299999 0.020099999 -0.99879998 0
-0.064436883 0.02091031 0.33047953 255 240 225 -0.23540001 0.0294 -0.97140002 0
-0.10413331 0.022017347 0.32611844 130 124 120 -0.4738 0.14839999 -0.86799997 0
0.19111446 0.0093724271 0.28313312 11 6 12 0.2016 0.27270001 -0.94080001 0
0.14780395 0.010303264 0.3340773 32 37 74 -0.80729997 -0.289 -0.51459998 0
0.13734695 0.011635313 0.33931118 35 37 66 -0.074500002 0.1767 -0.98140001 0
0.130318 0.011904833 0.35783204 255 255 242 -0.66339999 -0.49489999 -0.56129998 0
0.11569745 0.01226021 0.36742696 224 188 170 -0.26100001 0.0119 -0.96530002 0
0.078269452 0.014169484 0.33223674 182 150 138 0.60149997 0.12720001 -0.78869998 0
0.062250547 0.015211754 0.33229962 255 230 214 -0.3418 0.066 -0.93739998 0
0.041621376 0.016015505 0.32666436 255 226 227 -0.072099999 -0.1257 -0.98940003 0
0.025680507 0.016841885 0.32946283 161 123 120 -0.075300001 -0.2413 -0.96749997 0
-0.010793424 0.0189282 0.32142946 255 255 255 -0.52240002 0.016799999 -0.85250002 0
-0.02424697 0.019848693 0.33388239 211 186 174 -0.3626 0.057 -0.93019998 0
-0.028471073 0.018618675 0.34002414 255 231 212 -0.0255 -0.0275 -0.9993 0
-0.044048153 0.020544836 0.32971472 232 194 179 0.243 0.0517 -0.96859998 0
-0.081521884 0.02185622 0.33325958 255 240 225 -0.1903 0.072099999 -0.97909999 0
-1.1038967 0.071085311 1.759629 229 229 231 -0.49770001 -0.29679999 -0.815 0
0.19430153 0.0092559448 0.27138719 151 146 150 -0.047200002 -0.47150001 -0.88059998 0
0.17290398 0.010535122 0.29469508 64 59 59 -0.2325 0.013 -0.97250003 0
0.14164171 0.01226999 0.34014544 10 11 31 -0.076899998 -0.0034 -0.99699998 0
0.12009038 0.013001105 0.36771655 236 202 186 -0.2131 0.0132 -0.97689998 0
0.10282424 0.014006644 0.37036067 181 137 118 0.2987 0.29969999 -0.90609998 0
0.096851163 0.013851836 0.36232081 166 121 102 0.85049999 0.1575 -0.50190002 0
0.089817531 0.014166827 0.34942362 191 155 138 0.81019998 0.12710001 -0.5722 0
0.045370884 0.016868196 0.32464996 255 208 204 0.21600001 0.0284 -0.97600001 0
0.029335948 0.017697712 0.32776672 232 195 185 -0.3317 -0.1064 -0.93739998 0
0.0053488589 0.018389437 0.31456012 255 255 255 -0.28929999 -0.1823 -0.93970001 0
-0.060327537 0.021701206 0.3292371 255 246 230 -0.2403 0.0261 -0.97039998 0
-0.077623405 0.022539882 0.33365521 255 250 235 -0.15109999 0.053199999 -0.98710001 0
-1.1560452 0.076286606 1.8767952 225 224 227 -0.29100001 0.171 -0.94129997 0
0.1474949 0.012014369 0.323259 125 124 129 -0.56279999 -0.3186 -0.76279998 0
0.12407017 0.013842272 0.36675885 244 211 193 -0.40939999 -0.1256 -0.90369999 0
0.10739387 0.014725221 0.37085244 207 169 150 0.0154 0.2712 -0.96240002 0
0.065664917 0.016147371 0.32958174 255 238 219 -0.24439999 0.0557 -0.96810001 0
0.049492374 0.017281169 0.32851231 155 111 101 0.55080003 0.1149 -0.82669997 0
0.0091286246 0.019179272 0.31315148 255 229 210 0.0139 -0.00039999999 -0.99989998 0
-0.0068852771 0.019772677 0.31932989 255 255 255 -0.4756 0.00030000001 -0.87959999 0
-0.019833758 0.020803263 0.33014351 255 231 218 -0.5826 0.064900003 -0.81019998 0
-0.036583625 0.021771882 0.33250728 221 187 173 0.38479999 0.095600002 -0.91799998 0
-0.040110096 0.021205895 0.33022124 206 165 154 0.39860001 0.060800001 -0.91509998 0
-0.056234065 0.022446381 0.3285034 255 250 235 -0.15180001 0.0396 -0.98760003 0
-0.07342349 0.023317695 0.33253053 255 246 228 -0.21520001 0.024900001 -0.97619998 0
-0.12545268 0.026532043 0.35033771 104 103 108 -0.41 0.34060001 -0.84609997 0
-1.0524753 0.073796779 1.8881488 229 231 232 0.18179999 -0.064099997 -0.98119998 0
0.15465054 0.012878307 0.30382663 146 143 148 0.0066 0.4118 -0.9113 0
0.12964016 0.013936082 0.34240958 47 50 90 -0.72430003 0.24160001 -0.64579999 0
0.11132824 0.015577017 0.37008297 226 192 176 -0.32879999 0.20280001 -0.9224 0
0.06959638 0.016818108 0.33005396 255 226 210 0.0605 0.1027 -0.99290001 0
0.05403458 0.017608166 0.3334389 192 151 138 0.4693 0.1454 -0.87099999 0
0.032982171 0.01859783 0.32523972 255 201 191 -0.068700001 -0.0080000004 -0.99760002 0
0.012979838 0.019713804 0.31495139 224 187 177 0.41299999 0.087300003 -0.90649998 0
-0.0029685348 0.020514935 0.31854185 255 255 255 -0.46540001 0.096500002 -0.87980002 0
-0.015665798 0.021655764 0.32789743 255 255 242 -0.57819998 0.14489999 -0.80299997 0
-0.032637808 0.022454973 0.33287516 237 205 191 0.2852 0.1437 -0.94760001 0
-0.052368965 0.023127584 0.32878208 255 237 220 -0.0374 0.048700001 -0.99809998 0
-0.069297388 0.02409563 0.3314375 255 251 236 -0.2084 0.0319 -0.97750002 0
-0.086451352 0.025035774 0.33468029 215 189 177 -0.32440001 0.12809999 -0.93720001 0
-1.0927572 0.082590513 1.843192 232 231 234 -0.25780001 0.72839999 -0.63480002 0
0.17781597 0.012176507 0.29138035 33 25 28 -0.062600002 -0.2237 -0.97259998 0
0.17339894 0.011748347 0.28927535 40 31 34 -0.27079999 -0.1181 -0.95539999 0
0.1478447 0.013482038 0.31465212 45 46 55 -0.54369998 0.14120001 -0.82730001 0
0.1332615 0.014741535 0.34131882 27 29 56 -0.63020003 0.2124 -0.74680001 0
0.12783051 0.014764496 0.36425635 255 232 214 -0.61430001 -0.2393 -0.75199997 0
0.073545381 0.017461859 0.3309533 220 193 177 0.41249999 0.1512 -0.89829999 0
0.05790215 0.018322619 0.33348987 224 187 177 0.0495 0.13519999 -0.9896 0
0.036883134 0.019159937 0.32725105 182 117 123 0.1211 0.086000003 -0.98890001 0
0.020927481 0.020198513 0.32742122 161 119 108 0.59820002 0.058600001 -0.7992 0
0.016758166 0.020002428 0.32045141 195 156 144 0.78600001 0.036699999 -0.61720002 0
0.00088774657 0.021344533 0.31643522 255 255 248 -0.4411 0.13339999 -0.88749999 0
-0.028687581 0.023117276 0.33365089 255 232 212 -0.046799999 -0.0066999998 -0.9989 0
-0.048389036 0.023882987 0.32792926 251 214 199 0.049699999 0.075300001 -0.99589998 0
-0.065442748 0.024811488 0.33141309 255 246 232 -0.22319999 0.0493 -0.97350001 0
0.18880846 0.011803588 0.28609112 29 21 28 0.028200001 -0.51749998 -0.85519999 0
0.14487037 0.014711043 0.32850242 102 99 100 -0.42500001 -0.5363 -0.72920001 0
0.11487567 0.016541304 0.36751482 236 204 190 -0.34619999 0.1428 -0.92720002 0
0.083772577 0.017986357 0.34273922 158 120 103 0.80449998 0.215 -0.55369997 0
0.077843964 0.017998423 0.33321059 187 155 139 0.60290003 0.1891 -0.77509999 0
0.061585333 0.019125909 0.33233061 243 211 197 -0.29539999 0.1991 -0.93440002 0
0.040939305 0.019861022 0.32705143 241 190 194 -0.0458 0.1124 -0.99260002 0
0.024905218 0.020804916 0.32884821 189 158 150 0.040399998 0.047600001 -0.99800003 0
-0.011548549 0.022618266 0.32386509 255 255 233 -0.57819998 0.2931 -0.76139998 0
-0.025026394 0.023554884 0.33816051 255 255 255 -0.3721 -0.056699999 -0.92650002 0
-0.082327031 0.02578258 0.3340365 252 225 213 -0.21699999 0.1304 -0.96740001 0
0.19317943 0.012567401 0.27066213 2 0 4 -0.3127 -0.093699999 -0.94520003 0
0.16646931 0.013845232 0.29032204 149 147 150 -0.39039999 0.28889999 -0.87410003 0
0.15945923 0.014638506 0.29868558 131 128 131 -0.5359 0.46380001 -0.70550001 0
0.14899324 0.014722019 0.30855978 139 136 139 -0.2631 0.082199998 -0.96130002 0
0.13630594 0.015658056 0.33892411 51 53 82 -0.046700001 -0.056200001 -0.99730003 0
0.12908594 0.016188895 0.35543925 255 226 214 -0.026799999 0.1046 -0.99419999 0
0.11949396 0.017227326 0.36849055 235 201 185 -0.26320001 0.091200002 -0.96039999 0
0.1023115 0.018236101 0.37152013 181 143 124 0.38960001 0.32460001 -0.86189997 0
0.095241837 0.018314116 0.35943496 167 126 108 0.81220001 0.331 -0.48030001 0
0.088742025 0.018360564 0.34793392 180 142 125 0.79839998 0.2414 -0.55159998 0
0.044673249 0.02067904 0.32536316 231 184 182 0.19949999 0.1648 -0.9659 0
0.028692678 0.021610551 0.32736501 200 165 156 -0.37689999 0.113 -0.91930002 0
0.0047157099 0.022147853 0.31464261 255 255 242 -0.37729999 0.15279999 -0.91339999 0
-0.0075681875 0.023488207 0.3210904 255 246 225 -0.46849999 0.42289999 -0.77569997 0
-0.040660799 0.025191095 0.32940611 229 195 182 0.3405 0.105 -0.93430001 0
-0.044459678 0.024543919 0.32843229 247 212 201 0.1965 0.1114 -0.97409999 0
-0.061264824 0.025579115 0.33023027 255 255 239 -0.2377 0.059300002 -0.96950001 0
-0.078288496 0.026514383 0.33364931 255 239 223 -0.1824 0.1505 -0.9716 0
-1.1733102 0.098135918 1.8989114 230 232 234 -0.48930001 -0.33610001 -0.80470002 0
0.17828046 0.014568953 0.27984008 55 47 54 -0.34400001 0.61970001 -0.70539999 0
0.17915684 0.013160864 0.28774863 16 16 16 -0.53310001 -0.071999997 -0.84299999 0
0.17020063 0.014403825 0.29090607 186 183 184 -0.34299999 0.1944 -0.91900003 0
0.15220456 0.015463859 0.30756125 82 78 86 -0.092100002 0.20900001 -0.97359997 0
0.13005017 0.017676087 0.34614795 43 51 87 -0.61070001 -0.045299999 -0.79049999 0
0.12329441 0.018104091 0.36689246 239 204 191 -0.46830001 -0.0165 -0.88340002 0
0.10684579 0.0189743 0.37178186 206 168 149 0.0242 0.3689 -0.92909998 0
0.064991087 0.020053502 0.32925016 255 221 203 -0.3116 0.197 -0.9296 0
0.048532344 0.021216458 0.3281534 197 137 125 0.51109999 0.2138 -0.83249998 0
0.0085187564 0.022833107 0.31452489 255 224 209 -0.059099998 0.2395 -0.9691 0
-0.020622129 0.024595506 0.33253947 248 208 185 -0.47920001 -0.31479999 -0.8193 0
-0.037217401 0.025733208 0.33249524 230 196 185 0.39489999 0.17460001 -0.90200001 0
-0.056970883 0.026362121 0.32863078 255 238 219 -0.1857 0.068300001 -0.98019999 0
-0.074135542 0.027281599 0.3326174 255 247 232 -0.2386 0.0933 -0.9666 0
-0.092064075 0.028128734 0.33833045 180 164 153 -0.47679999 0.1353 -0.86849999 0
0.19457844 0.013458186 0.26774529 136 128 136 -0.35049999 -0.1067 -0.93049997 0
0.17184216 0.015342106 0.28792268 154 154 154 -0.30599999 0.064400002 -0.94980001 0
0.15559992 0.016157797 0.30730107 84 78 84 -0.0273 0.34670001 -0.93760002 0
0.14368074 0.016508225 0.3149716 12 14 18 -0.4404 -0.1789 -0.87980002 0
0.13743755 0.016977463 0.330717 152 152 152 -0.81290001 -0.079000004 -0.57700002 0
0.11094782 0.019772965 0.37177595 225 191 175 -0.3804 0.28279999 -0.88050002 0
0.068904102 0.02071167 0.32999152 251 218 200 -0.048300002 0.23029999 -0.97189999 0
0.053236637 0.021567164 0.33312318 179 136 118 0.50410002 0.1864 -0.84329998 0
0.032509286 0.022504855 0.32416385 255 221 205 -0.12720001 0.199 -0.97170001 0
0.012258581 0.02350332 0.31462714 232 197 186 0.4122 0.3087 -0.85720003 0
-0.0036365862 0.024281373 0.3192468 255 247 228 -0.43779999 0.52819997 -0.72750002 0
-0.016466673 0.025472652 0.32953912 255 240 223 -0.37130001 -0.14139999 -0.91769999 0
-0.033476673 0.026320104 0.33478799 227 191 178 0.39559999 0.2457 -0.88489997 0
-0.053102382 0.027052101 0.32884449 255 233 217 -0.083700001 0.087700002 -0.99260002 0
-0.070035487 0.028028889 0.33181876 255 246 230 -0.2265 0.085299999 -0.97030002 0
-0.0873385 0.028958248 0.33580029 207 184 174 -0.38550001 0.16509999 -0.90780002 0
0.15915726 0.016821472 0.30729449 112 99 106 -0.37180001 0.4059 -0.8348 0
0.14553863 0.017566385 0.31018701 189 188 191 -0.56199998 0.036699999 -0.82630002 0
0.13270387 0.018664034 0.34272456 137 143 148 -0.53109998 0.2322 -0.81489998 0
0.12685208 0.019041969 0.3639023 243 209 195 -0.63679999 -0.0722 -0.76770002 0
