ply
format ascii 1.0
comment PCL generated
element vertex 595
property float x
property float y
property float z
property uchar red
property uchar green
property uchar blue
property float nx
property float ny
property float nz
property float curvature
element camera 0
property float view_px
property float view_py
property float view_pz
property float x_axisx
property float x_axisy
property float x_axisz
property float y_axisx
property float y_axisy
property float y_axisz
property float z_axisx
property float z_axisy
property float z_axisz
property float focal
property float scalex
property float scaley
property float centerx
property float centery
property int viewportx
property int viewporty
property float k1
property float k2
end_header
-0.023131609 0.022679849 0.32601479 255 222 204 0.071199998 0.1314 -0.98879999 0
-0.040499382 0.02327784 0.32212076 236 202 188 0.30790001 0.17200001 -0.9357 0
-0.072873645 0.024357362 0.32362819 255 233 216 -0.2353 0.2421 -0.94129997 0
-0.08543212 0.02557761 0.32847354 178 157 146 -0.54339999 0.1805 -0.81980002 0
-1.1270574 0.072492577 1.9250653 227 229 230 0.062100001 -0.52719998 -0.84750003 0
0.17862538 0.013937122 0.28300488 173 170 171 -0.2049 0.2705 -0.94069999 0
0.17317277 0.014428179 0.28992304 119 116 120 -0.67830002 0.2053 -0.70560002 0
0.16459489 0.014367953 0.29659534 97 91 100 -0.42109999 0.36700001 -0.8294 0
0.1579856 0.015065669 0.30221218 106 100 104 -0.2793 0.31810001 -0.90600002 0
0.14192814 0.015769372 0.33864072 144 144 146 0.1866 -0.2931 -0.93769997 0
0.12798126 0.016655963 0.36443412 249 217 200 -0.3583 0.068700001 -0.93110001 0
0.070076376 0.018700307 0.3254734 255 224 205 -0.28870001 0.21259999 -0.93349999 0
0.056130972 0.01955894 0.32524624 165 121 108 0.58270001 0.1855 -0.79119998 0
0.052033965 0.019340763 0.32079354 220 158 148 0.49329999 0.16 -0.85500002 0
0.037985358 0.0202532 0.31997043 255 220 213 -0.1237 0.146 -0.98150003 0
0.016884342 0.021017466 0.30699009 232 197 184 0.2305 0.1087 -0.96700001 0
-0.0079793241 0.022445958 0.31763545 255 253 232 -0.45899999 0.1391 -0.8775 0
-0.037268609 0.023853395 0.32284066 233 201 191 0.2124 0.1242 -0.96929997 0
-0.054611366 0.024264429 0.32116854 255 250 234 -0.30849999 0.063699998 -0.94910002 0
-0.069333881 0.02500413 0.3234849 255 252 235 -0.2147 0.20819999 -0.95420003 0
-1.1647761 0.076802321 1.8464172 229 231 232 -0.19410001 -0.523 -0.82990003 0
0.16662772 0.015166192 0.29466403 123 125 127 -0.42340001 0.37380001 -0.82520002 0
0.15130629 0.015668375 0.30993572 163 161 164 -0.28459999 0.44960001 -0.8466 0
0.13187884 0.017103588 0.34104726 43 43 84 -0.83399999 -0.1172 -0.53920001 0
0.11270043 0.017463727 0.36683893 227 193 179 -0.2068 0.2182 -0.95370001 0
0.073213153 0.019443341 0.32438087 228 195 176 -0.0059000002 0.21529999 -0.97649997 0
0.059742622 0.019972712 0.32809207 208 171 158 0.3624 0.16159999 -0.91790003 0
0.041216772 0.020932546 0.31955484 185 118 122 0.1566 0.22239999 -0.9623 0
0.027194034 0.021609891 0.32171845 182 152 139 0.54500002 0.25999999 -0.79710001 0
0.023631904 0.021531887 0.31507638 178 141 131 0.85299999 0.052999999 -0.51929998 0
0.020150186 0.021522852 0.30816168 211 176 167 0.57920003 0.12 -0.80629998 0
0.0064071286 0.022173742 0.31039569 255 252 235 -0.51840001 0.14399999 -0.84289998 0
-0.0045321905 0.023212016 0.31590074 255 249 230 -0.4181 0.2274 -0.87949997 0
-0.033798996 0.024442913 0.32333943 224 192 182 0.3037 0.1233 -0.94480002 0
-0.051041741 0.024958599 0.32031357 255 246 230 -0.26230001 0.097900003 -0.95999998 0
-0.065876804 0.025653243 0.32328448 255 245 228 -0.1336 0.1771 -0.97509998 0
-0.081105411 0.026391972 0.32591796 211 188 175 -0.37380001 0.2465 -0.89410001 0
-1.1460536 0.080324017 1.8499328 229 231 232 0.1402 -0.2245 -0.96429998 0
0.17499804 0.015214595 0.28798229 143 136 141 -0.60939997 0.42199999 -0.67129999 0
0.16916643 0.015842982 0.29368979 161 158 161 -0.29539999 0.50730002 -0.80949998 0
0.16004328 0.015898108 0.29988712 102 99 104 -0.47940001 0.47040001 -0.74089998 0
0.13098793 0.017554507 0.36224574 245 214 197 -0.54949999 0.029300001 -0.83499998 0
0.11642031 0.018195344 0.36661559 228 194 180 -0.25580001 0.18889999 -0.94809997 0
0.076879293 0.019945957 0.32586905 206 172 156 0.27399999 0.2262 -0.93480003 0
0.063235559 0.020602956 0.32821086 234 197 187 0.0085000005 0.2271 -0.9738 0
0.045007709 0.021381011 0.32145974 217 159 165 0.095299996 0.28979999 -0.95230001 0
0.030708021 0.02212524 0.32316869 183 151 139 -0.050700001 0.25929999 -0.96450001 0
0.0097267851 0.022951545 0.3084434 255 252 236 -0.5 0.2009 -0.84240001 0
-0.015969494 0.02408338 0.32426572 244 205 182 -0.6444 0.0087000001 -0.76459998 0
-0.030569274 0.024990948 0.32454565 221 186 175 0.37040001 0.2261 -0.90090001 0
-0.047339477 0.025658811 0.31924194 255 232 216 0.0031999999 0.1189 -0.99290001 0
-0.062358912 0.026297735 0.32308865 255 246 230 -0.1014 0.15800001 -0.98220003 0
-0.077668026 0.026992558 0.32646087 250 223 209 -0.27770001 0.24869999 -0.92790002 0
-1.1570225 0.085257076 1.8995522 229 231 232 0.1319 -0.442 -0.88730001 0
0.17172123 0.016486783 0.29324007 105 104 109 -0.4691 0.55790001 -0.6846 0
0.16336249 0.016402429 0.30099556 88 84 83 -0.46169999 0.54799998 -0.69749999 0
0.15233822 0.016747586 0.3054997 139 138 141 -0.1696 0.40560001 -0.89819998 0
0.14545459 0.017451895 0.31239909 138 135 138 -0.2836 0.29089999 -0.91369998 0
0.14259149 0.017116569 0.33084702 156 153 159 -0.53860003 -0.47080001 -0.69880003 0
0.13425492 0.018026788 0.33820704 53 52 71 -0.39089999 -0.52749997 -0.7543 0
0.12011448 0.018947402 0.3660104 233 198 185 -0.1859 0.17120001 -0.96749997 0
0.10378318 0.020090245 0.36425626 171 130 117 0.60699999 0.3964 -0.68879998 0
0.080602124 0.020462673 0.3272332 190 161 145 0.48140001 0.24439999 -0.84179997 0
0.066626415 0.021247948 0.32825485 248 212 199 -0.21340001 0.29769999 -0.93049997 0
0.048030771 0.0221387 0.32018167 255 209 211 0.040600002 0.33379999 -0.9418 0
0.034091581 0.022869132 0.32177326 222 185 172 -0.38850001 0.21430001 -0.8962 0
0.012961837 0.023688 0.30690324 255 248 234 -0.2561 0.28240001 -0.92449999 0
-0.001083197 0.024028772 0.31342438 255 242 222 -0.40900001 0.3285 -0.8513 0
-0.012261613 0.024963956 0.32100615 255 243 225 -0.60970002 -0.048900001 -0.79110003 0
-0.027281176 0.025500296 0.32629853 226 195 180 0.3725 0.3251 -0.86919999 0
-0.044324905 0.026129134 0.32141018 247 213 195 0.25709999 0.1309 -0.95749998 0
-0.059146874 0.026886791 0.32381177 255 237 219 -0.1858 0.1446 -0.97189999 0
-0.073940761 0.027702063 0.32543913 255 239 223 -0.244 0.2189 -0.9447 0
0.17612419 0.016113846 0.28513378 136 131 135 -0.37630001 0.6243 -0.6846 0
0.16519955 0.017223932 0.29892269 124 121 126 -0.55470002 0.53820002 -0.63450003 0
0.15544692 0.017364202 0.3052161 135 133 136 -0.17569999 0.59759998 -0.7823 0
0.12377166 0.019693207 0.36547789 242 210 195 -0.2642 0.096900001 -0.95959997 0
0.10855427 0.020474797 0.36870053 198 159 143 0.1165 0.37400001 -0.92009997 0
0.096175931 0.020575931 0.34977767 177 138 122 0.83499998 0.2782 -0.47479999 0
0.091000386 0.020507133 0.34197551 178 144 128 0.81629997 0.2282 -0.53070003 0
0.084927753 0.020747012 0.33151618 159 128 109 0.71520001 0.2489 -0.65310001 0
0.051401436 0.022703653 0.32111353 223 160 156 0.35679999 0.3811 -0.85290003 0
0.0023470134 0.024700541 0.31263268 255 236 219 -0.4127 0.46079999 -0.78570002 0
-0.023810653 0.026076021 0.32718894 242 213 198 0.023800001 0.2111 -0.97719997 0
-0.041249327 0.026618175 0.32346514 243 211 199 0.27180001 0.1084 -0.9562 0
-1.1212399 0.09342511 1.9079982 230 232 234 0.066399999 -0.51069999 -0.85720003 0
0.17848864 0.01675953 0.28438187 138 135 136 -0.2872 0.68959999 -0.66479999 0
0.17334552 0.017306786 0.29091406 124 121 126 -0.71799999 0.43430001 -0.54390001 0
0.15860561 0.017960478 0.30502543 99 53 69 -0.4068 0.64789999 -0.64399999 0
0.14692968 0.018442621 0.30861878 128 127 132 -0.28299999 0.41530001 -0.8646 0
0.14257443 0.01856848 0.32216612 170 169 174 -0.57520002 -0.2172 -0.78860003 0
0.12724663 0.020475699 0.36449099 227 192 181 -0.3865 0.052299999 -0.92079997 0
0.11243608 0.021191375 0.36844116 221 187 171 -0.23010001 0.28819999 -0.92949998 0
0.069661014 0.022036331 0.32655507 253 219 201 -0.2872 0.34720001 -0.89270002 0
0.055355929 0.023028385 0.32493016 157 116 103 0.53460002 0.36140001 -0.76389998 0
0.037429012 0.023661777 0.31960827 244 206 198 -0.19239999 0.2836 -0.93940002 0
0.016164651 0.024314834 0.30663434 246 214 204 0.096100003 0.34580001 -0.93339998 0
-0.0087027708 0.025751211 0.3188045 255 242 222 -0.41209999 -0.075999998 -0.90799999 0
-0.020511286 0.026490694 0.33021429 255 255 255 -0.46180001 0.062799998 -0.88480002 0
-0.037806045 0.027300691 0.32277787 240 208 196 0.20900001 0.1083 -0.97189999 0
-0.055188335 0.027655121 0.32167429 255 249 232 -0.30880001 0.1318 -0.94199997 0
-0.070293456 0.028379392 0.32474741 255 247 230 -0.22939999 0.2149 -0.94929999 0
-0.086723596 0.028930286 0.33093637 182 164 147 -0.493 0.084700003 -0.86589998 0
-1.0967495 0.096604995 1.9044323 230 232 234 0.4472 -0.1362 -0.884 0
0.18108532 0.017359421 0.28391987 116 113 116 -0.1302 0.60640001 -0.78439999 0
0.17572124 0.017971406 0.29016095 123 120 123 -0.63069999 0.42750001 -0.64770001 0
0.16059701 0.018771686 0.30292192 179 99 112 -0.4998 0.54710001 -0.67140001 0
0.13206968 0.020467523 0.34366527 78 79 104 -0.72600001 -0.46090001 -0.51029998 0
0.072778098 0.02277777 0.32532755 235 199 184 -0.105 0.4192 -0.90179998 0
0.059238028 0.023378657 0.32872108 201 160 147 0.3924 0.35030001 -0.85049999 0
0.040699482 0.02424321 0.32043102 176 115 113 0.14300001 0.38240001 -0.91289997 0
0.026685258 0.02496211 0.32251191 193 165 154 0.1952 0.58219999 -0.78930002 0
0.022903433 0.024953086 0.31430927 186 152 140 0.80540001 0.39120001 -0.4452 0
0.019504849 0.024803726 0.30808607 230 197 190 0.50269997 0.34560001 -0.7924 0
0.0057878722 0.02545806 0.31067029 255 238 222 -0.45809999 0.49869999 -0.73589998 0
-0.0052411393 0.026397863 0.31846219 255 237 219 -0.1274 0.1583 -0.97909999 0
-0.034460668 0.027888121 0.32346967 225 195 184 0.32780001 0.2077 -0.92159998 0
-0.051550549 0.028348699 0.32061508 255 250 233 -0.27779999 0.1628 -0.94669998 0
-0.066653706 0.029058518 0.32401353 255 251 235 -0.1675 0.20290001 -0.9648 0
-0.082146168 0.029757766 0.32778731 234 211 200 -0.398 0.12 -0.9095 0
0.1695774 0.018703295 0.2957536 175 172 177 -0.30500001 0.5499 -0.77749997 0
0.15268047 0.019757178 0.30735692 106 106 106 -0.1057 0.51550001 -0.85030001 0
0.14271931 0.019885236 0.31483373 142 144 145 -0.4434 0.25470001 -0.85939997 0
0.13033585 0.021349782 0.36212581 232 200 188 -0.42640001 0.0012000001 -0.90450001 0
0.11599342 0.021969486 0.36755881 226 192 178 -0.2881 0.18719999 -0.93910003 0
0.076237135 0.023371182 0.32589787 192 158 142 0.17640001 0.45109999 -0.87489998 0
0.062762894 0.02399789 0.32898831 234 195 181 0.0254 0.32159999 -0.9465 0
0.044606503 0.024689915 0.32246643 204 145 147 0.14740001 0.46830001 -0.87120003 0
0.0301902 0.02549376 0.32387975 215 189 179 -0.1226 0.57990003 -0.80540001 0
0.0091047091 0.026146865 0.30958769 255 235 220 -0.47960001 0.47350001 -0.73879999 0
-0.0017665705 0.027144443 0.31669539 255 227 214 -0.1044 0.48379999 -0.8689 0
-0.016601533 0.027548714 0.32419363 242 207 189 -0.64179999 -0.1846 -0.74440002 0
-0.031253237 0.028408617 0.3252885 218 186 174 0.43130001 0.31659999 -0.8448 0
-0.048034258 0.02899871 0.32023329 255 229 212 -0.035 0.1566 -0.98699999 0
-0.062997654 0.029714566 0.32353678 255 238 223 -0.1219 0.2015 -0.97189999 0
-0.078607164 0.030419108 0.32747585 238 213 197 -0.296 0.1935 -0.93540001 0
0.17769055 0.018702261 0.2886169 112 109 115 -0.2262 0.43349999 -0.87230003 0
0.17293994 0.019187521 0.29685238 180 180 182 -0.4533 0.4928 -0.74269998 0
0.16359372 0.01937665 0.3026529 146 141 145 -0.45300001 0.46340001 -0.76160002 0
0.15651408 0.02023652 0.30845684 88 66 75 -0.1347 0.53439999 -0.8344 0
0.14576384 0.020526296 0.31467065 117 123 128 -0.2445 0.33860001 -0.90859997 0
0.1196214 0.022731736 0.36675826 235 201 185 -0.2651 0.1128 -0.9576 0
0.10367045 0.023748657 0.36670706 178 143 123 0.43340001 0.50690001 -0.74519998 0
0.090648629 0.024043132 0.34246716 180 146 131 0.76319999 0.38350001 -0.51999998 0
0.080046706 0.02385773 0.3278487 180 144 124 0.4395 0.46509999 -0.76849997 0
0.066135123 0.024647232 0.32896489 230 191 177 -0.18000001 0.35429999 -0.91759998 0
0.047670852 0.025410993 0.32159537 242 198 202 0.060400002 0.4901 -0.8696 0
0.033558391 0.026193356 0.32295385 229 196 187 -0.39950001 0.47170001 -0.78609997 0
0.012361655 0.026879197 0.30782664 255 226 213 -0.3583 0.52679998 -0.77079999 0
-0.028031386 0.028902058 0.32762372 216 182 169 0.4366 0.3892 -0.81110001 0
-0.044787884 0.029584628 0.32092816 226 192 176 0.1697 0.1111 -0.97920001 0
0.18100399 0.019194299 0.28928715 82 66 80 -0.068499997 0.33149999 -0.94099998 0
0.16626279 0.020024227 0.30213648 208 205 208 -0.59719998 0.3619 -0.71579999 0
0.15986969 0.020812623 0.30835557 146 66 84 -0.50809997 0.4303 -0.74610001 0
0.14901164 0.021140391 0.31456888 66 65 74 -0.1881 0.43329999 -0.88139999 0
0.13824879 0.02140356 0.32119137 154 156 158 -0.52499998 0.0109 -0.85100001 0
0.13224541 0.021857908 0.33446652 88 82 91 -0.53740001 -0.29890001 -0.78850001 0
0.1234424 0.023438133 0.36681059 230 198 184 -0.32319999 0.042800002 -0.94529998 0
0.10840162 0.024201473 0.37075132 192 154 133 0.088699996 0.42539999 -0.90060002 0
0.09600094 0.024110619 0.35164282 168 132 117 0.82410002 0.33750001 -0.4549 0
0.0844559 0.024174839 0.33213252 144 111 90 0.6645 0.43020001 -0.61110002 0
0.069305025 0.025362018 0.32809097 253 219 201 -0.2105 0.41549999 -0.88489997 0
0.050864611 0.026009222 0.3223941 226 174 174 0.32839999 0.52350003 -0.78619999 0
0.0016029206 0.027859796 0.31529659 255 239 226 -0.2423 0.64319998 -0.7263 0
-0.024710298 0.029423591 0.32962421 226 196 184 -0.054299999 0.27399999 -0.96020001 0
-0.041693203 0.030126132 0.3224397 230 198 184 0.2251 0.072999999 -0.9716 0
-0.056229293 0.030971458 0.32380015 255 249 229 -0.2899 0.1259 -0.94870001 0
-0.059659984 0.030323215 0.32391965 255 228 213 -0.18089999 0.1583 -0.97070003 0
-0.074900113 0.031106573 0.32661113 255 246 230 -0.25709999 0.1584 -0.9533 0
-0.087414131 0.032443393 0.33137125 204 180 170 -0.40200001 0.0471 -0.91439998 0
0.18362474 0.019799871 0.28878871 123 106 112 -0.050799999 0.1287 -0.99040002 0
0.17414919 0.020099519 0.29317653 168 165 168 -0.70230001 0.33590001 -0.62760001 0
0.14019418 0.022304328 0.31789181 113 117 122 -0.58249998 0.1646 -0.796 0
0.11195154 0.024997976 0.36936578 216 183 165 -0.2879 0.33250001 -0.89810002 0
0.054703485 0.026409904 0.32575047 163 120 105 0.44839999 0.52880001 -0.72060001 0
0.036858264 0.026979489 0.32058808 242 207 200 -0.2139 0.48210001 -0.84960002 0
0.026297132 0.028145554 0.32622525 190 160 149 0.1749 0.7058 -0.68650001 0
0.022708314 0.02805686 0.3176057 158 113 106 0.73580003 0.54250002 -0.4052 0
0.018901661 0.028040029 0.30864111 216 183 174 0.3872 0.60360003 -0.69690001 0
0.015621168 0.02751665 0.30741563 246 211 198 0.069300003 0.58719999 -0.80650002 0
0.0049331738 0.028555868 0.31416038 255 220 205 -0.34999999 0.70429999 -0.61760002 0
-0.021214861 0.030105783 0.32896939 222 190 176 -0.5808 0.0037 -0.81400001 0
-0.038459461 0.030725023 0.3231239 228 195 184 0.27090001 0.078299999 -0.9594 0
-0.071149722 0.031787254 0.32580376 255 233 217 -0.24330001 0.1552 -0.95749998 0
0.1761882 0.02080233 0.2919265 137 132 134 -0.6649 0.28670001 -0.68970001 0
0.16177325 0.021620058 0.30614719 154 70 92 -0.66159999 0.32449999 -0.676 0
0.13328451 0.023020575 0.32762679 116 112 118 -0.62970001 0.060400002 -0.77450001 0
0.1265544 0.024285542 0.36468589 226 195 180 -0.39120001 0.0034 -0.92030001 0
0.072555669 0.026050575 0.32742694 246 210 191 -0.073600002 0.49900001 -0.8635 0
0.058688205 0.026797684 0.3294372 193 148 129 0.31659999 0.4752 -0.82099998 0
0.040192079 0.027481258 0.3228929 171 112 107 0.071500003 0.53490001 -0.84189999 0
0.0083020702 0.029249277 0.31289753 255 225 213 -0.49020001 0.6516 -0.57889998 0
-0.0093536936 0.029145494 0.31869426 254 223 208 -0.1574 0.032099999 -0.98699999 0
-0.035144407 0.031294324 0.32426485 217 187 174 0.4165 0.18960001 -0.88910002 0
-0.052446261 0.031705055 0.32187286 255 245 228 -0.2868 0.121 -0.95029998 0
-0.067591153 0.032458205 0.325232 255 240 224 -0.1837 0.184 -0.96560001 0
-0.083238453 0.033192955 0.32926154 226 201 189 -0.3752 0.077299997 -0.92369998 0
-1.0856123 0.1212737 1.9172918 228 230 231 -0.3283 0.23549999 -0.91479999 0
0.1702849 0.021553142 0.29829282 153 149 157 -0.34900001 0.31650001 -0.88209999 0
0.16391227 0.02237498 0.30439383 179 95 105 -0.58840001 0.24690001 -0.76999998 0
0.15278329 0.022839425 0.30887321 105 104 111 0.015799999 0.42969999 -0.90280002 0
0.14557776 0.02373817 0.31560254 66 60 71 -0.2287 0.34909999 -0.90869999 0
0.14192553 0.023208961 0.31455603 116 118 120 -0.34689999 0.4691 -0.81220001 0
0.13508406 0.02397975 0.32352617 172 173 177 -0.66240001 0.167 -0.73030001 0
0.13013735 0.025038764 0.36384857 208 174 163 -0.38499999 0.0031999999 -0.92290002 0
0.11552706 0.025768187 0.36850438 224 192 178 -0.3741 0.23190001 -0.89789999 0
0.076122634 0.026630938 0.32829154 221 190 170 0.1822 0.5582 -0.80949998 0
0.062179659 0.027414363 0.32984644 227 186 172 0.011 0.45750001 -0.88910002 0
0.043955199 0.027961789 0.32502708 166 81 96 0.18099999 0.5887 -0.78789997 0
0.029611707 0.028835922 0.32545102 199 171 162 -0.14669999 0.68040001 -0.71799999 0
-0.0025261538 0.030378738 0.31908348 252 220 208 0.035999998 0.5751 -0.81730002 0
-0.0058994698 0.029785825 0.31843251 244 211 202 0.067599997 0.28049999 -0.95749998 0
-0.017540526 0.030952342 0.32541394 138 129 116 -0.64630002 -0.1228 -0.75319999 0
-0.031914692 0.03182593 0.32620078 204 173 156 0.5151 0.2859 -0.80800003 0
-0.048792735 0.032370802 0.32103008 255 236 217 -0.1119 0.1441 -0.98320001 0
-0.063815162 0.033134069 0.3242442 255 255 240 -0.1455 0.1911 -0.97070003 0
-0.079407103 0.033886753 0.32815129 251 226 211 -0.33809999 0.1174 -0.93379998 0
0.17804335 0.021533916 0.29028773 103 98 102 -0.32859999 0.1252 -0.93610001 0
0.17307439 0.022160232 0.2979449 190 192 198 -0.4682 0.2306 -0.85299999 0
0.15773198 0.023131503 0.31252652 174 171 174 -0.1499 0.34119999 -0.92799997 0
0.12944719 0.024436004 0.33828959 54 55 66 -0.56029999 0.2554 -0.78789997 0
0.1189867 0.026555454 0.36717331 222 188 172 -0.36489999 0.1445 -0.91979998 0
0.10332327 0.02749351 0.36878464 194 158 138 0.1459 0.50770003 -0.84909999 0
0.090369396 0.027514094 0.34473494 180 149 130 0.71350002 0.49149999 -0.4993 0
0.084294043 0.027517911 0.3345322 161 130 111 0.65670002 0.52749997 -0.53890002 0
0.079927877 0.027142603 0.33023715 206 172 154 0.4023 0.5553 -0.72790003 0
0.065727487 0.028025242 0.3303147 232 196 181 -0.132 0.4447 -0.88590002 0
0.04733656 0.028633881 0.32441726 231 189 194 0.1194 0.63279998 -0.7651 0
0.032979008 0.029506367 0.3249625 230 199 189 -0.3944 0.64209998 -0.65740001 0
0.011769542 0.029987736 0.31065926 255 254 243 -0.4289 0.62150002 -0.65560001 0
0.00083149585 0.030986119 0.31952029 255 228 216 -0.040199999 0.73189998 -0.68019998 0
-0.028791526 0.032338761 0.32876796 210 178 164 0.51099998 0.3477 -0.78609997 0
-0.045504447 0.032971207 0.32161078 254 220 204 0.038600001 0.092100002 -0.995 0
-0.060438909 0.033759966 0.32451805 255 250 233 -0.1693 0.17730001 -0.96950001 0
-0.075619809 0.034579687 0.32701594 255 237 222 -0.27200001 0.1242 -0.95429999 0
0.18157156 0.021985495 0.29157948 108 100 108 -0.1683 0.040399998 -0.9849 0
0.17515966 0.02288948 0.29615045 199 196 202 -0.75300002 0.064300001 -0.65490001 0
0.16574499 0.023164267 0.30218026 209 199 203 -0.65210003 0.1605 -0.741 0
0.16051252 0.02381256 0.3112838 174 164 170 -0.60000002 0.1415 -0.78740001 0
0.14813477 0.024488544 0.31338 251 251 253 -0.25060001 0.1961 -0.94800001 0
0.13758384 0.024774939 0.32121509 67 70 78 -0.61470002 0.35319999 -0.70529997 0
0.13007097 0.02566836 0.32987142 140 137 141 -0.62300003 0.3497 -0.6997 0
0.12272941 0.027270893 0.36706913 225 190 177 -0.38029999 0.086400002 -0.92079997 0
0.10800467 0.028019944 0.37212184 195 158 134 -0.15989999 0.41850001 -0.89410001 0
0.069117218 0.028664242 0.33047739 247 212 192 -0.1259 0.49349999 -0.86059999 0
0.050529726 0.029261973 0.32490423 224 181 179 0.222 0.67290002 -0.70560002 0
0.036319129 0.030247595 0.3230111 235 205 197 -0.2651 0.63630003 -0.7245 0
0.015082935 0.030609487 0.31036881 245 212 203 0.049899999 0.7288 -0.68300003 0
0.0041917409 0.031637754 0.31906548 243 210 201 -0.25940001 0.79879999 -0.54280001 0
-0.0255921 0.032868188 0.33119583 200 168 154 -0.0823 0.25049999 -0.96460003 0
-0.042286661 0.033589486 0.3219915 237 205 191 0.1979 0.074299999 -0.9774 0
0.18412073 0.022600748 0.2910113 153 98 114 -0.2172 -0.065700002 -0.97390002 0
0.16801071 0.023871453 0.3006379 192 190 193 -0.66180003 0.096600004 -0.74339998 0
0.15230568 0.024908008 0.31590846 255 255 255 -0.21269999 0.1119 -0.97070003 0
0.14032792 0.025499057 0.31970662 79 78 87 -0.59140003 0.37740001 -0.71259999 0
0.13245137 0.026512863 0.32672024 115 111 117 -0.73650002 0.2872 -0.6124 0
0.12595735 0.028086793 0.36516511 208 174 161 -0.37540001 -0.039000001 -0.926 0
0.11148842 0.028810538 0.37078509 220 184 169 -0.29229999 0.3567 -0.88730001 0
0.072474517 0.029325237 0.33022198 243 210 191 -0.018100001 0.54439998 -0.83859998 0
0.058483742 0.030110704 0.33228934 189 144 128 0.22040001 0.55229998 -0.80400002 0
0.054292414 0.029734131 0.32775575 186 140 126 0.3177 0.63559997 -0.70359999 0
0.018440647 0.031055905 0.31327555 214 179 170 0.49630001 0.68910003 -0.528 0
-0.0097634699 0.032759521 0.31475884 107 99 77 -0.2357 0.28619999 -0.92869997 0
-0.013696734 0.03190212 0.31921381 203 183 167 -0.4675 0.086400002 -0.87980002 0
-0.022046369 0.03361148 0.32923353 172 140 124 -0.58789998 0.068499997 -0.80599999 0
-0.056978226 0.034398019 0.32427233 255 253 236 -0.2617 0.14470001 -0.95420003 0
-0.071944192 0.035246648 0.32628414 255 236 221 -0.22059999 0.1232 -0.96759999 0
-0.088270389 0.035981037 0.33159652 196 176 162 -0.37560001 0.1195 -0.91909999 0
0.17609683 0.023754403 0.29286629 131 126 130 -0.76370001 0.081799999 -0.64029998 0
0.16147152 0.024756037 0.30704558 148 58 77 -0.65030003 0.123 -0.74959999 0
0.14272012 0.026266476 0.31775555 119 118 125 -0.3892 0.38519999 -0.83670002 0
0.039528944 0.030880826 0.32320416 197 136 131 0.042300001 0.6656 -0.74510002 0
0.029178984 0.032066099 0.33001754 220 192 183 -0.078500003 0.67500001 -0.73360002 0
0.0076901889 0.032298479 0.31821027 248 218 208 -0.46169999 0.7464 -0.47929999 0
-0.0065467199 0.03322307 0.31786716 139 109 83 0.1609 0.70639998 -0.6893 0
-0.035851501 0.034721218 0.32491988 216 185 175 0.4946 0.1605 -0.85420001 0
-0.038965691 0.034197185 0.32250246 228 199 186 0.3576 0.091300003 -0.92940003 0
-0.053245187 0.03510699 0.32264221 255 253 234 -0.2924 0.1204 -0.94870001 0
-0.068587445 0.035884824 0.3263804 255 244 227 -0.1683 0.14309999 -0.97530001 0
-0.084333874 0.036643226 0.33089572 227 199 188 -0.3497 0.119 -0.92930001 0
0.17014906 0.024592232 0.29880849 176 175 178 -0.57120001 0.0273 -0.8204 0
0.16381152 0.025464524 0.30563495 171 71 84 -0.67729998 0.1054 -0.7281 0
0.15345517 0.025867986 0.3112897 255 255 255 -0.0317 0.0154 -0.99940002 0
0.14720452 0.026673255 0.32086828 172 171 176 -0.39199999 0.30770001 -0.86699998 0
0.13474724 0.027314382 0.32442781 95 95 99 -0.71929997 0.2499 -0.64819998 0
0.11526059 0.029543543 0.37020352 226 190 175 -0.40580001 0.3211 -0.85570002 0
0.079875149 0.030462962 0.33288077 199 167 148 0.4517 0.59670001 -0.66329998 0
0.075838044 0.029974595 0.33009711 209 176 160 0.2051 0.58590001 -0.78399998 0
0.061898384 0.030747419 0.33256707 225 184 168 0.0133 0.52749997 -0.8495 0
0.047044072 0.031903479 0.32757169 208 167 167 0.1789 0.7119 -0.67909998 0
0.043164108 0.03141747 0.32488143 153 89 88 0.19580001 0.68599999 -0.70069999 0
0.032677226 0.032751758 0.32896259 218 193 181 -0.39430001 0.6523 -0.6473 0
2.418964e-06 0.034178432 0.3243607 253 232 223 0.1076 0.85009998 -0.51560003 0
-0.0032359224 0.033723921 0.3203696 189 169 137 0.18799999 0.77560002 -0.60259998 0
-0.017760638 0.034551803 0.32219827 215 189 177 -0.66189998 0.0015 -0.74959999 0
-0.032660812 0.03526542 0.3271327 197 167 154 0.56349999 0.2491 -0.7877 0
-0.0496548 0.035762683 0.32194847 255 237 221 -0.1837 0.1225 -0.97530001 0
-0.064764179 0.036550675 0.32544172 255 244 227 -0.16159999 0.1292 -0.97839999 0
-0.08016856 0.037349816 0.32895762 255 237 221 -0.34760001 0.1288 -0.92869997 0
-1.1008675 0.1428674 1.9381241 230 232 234 -0.22130001 -0.36880001 -0.90280002 0
0.17716828 0.024586206 0.28973556 120 117 125 -0.48559999 0.065899998 -0.87169999 0
0.1725073 0.025258102 0.29782379 215 211 217 -0.55599999 0.0206 -0.83099997 0
0.15738377 0.02635151 0.31305528 72 73 81 -0.1989 -0.0014 -0.98000002 0
0.13800605 0.027958689 0.32407144 143 144 148 -0.57160002 0.2474 -0.78240001 0
0.11863255 0.030343153 0.36826658 218 184 168 -0.45899999 0.28569999 -0.84119999 0
0.10376029 0.031136639 0.37374476 186 148 127 0.0136 0.44580001 -0.89499998 0
0.090477861 0.030941876 0.34869042 175 141 121 0.6649 0.55989999 -0.49430001 0
0.084681056 0.030777281 0.33928406 162 129 108 0.67210001 0.53579998 -0.51109999 0
0.065355286 0.031413831 0.33200082 247 211 196 -0.1067 0.50629997 -0.85570002 0
0.05043225 0.032504957 0.32856622 227 184 181 0.18799999 0.73570001 -0.65069997 0
0.011119972 0.033076856 0.31485999 248 218 206 -0.4073 0.71219999 -0.57169998 0
0.0033884062 0.034806371 0.32461905 215 178 165 -0.039900001 0.8642 -0.50150001 0
-0.029522268 0.035805635 0.32974193 179 147 131 0.56940001 0.29030001 -0.76910001 0
-0.046180982 0.036384452 0.32199085 255 237 222 -0.041099999 0.1065 -0.99349999 0
-0.061291788 0.037184585 0.32540238 255 238 221 -0.182 0.15189999 -0.97149998 0
-0.093422361 0.038774725 0.3349556 170 158 149 -0.48269999 0.1785 -0.8574 0
0.17986183 0.025180247 0.28904483 208 203 207 -0.27649999 0.062199999 -0.95899999 0
0.17506361 0.025886461 0.29727146 206 206 208 -0.70130002 -0.0096000005 -0.71280003 0
0.16620949 0.026152438 0.30435497 197 185 187 -0.74370003 0.0263 -0.66799998 0
0.14899895 0.027519962 0.31731677 249 249 249 -0.5826 0.14830001 -0.79909998 0
0.12991866 0.029041361 0.33166304 154 153 158 -0.58859998 0.248 -0.7694 0
0.12168632 0.03116923 0.36574778 223 191 177 -0.4298 0.26350001 -0.86360002 0
0.10772905 0.031844337 0.37358925 201 163 144 -0.25220001 0.4312 -0.86629999 0
0.068673752 0.032093544 0.33127481 232 196 179 -0.095799997 0.54070002 -0.83579999 0
0.054094926 0.033049081 0.33064461 212 171 157 0.1649 0.66689998 -0.72670001 0
0.036023378 0.033453885 0.32767826 234 204 192 -0.34299999 0.65350002 -0.67479998 0
0.017868651 0.034242056 0.31641302 225 189 183 0.37439999 0.81099999 -0.44949999 0
0.014412558 0.033760983 0.31347445 243 210 201 -0.0085000005 0.78600001 -0.61809999 0
0.0069813109 0.03541626 0.32511294 209 170 156 -0.048700001 0.86610001 -0.49739999 0
-0.010708166 0.035811387 0.32216942 218 195 182 -0.0153 0.71789998 -0.69599998 0
-0.014030738 0.03532929 0.31879839 194 169 154 -0.4339 0.38850001 -0.81290001 0
-0.026378358 0.036344741 0.33271095 190 154 139 0.1052 0.29539999 -0.94959998 0
-0.057607684 0.037863825 0.32426196 255 244 225 -0.2385 0.1381 -0.96130002 0
-0.076467879 0.03802456 0.32804796 255 240 228 -0.3021 0.13789999 -0.94330001 0
0.18242933 0.02577864 0.28855544 223 218 222 -0.31439999 -0.038600001 -0.94849998 0
0.16782656 0.026942214 0.30140057 220 215 217 -0.64410001 0.029200001 -0.76440001 0
0.15906477 0.027164241 0.30973923 146 143 148 -0.39410001 0.026699999 -0.91869998 0
0.14080475 0.028663758 0.32278997 189 191 195 -0.53039998 0.1639 -0.83170003 0
0.13316715 0.029693842 0.33155742 35 32 38 -0.76660001 0.16689999 -0.62010002 0
0.11135604 0.032603711 0.37285089 216 179 164 -0.28259999 0.4267 -0.85909998 0
0.072244957 0.032688245 0.33243403 230 194 176 0.0133 0.56220001 -0.82690001 0
0.057963759 0.033563726 0.33323401 215 171 159 0.093500003 0.58340001 -0.80680001 0
0.039421875 0.034121547 0.32699913 226 194 182 -0.065099999 0.69239998 -0.71859998 0
-0.02297209 0.037057515 0.33104643 170 139 134 -0.55309999 0.1543 -0.81870002 0
-0.042835396 0.037005428 0.32219738 233 198 187 0.17380001 0.1376 -0.97509998 0
-0.0727778 0.038698032 0.32715198 255 236 221 -0.23549999 0.12980001 -0.96319997 0
0.16118282 0.027903955 0.3080602 127 99 106 -0.34810001 0.047400001 -0.93629998 0
0.1506668 0.028352993 0.31404611 255 255 255 -0.40279999 0.1436 -0.90390003 0
0.14334601 0.029400907 0.32074085 170 169 176 -0.45730001 0.026799999 -0.88889998 0
0.11498608 0.033355922 0.37195763 217 181 166 -0.37180001 0.41600001 -0.82990003 0
0.07576929 0.033312272 0.33287558 223 187 169 0.27379999 0.5855 -0.76300001 0
0.043042134 0.034675937 0.32899103 202 154 140 0.2357 0.69800001 -0.67619997 0
0.028830914 0.035360124 0.33500308 221 191 183 -0.1092 0.5291 -0.84149998 0
-0.0041579911 0.036941484 0.3259812 246 233 219 0.15800001 0.84320003 -0.51380002 0
-0.039536558 0.037615746 0.32284614 217 187 174 0.366 0.17739999 -0.91360003 0
-0.054001041 0.038507599 0.32371739 255 255 237 -0.2757 0.1237 -0.9533 0
-0.069254853 0.039349962 0.32678613 255 237 220 -0.16760001 0.1226 -0.97820002 0
-0.0851174 0.040159144 0.33147907 225 200 188 -0.31369999 0.14920001 -0.93769997 0
0.18507075 0.026365928 0.28797537 169 94 107 -0.1788 -0.1116 -0.97750002 0
0.17793661 0.027418153 0.29216585 189 186 189 -0.6214 0.15899999 -0.76719999 0
0.17578802 0.026748747 0.29344687 204 203 208 -0.76310003 0.0134 -0.6462 0
0.17017661 0.027616248 0.30006015 186 182 188 -0.56040001 0.036600001 -0.82740003 0
0.16355504 0.028590251 0.30685103 194 114 128 -0.67909998 0.1656 -0.71509999 0
0.15840569 0.029405037 0.31660977 255 255 255 -0.1213 0.23119999 -0.96530002 0
0.1534912 0.029022587 0.31279099 255 255 255 -0.0999 0.20739999 -0.97310001 0
0.14625938 0.030069862 0.31988916 128 127 134 -0.4962 0.0243 -0.86790001 0
0.13536404 0.030517647 0.32789457 106 106 108 -0.73659998 -0.0024999999 -0.67629999 0
0.10385669 0.034933366 0.37717858 173 136 114 0.052299999 0.54799998 -0.83490002 0
0.090681516 0.034429733 0.35340416 162 126 109 0.63810003 0.6189 -0.458 0
0.084921524 0.034160733 0.34352624 166 130 110 0.68889999 0.5474 -0.4752 0
0.079865254 0.033824272 0.33570129 199 164 144 0.49649999 0.58099997 -0.64499998 0
0.065154433 0.034793008 0.33483943 229 190 176 -0.084200002 0.5528 -0.829 0
0.061422218 0.034201872 0.33357856 225 184 168 -0.0038000001 0.55250001 -0.83350003 0
0.046759911 0.035183597 0.33232412 142 80 74 0.26449999 0.69319999 -0.67040002 0
0.032346852 0.036074955 0.33310562 246 216 205 -0.3662 0.51010001 -0.77819997 0
-0.00081461901 0.037454061 0.32949814 223 195 184 0.0051000002 0.75 -0.66140002 0
-0.018521216 0.037951834 0.32325053 197 169 156 -0.65640002 0.1652 -0.73610002 0
-0.033333831 0.038740262 0.32750818 184 157 141 0.58249998 0.28209999 -0.76230001 0
-0.036380891 0.038184885 0.32478964 207 181 169 0.49959999 0.2388 -0.83270001 0
-0.050359733 0.039167084 0.32268572 255 245 228 -0.2238 0.1542 -0.96240002 0
-0.065634809 0.040002331 0.32620853 255 239 225 -0.1767 0.075800002 -0.9813 0
-0.081062026 0.040846396 0.32973856 252 225 209 -0.3436 0.1411 -0.9285 0
-1.1514313 0.16642198 1.8688068 229 231 232 0 0 0 0
0.18894635 0.026799761 0.28954691 191 132 145 -0.1096 -0.099200003 -0.98900002 0
0.17220716 0.028312722 0.29844347 158 158 162 -0.58569998 -0.0071 -0.81050003 0
0.13773865 0.031285651 0.32508689 142 143 147 -0.55479997 -0.0605 -0.82980001 0
0.13050559 0.032338105 0.33516204 90 87 92 -0.58530003 -0.0137 -0.8107 0
0.11833624 0.034139793 0.37017632 205 169 154 -0.50370002 0.40920001 -0.7608 0
0.050319381 0.035794411 0.33327371 213 176 168 0.14740001 0.65930003 -0.73729998 0
0.017442523 0.03734706 0.32379797 245 214 204 0.31529999 0.87099999 -0.37670001 0
0.0026108874 0.038041417 0.33129075 236 208 199 0.056899998 0.699 -0.71280003 0
-0.03024387 0.039298136 0.33048171 172 138 122 0.59420002 0.28529999 -0.75199997 0
-0.077246897 0.041511275 0.32870746 255 240 223 -0.31869999 0.16159999 -0.93400002 0
0.18023059 0.028056663 0.29086995 188 183 189 -0.433 0.2683 -0.86059999 0
0.17425491 0.028992768 0.29702908 218 217 222 -0.67659998 0.0309 -0.73570001 0
0.16569132 0.029307419 0.30444837 219 130 144 -0.75309998 0.145 -0.64179999 0
0.14797707 0.030888062 0.31628865 133 132 139 -0.58069998 0.023800001 -0.81379998 0
0.14054076 0.031985037 0.32389534 135 135 137 -0.50559998 -0.093000002 -0.85769999 0
0.10717305 0.035736535 0.37459812 208 172 154 -0.31310001 0.49309999 -0.81160003 0
0.068532504 0.035464451 0.33416852 240 204 187 -0.065200001 0.58859998 -0.80580002 0
0.053931687 0.036400855 0.3343395 235 199 186 0.0352 0.61680001 -0.7863 0
0.035698131 0.036782872 0.33138615 227 204 191 -0.3321 0.57029998 -0.75129998 0
0.024818202 0.038250465 0.33516657 235 198 190 0.211 0.38389999 -0.89889997 0
0.020969035 0.037833672 0.32830635 217 180 168 0.2502 0.67699999 -0.69209999 0
0.0062100114 0.038592871 0.33417213 223 186 171 0.1286 0.62190002 -0.77249998 0
-0.027073 0.039856058 0.33370104 187 153 140 0.28659999 0.3292 -0.89969999 0
-0.046782788 0.039817519 0.32188916 255 228 211 -0.087499999 0.1943 -0.977 0
-0.062123887 0.040639192 0.32609296 255 248 234 -0.16419999 0.093599997 -0.98199999 0
-1.0537108 0.17071958 1.9244543 230 232 234 -0.1179 0.40020001 -0.90880001 0
-1.0392855 0.16341864 1.8605161 228 230 231 0.0438 0.41260001 -0.90990001 0
-1.1272252 0.1691543 1.8642677 225 227 229 -0.48210001 0.51010001 -0.7123 0
0.18255934 0.028678022 0.29002339 230 227 230 -0.37099999 0.23899999 -0.8973 0
0.15886615 0.030350281 0.31065261 119 118 125 -0.31999999 0.1635 -0.9332 0
0.15061443 0.031572506 0.31490937 127 125 128 -0.2899 0.1882 -0.93839997 0
0.12009889 0.033808623 0.33741859 151 151 155 -0.2101 0.1881 -0.9594 0
0.1109285 0.036470138 0.3743481 213 177 162 -0.3098 0.47549999 -0.82340002 0
0.072069146 0.036081508 0.3351061 231 193 174 0.061700001 0.61830002 -0.78350002 0
0.057633951 0.037002236 0.33543977 230 192 175 -0.0142 0.55449998 -0.83209997 0
0.039074611 0.037463222 0.33027399 228 201 187 -0.0427 0.61150002 -0.79009998 0
-0.023642844 0.040545773 0.33270228 195 164 147 -0.13500001 0.27829999 -0.95099998 0
-0.040285405 0.04105062 0.32332891 225 195 184 0.32910001 0.31200001 -0.89130002 0
-0.043402579 0.040457431 0.32166326 243 211 199 0.1463 0.25819999 -0.95499998 0
-0.058647528 0.041269355 0.32619646 255 247 231 -0.1741 0.1381 -0.97500002 0
-0.073545687 0.042169236 0.32782215 255 238 221 -0.25369999 0.1793 -0.95050001 0
0.17544481 0.02976791 0.29405797 202 199 202 -0.66600001 0.070100002 -0.74260002 0
0.16720034 0.030078271 0.30136904 171 147 151 -0.59930003 0.1232 -0.79100001 0
0.16139814 0.031021459 0.3095617 117 112 116 -0.1549 0.40000001 -0.90329999 0
0.14273696 0.032743879 0.32078475 160 161 168 -0.52329999 -0.089199997 -0.84750003 0
0.12291627 0.034539666 0.33542541 83 81 91 -0.13500001 0.1003 -0.98580003 0
0.11743058 0.035408117 0.35419065 61 58 63 -0.67250001 0.088200003 -0.7349 0
0.11470649 0.037199359 0.37417388 222 186 168 -0.3317 0.45809999 -0.8247 0
0.098511294 0.038252208 0.37237406 199 160 144 0.46740001 0.59060001 -0.65789998 0
0.079718858 0.037263293 0.33847219 207 174 153 0.49739999 0.61979997 -0.60699999 0
0.075650401 0.036704268 0.33583751 224 188 170 0.27579999 0.61199999 -0.74119997 0
0.061201505 0.037633341 0.33591983 218 177 161 0.020400001 0.53490001 -0.84469998 0
0.042639617 0.038056083 0.33186254 229 197 183 0.23649999 0.59280002 -0.76980001 0
0.028319471 0.038855661 0.33670193 237 203 192 -0.045899998 0.3563 -0.93330002 0
-0.0050436435 0.040234093 0.33281249 248 220 211 0.0123 0.66140002 -0.75 0
-0.054871622 0.0419369 0.32469168 255 239 223 -0.2406 0.17219999 -0.95520002 0
-0.069909938 0.042810913 0.3274048 255 235 221 -0.1899 0.17730001 -0.96569997 0
0.18449852 0.029341288 0.2882714 209 204 208 -0.384 0.1858 -0.90439999 0
0.17002623 0.03068167 0.30105197 184 182 185 -0.5715 0.2123 -0.79259998 0
0.15306947 0.032262113 0.31323096 255 255 255 -0.0374 0.178 -0.98329997 0
0.12699954 0.035120986 0.33706707 103 104 113 -0.31389999 0.017999999 -0.94929999 0
0.10379945 0.038812686 0.37986666 165 122 102 -0.1034 0.54699999 -0.83069998 0
0.09092246 0.038006503 0.35811317 156 121 101 0.66820002 0.60619998 -0.43130001 0
0.084848657 0.037675448 0.3462131 160 124 104 0.66759998 0.59299999 -0.45030001 0
0.064911671 0.038236167 0.33728713 229 193 175 0.0052 0.551 -0.83450001 0
0.050356638 0.039172258 0.33762282 218 181 171 0.17990001 0.4734 -0.86229998 0
0.046481974 0.038594916 0.3354502 171 123 112 0.27759999 0.52899998 -0.80190003 0
0.031835239 0.039532509 0.33573669 238 206 194 -0.27869999 0.35100001 -0.89399999 0
0.016737478 0.040587001 0.33256051 221 180 167 -0.1303 0.56010002 -0.81809998 0
-0.0015879154 0.040841203 0.3346276 255 237 230 0.0219 0.63419998 -0.77289999 0
-0.033969577 0.042226005 0.32760769 171 142 129 0.57819998 0.31029999 -0.75459999 0
-0.037103172 0.041635171 0.32531211 201 175 165 0.47420001 0.30309999 -0.82660002 0
-0.051167663 0.042591348 0.32347745 255 232 215 -0.2357 0.26660001 -0.93449998 0
-0.06630753 0.043455802 0.32694799 255 233 221 -0.2198 0.14470001 -0.96469998 0
-0.082164437 0.044342194 0.33130831 242 213 198 -0.3339 0.2255 -0.9152 0
0.18698913 0.029931206 0.28761584 188 185 188 -0.19840001 0.1104 -0.97390002 0
0.17748205 0.030422486 0.29241052 201 195 202 -0.57029998 0.223 -0.7906 0
0.17165954 0.031404499 0.29852304 204 201 205 -0.5855 0.249 -0.77149999 0
0.14551532 0.033415701 0.31961551 137 133 139 -0.49290001 0.0381 -0.86919999 0
0.13681994 0.034711175 0.32469398 115 116 120 -0.62849998 -0.2142 -0.74769998 0
0.10728006 0.03958644 0.37806559 208 170 151 -0.35510001 0.51239997 -0.78189999 0
0.035266247 0.040222906 0.33397961 219 194 182 -0.26840001 0.4689 -0.84149998 0
0.001936977 0.041499496 0.33418703 239 209 198 0.0156 0.51660001 -0.85610002 0
-0.031020112 0.042802319 0.33153808 179 145 129 0.59960002 0.30219999 -0.74110001 0
-0.095727287 0.045887712 0.33844244 148 142 137 -0.37810001 0.178 -0.90850002 0
0.17952873 0.031078048 0.29084608 184 181 187 -0.46439999 0.317 -0.82690001 0
0.15735619 0.033684451 0.30867296 255 255 255 -0.0011 0.2485 -0.96859998 0
0.14778861 0.034142125 0.31727403 90 89 94 -0.4984 0.1627 -0.85159999 0
0.13022853 0.035786178 0.33629769 137 137 141 -0.5377 -0.059799999 -0.84100002 0
0.11597099 0.036685165 0.33791381 101 102 106 -0.46599999 0.2 -0.86189997 0
0.068197779 0.038916025 0.33630559 224 186 169 -0.020400001 0.58060002 -0.81400001 0
0.053831123 0.039815255 0.33846503 235 200 189 0.021500001 0.41870001 -0.90789998 0
0.038679261 0.040888507 0.33330086 202 172 157 -0.0623 0.54170001 -0.83819997 0
0.020440498 0.041184373 0.33423221 225 186 175 0.1246 0.51980001 -0.84509999 0
0.0055196076 0.042109039 0.33596182 240 209 192 0.1095 0.46970001 -0.87599999 0
-0.0094737941 0.043079931 0.33586472 226 200 193 0.1459 0.43399999 -0.889 0
-0.027643578 0.043402065 0.33394977 202 170 156 0.33899999 0.3635 -0.86769998 0
-0.047559865 0.043231547 0.32269448 255 233 217 -0.1139 0.33570001 -0.93510002 0
-0.062659614 0.044107638 0.3260355 255 239 225 -0.161 0.1692 -0.97229999 0
-0.078225747 0.044994563 0.32996228 255 234 217 -0.333 0.22390001 -0.91600001 0
-0.091044262 0.046553306 0.33544102 192 174 162 -0.42640001 0.29929999 -0.85360003 0
-1.0495274 0.19106108 1.9097545 230 232 234 -0.1135 -0.45460001 -0.88340002 0
0.18197142 0.031678323 0.29012975 197 194 198 -0.4208 0.37310001 -0.82690001 0
0.1736525 0.032074291 0.29701412 202 199 204 -0.58639997 0.3351 -0.73750001 0
0.16669729 0.033204947 0.30181283 197 108 124 -0.56999999 0.3283 -0.75319999 0
0.16171283 0.034157209 0.31137574 119 116 124 0.145 0.4621 -0.87489998 0
0.15054712 0.034798633 0.31612086 81 81 86 -0.31299999 0.25299999 -0.91540003 0
0.13994375 0.035356633 0.32367608 122 123 129 -0.4666 -0.1136 -0.87709999 0
0.13189712 0.036614746 0.33158121 30 35 45 -0.77539998 -0.142 -0.6153 0
0.11938698 0.037341416 0.33798158 101 102 108 -0.2534 0.2414 -0.93669999 0
0.11084187 0.04033716 0.37660778 210 174 154 -0.31310001 0.51480001 -0.79809999 0
0.071806408 0.039545059 0.33705422 225 190 170 0.1087 0.63300002 -0.7665 0
0.057362381 0.040463187 0.33846182 233 197 184 0.0128 0.42770001 -0.90380001 0
0.024120424 0.041754037 0.33741915 243 209 197 0.1278 0.354 -0.92650002 0
0.0090513984 0.042737469 0.337515 235 199 184 0.090800002 0.36390001 -0.92699999 0
-0.04424002 0.043857247 0.32318684 251 219 205 0.1051 0.37850001 -0.91960001 0
-0.059126977 0.044746447 0.32571808 255 243 226 -0.1164 0.2309 -0.96600002 0
-0.074306168 0.045647107 0.32862639 255 249 232 -0.28479999 0.24529999 -0.9267 0
0.18438165 0.032278098 0.28933308 196 191 197 -0.5018 0.32390001 -0.8021 0
0.17570929 0.032728393 0.29547209 191 190 195 -0.56080002 0.42840001 -0.70850003 0
0.16944799 0.033807803 0.30122417 194 111 132 -0.56809998 0.40110001 -0.71859998 0
0.14239608 0.036069021 0.32151723 148 147 150 -0.48339999 -0.068499997 -0.87269998 0
0.1226108 0.03801829 0.33668154 83 86 94 -0.1682 0.1636 -0.97210002 0
0.11502875 0.041047592 0.37803698 162 126 109 -0.2027 0.54900002 -0.81080002 0
0.098861963 0.042085253 0.37788993 173 133 115 0.28060001 0.59429997 -0.75370002 0
0.091592126 0.041651752 0.36448359 163 128 108 0.68449998 0.59939998 -0.4149 0
0.085797437 0.04115263 0.35352084 165 132 111 0.64050001 0.63980001 -0.42480001 0
0.080148585 0.04068609 0.34425089 178 145 124 0.56379998 0.67699999 -0.47299999 0
0.07553263 0.04015974 0.33856848 219 183 166 0.30469999 0.6318 -0.71270001 0
0.060854025 0.041116413 0.33834705 221 183 166 0.067199998 0.43689999 -0.89700001 0
0.042219821 0.041514333 0.33432573 201 169 155 0.1814 0.50800002 -0.84200001 0
0.027630152 0.042413644 0.33761126 243 209 195 -0.020099999 0.27270001 -0.9619 0
0.012619724 0.043375734 0.33844134 231 194 182 -0.14030001 0.3141 -0.93900001 0
-0.0058897818 0.043728646 0.33578673 219 188 183 0.1051 0.4709 -0.87589997 0
-0.041052699 0.044468585 0.32463092 231 204 193 0.2626 0.38659999 -0.88410002 0
-0.055705272 0.045390617 0.32549691 255 238 223 -0.1918 0.28389999 -0.93949997 0
-0.070756681 0.046291057 0.32838756 255 235 216 -0.21340001 0.26910001 -0.93919998 0
-0.086769484 0.047218323 0.33293602 229 203 191 -0.40009999 0.3378 -0.85189998 0
0.17753828 0.033399921 0.29334152 211 208 212 -0.56050003 0.4774 -0.6767 0
0.15888536 0.035843156 0.32003161 191 189 190 -0.20020001 0.0995 -0.97469997 0
0.15329075 0.035456147 0.31510502 125 120 124 -0.1788 0.2845 -0.9418 0
0.13364229 0.037400302 0.32757288 92 90 100 -0.83990002 -0.071999997 -0.53789997 0
0.12652069 0.038625523 0.3377887 89 91 93 -0.3567 0.091399997 -0.92970002 0
0.11365919 0.039394956 0.34396452 93 97 103 -0.56330001 -0.074100003 -0.8229 0
0.10365245 0.042757075 0.3821727 200 160 144 -0.13519999 0.58530003 -0.79939997 0
0.064556994 0.041742716 0.33959636 224 186 169 0.090300001 0.50080001 -0.86089998 0
0.045996666 0.042103279 0.33701071 201 168 150 0.2536 0.38170001 -0.88880002 0
0.031279106 0.04305543 0.33779493 240 205 192 -0.12540001 0.26640001 -0.95569998 0
0.016315486 0.044042032 0.3367222 246 211 200 -0.1227 0.31029999 -0.94270003 0
-0.0024285386 0.044355839 0.3380191 246 216 205 0.0144 0.48800001 -0.87269998 0
-0.034837529 0.045712002 0.32858497 157 132 117 0.56019998 0.33340001 -0.75830001 0
-0.037941732 0.045084827 0.3266167 188 167 156 0.4307 0.3554 -0.82950002 0
-0.051865365 0.046025541 0.32410404 255 236 220 -0.21600001 0.35429999 -0.90990001 0
-0.067136697 0.046937786 0.32753941 255 228 214 -0.22840001 0.2868 -0.93040001 0
-0.083047181 0.047867309 0.33229107 251 224 210 -0.39250001 0.3116 -0.86540002 0
-1.0329781 0.20209287 1.9581525 232 234 236 0.191 -0.075900003 -0.97860003 0
0.18017256 0.033983156 0.29291022 209 206 211 -0.49689999 0.51319999 -0.69980001 0
0.17154664 0.034463983 0.29948974 179 169 174 -0.5589 0.44409999 -0.70029998 0
0.14459792 0.036779281 0.31900069 81 84 90 -0.3513 0.1647 -0.9217 0
0.13610685 0.038105391 0.32474285 125 123 131 -0.62529999 -0.039999999 -0.77929997 0
0.10742477 0.043495238 0.38144326 205 170 150 -0.3556 0.51499999 -0.77990001 0
0.068130873 0.042390112 0.34013438 203 161 141 0.088399999 0.55159998 -0.8294 0
0.049806181 0.042709462 0.33905643 198 156 138 0.2245 0.30199999 -0.92650002 0
0.034757487 0.043724515 0.3361859 242 210 195 -0.1174 0.36649999 -0.92299998 0
0.020075714 0.044671346 0.33733219 239 200 188 0.032400001 0.34549999 -0.93790001 0
0.0012696184 0.045016941 0.33726767 255 230 216 -0.0277 0.44679999 -0.89420003 0
-0.03180971 0.046327893 0.33217865 171 135 120 0.58279997 0.30219999 -0.7543 0
-0.048388913 0.046659037 0.3240554 255 232 218 -0.1142 0.40369999 -0.9077 0
-0.079087764 0.048512816 0.3308962 255 233 214 -0.35030001 0.2789 -0.89410001 0
0.17343198 0.035126504 0.29777482 225 223 231 -0.52829999 0.50279999 -0.68409997 0
0.15867761 0.036742508 0.31304172 212 210 211 0.062199999 0.081100002 -0.99479997 0
0.14756739 0.037419476 0.31824383 76 75 80 -0.2902 0.2852 -0.91350001 0
0.12880926 0.039364319 0.33458775 109 106 109 -0.5564 0.073700003 -0.8276 0
0.11522067 0.040214717 0.33800691 96 100 103 -0.30450001 0.1496 -0.94069999 0
0.11097383 0.04423954 0.37948331 195 158 136 -0.35600001 0.4842 -0.79930001 0
0.071788758 0.043028325 0.34090644 222 186 168 0.16850001 0.59920001 -0.7827 0
0.053364687 0.043353278 0.33989918 220 181 169 0.086000003 0.2595 -0.9619 0
0.038262274 0.044373121 0.33649546 216 186 171 -0.0352 0.44 -0.8973 0
0.023436628 0.045336504 0.33801076 241 205 192 0.037799999 0.2793 -0.9594 0
0.0048621679 0.045666248 0.33729097 255 237 223 0.042100001 0.42550001 -0.90399998 0
-0.010197536 0.046630021 0.33826753 215 187 178 0.2278 0.37959999 -0.89670002 0
-0.028472193 0.046952508 0.33517554 202 170 158 0.4508 0.2476 -0.85759997 0
-0.045159485 0.047288965 0.32503408 253 223 208 0.045699999 0.41749999 -0.90750003 0
-0.063362546 0.047578301 0.32613921 255 224 218 -0.1656 0.33559999 -0.92729998 0
-0.092458896 0.050141044 0.33780628 173 160 151 -0.3827 0.3673 -0.8477 0
0.18247612 0.034589827 0.29182956 217 214 217 -0.4727 0.4666 -0.7475 0
0.16768539 0.036215123 0.30475062 187 95 114 -0.52649999 0.3944 -0.75309998 0
0.16232632 0.03731066 0.31409705 255 255 255 0.273 0.2098 -0.93889999 0
0.15068604 0.038041048 0.31807178 90 89 94 -0.2022 0.1805 -0.96259999 0
0.13827406 0.038813718 0.32144609 118 120 126 -0.3642 0.1161 -0.92400002 0
0.13142656 0.040068623 0.33235464 153 157 158 -0.73659998 0.1084 -0.66750002 0
0.11905252 0.040845025 0.33905616 57 57 70 -0.21080001 0.29789999 -0.93110001 0
0.092789836 0.045400184 0.37243083 154 113 95 0.50919998 0.67919999 -0.52859998 0
0.07555081 0.043664977 0.34221739 190 155 135 0.44760001 0.68309999 -0.57709998 0
0.056835089 0.044012014 0.33941978 229 192 177 0.048099998 0.29260001 -0.95499998 0
0.041830327 0.045012046 0.33717403 229 203 191 0.084299996 0.421 -0.90310001 0
0.0084074652 0.046312399 0.33835945 255 221 203 0.036499999 0.36449999 -0.93049997 0
-0.0066248337 0.047294736 0.33771759 233 202 195 0.13259999 0.3888 -0.91170001 0
-0.059967391 0.048212983 0.32667333 255 232 216 -0.1203 0.37059999 -0.921 0
-0.075189054 0.049146719 0.32967463 255 239 223 -0.27919999 0.2915 -0.9149 0
0.17561845 0.035754628 0.29623395 204 201 205 -0.49610001 0.5456 -0.67540002 0
0.17014612 0.036839597 0.30363449 152 49 65 -0.5851 0.3741 -0.71950001 0
0.15297014 0.038716212 0.3159205 174 171 176 -0.1461 -0.0111 -0.9892 0
0.14167362 0.039431032 0.32168791 143 142 147 -0.31310001 0.22939999 -0.92159998 0
0.122641 0.041486565 0.33876461 58 59 67 -0.18449999 0.37020001 -0.91039997 0
0.099465214 0.046021882 0.38463044 165 125 105 0.099299997 0.59990001 -0.79390001 0
0.085928924 0.044817772 0.35815471 171 140 120 0.5406 0.72799999 -0.4215 0
0.080240786 0.04425538 0.34837812 154 121 100 0.57050002 0.71109998 -0.4109 0
0.060429908 0.044658743 0.34000957 233 197 182 0.1321 0.375 -0.91750002 0
0.02692591 0.045988277 0.33737594 242 206 193 -0.041000001 0.2165 -0.97539997 0
0.012025201 0.046961974 0.33876139 246 212 196 -0.1194 0.28850001 -0.94999999 0
-0.0032220178 0.047955781 0.33885416 230 197 188 0.0153 0.40599999 -0.9138 0
