ply
format ascii 1.0
comment PCL generated
element vertex 585
property float x
property float y
property float z
property uchar red
property uchar green
property uchar blue
property float nx
property float ny
property float nz
property float curvature
element camera 0
property float view_px
property float view_py
property float view_pz
property float x_axisx
property float x_axisy
property float x_axisz
property float y_axisx
property float y_axisy
property float y_axisz
property float z_axisx
property float z_axisy
property float z_axisz
property float focal
property float scalex
property float scaley
property float centerx
property float centery
property int viewportx
property int viewporty
property float k1
property float k2
end_header
0.13769557 -0.088922702 0.3427909 172 179 181 -0.8035 -0.038800001 -0.59399998 0
0.1314992 -0.094530389 0.36174324 73 81 85 -0.73760003 -0.28670001 -0.61129999 0
0.12278627 -0.098032326 0.37593794 128 135 135 -0.71170002 -0.3154 -0.62769997 0
0.21385495 -0.07074447 0.26779729 191 122 136 -0.61199999 -0.044399999 -0.78960001 0
0.20777284 -0.071887948 0.2739687 185 104 122 -0.080700003 -0.1744 -0.98140001 0
0.20424047 -0.072279952 0.27370259 164 153 159 -0.1146 -0.2419 -0.96350002 0
0.19073005 -0.074403755 0.28586939 241 240 245 -0.34290001 -0.3612 -0.86720002 0
0.17263024 -0.077207945 0.29912931 247 246 249 -0.46919999 -0.3545 -0.80879998 0
0.1473749 -0.083779372 0.32687363 196 200 201 -0.6692 -0.22239999 -0.70899999 0
0.14016365 -0.087010458 0.33970416 93 97 101 -0.78009999 0.0495 -0.62370002 0
0.13369879 -0.091599897 0.35605955 173 180 180 -0.74970001 -0.28 -0.59960002 0
0.22244942 -0.06895946 0.26132017 219 218 221 -0.1733 -0.1683 -0.97039998 0
0.21597476 -0.069585532 0.26635098 252 247 249 -0.52569997 -0.1529 -0.83679998 0
0.20997736 -0.070722111 0.27256474 163 79 92 -0.25459999 -0.161 -0.95349997 0
0.20011202 -0.072232284 0.27841508 255 255 255 -0.45879999 -0.2158 -0.86189997 0
0.19326445 -0.073314779 0.28465024 225 224 229 -0.37259999 -0.33559999 -0.86519998 0
0.18268549 -0.074861489 0.29081613 223 225 229 -0.32460001 -0.4267 -0.84420002 0
0.17521983 -0.075922437 0.29737183 204 196 201 -0.44159999 -0.37020001 -0.81720001 0
0.16546266 -0.078821577 0.30715048 242 207 212 -0.43000001 -0.2608 -0.86430001 0
0.15065014 -0.082847066 0.32605609 233 238 238 -0.63160002 -0.1885 -0.75199997 0
0.12547165 -0.095193446 0.37037307 145 149 150 -0.70209998 -0.27669999 -0.65609998 0
0.11790302 -0.10183714 0.39311057 154 158 161 -0.68709999 -0.48590001 -0.5402 0
0.22880821 -0.067876622 0.26082331 200 199 204 -0.27790001 -0.27540001 -0.92030001 0
0.22528377 -0.068254173 0.26077238 204 203 208 -0.1003 -0.16590001 -0.98100001 0
0.21840096 -0.068617888 0.26529071 137 132 136 -0.4041 -0.2282 -0.8858 0
0.18494982 -0.073468372 0.28885064 214 213 218 -0.26359999 -0.4359 -0.86049998 0
0.16763225 -0.077005453 0.30409956 195 108 124 -0.5528 -0.315 -0.77149999 0
0.14283986 -0.085249797 0.3368794 138 141 147 -0.83469999 0.064900003 -0.54689997 0
0.13612095 -0.089258291 0.35179311 79 85 90 -0.796 -0.1398 -0.58890003 0
0.12848809 -0.093423717 0.36764929 114 119 120 -0.75819999 -0.2687 -0.5941 0
0.2126866 -0.069819756 0.27162352 220 125 146 -0.4677 -0.19220001 -0.86269999 0
0.20096476 -0.07014633 0.27491662 205 202 208 -0.4249 -0.20999999 -0.88050002 0
0.19430968 -0.071192183 0.28103021 246 245 250 -0.4147 -0.31200001 -0.85479999 0
0.17707634 -0.074218772 0.29471618 253 255 255 -0.4998 -0.38440001 -0.7762 0
0.17025125 -0.075777709 0.30253288 233 148 170 -0.49689999 -0.40090001 -0.76959997 0
0.1595508 -0.078236818 0.31159768 200 200 200 -0.3757 -0.29210001 -0.87949997 0
0.15219131 -0.08016102 0.32088664 151 151 153 -0.57459998 -0.3035 -0.76010001 0
0.11884704 -0.096219346 0.3804588 217 219 221 -0.74400002 -0.29269999 -0.60070002 0
0.22041303 -0.067432158 0.26373714 246 243 246 -0.40200001 -0.22050001 -0.88870001 0
0.2142202 -0.06824737 0.26920599 226 223 227 -0.53659999 -0.2155 -0.81590003 0
0.20220171 -0.068349898 0.2721048 131 81 98 -0.2007 -0.1655 -0.96560001 0
0.19642857 -0.069833823 0.27910936 211 213 215 -0.3317 -0.259 -0.90719998 0
0.18735711 -0.072213076 0.28717017 204 206 210 -0.24070001 -0.41549999 -0.87709999 0
0.17916612 -0.072533906 0.29191849 133 134 143 -0.50190002 -0.41769999 -0.75739998 0
0.16154368 -0.076283157 0.30826065 199 198 203 -0.35089999 -0.25659999 -0.90060002 0
0.15520728 -0.078882635 0.31907165 160 162 164 -0.57120001 -0.3933 -0.72039998 0
0.14410213 -0.081975088 0.33020315 151 151 153 -0.78799999 -0.049699999 -0.61360002 0
0.13706866 -0.085407682 0.34377834 187 191 192 -0.77160001 0.099799998 -0.62819999 0
0.1297667 -0.089328095 0.358897 167 171 172 -0.75830001 -0.1944 -0.62220001 0
0.122526 -0.094695218 0.37821546 144 151 153 -0.68580002 -0.36809999 -0.6279 0
0.22860402 -0.065599099 0.25688085 138 134 142 -0.58399999 -0.33989999 -0.73720002 0
0.22120626 -0.065615445 0.26080063 187 187 191 -0.1603 -0.23119999 -0.95959997 0
0.20635669 -0.06836132 0.27326253 207 124 143 -0.0823 -0.15189999 -0.98500001 0
0.18931814 -0.070707649 0.28497106 255 255 255 -0.3224 -0.42640001 -0.8452 0
0.17170002 -0.073744893 0.29910484 215 172 175 -0.43630001 -0.4307 -0.79000002 0
0.14659517 -0.080133542 0.32706922 168 172 175 -0.69529998 -0.058800001 -0.71630001 0
0.14004469 -0.083938368 0.34166473 93 99 104 -0.75040001 0.1309 -0.64789999 0
0.11428813 -0.10066354 0.39965752 183 187 188 -0.73750001 -0.47119999 -0.48390001 0
0.21541314 -0.066551119 0.26651073 237 237 239 -0.52020001 -0.2458 -0.8179 0
0.20925853 -0.067564912 0.27257541 181 81 108 -0.23379999 -0.2726 -0.93330002 0
0.19880411 -0.06872572 0.27783078 218 210 215 -0.45570001 -0.236 -0.85829997 0
0.18085669 -0.070780024 0.28909478 231 233 237 -0.3793 -0.40939999 -0.82980001 0
0.17416705 -0.072433017 0.29729173 255 253 255 -0.37360001 -0.38170001 -0.84539998 0
0.13222072 -0.087017745 0.354664 118 120 122 -0.79089999 -0.089400001 -0.60530001 0
0.11630972 -0.096318007 0.39008686 124 131 133 -0.68989998 -0.428 -0.58380002 0
0.22834282 -0.064925075 0.26113734 243 242 247 -0.2771 -0.29949999 -0.91299999 0
0.22418612 -0.064959183 0.2602933 213 213 215 -0.1261 -0.27599999 -0.95289999 0
0.21702972 -0.065143287 0.26445416 230 230 235 -0.45390001 -0.18629999 -0.8714 0
0.20068374 -0.067300588 0.27577984 194 157 163 -0.41870001 -0.2261 -0.87949997 0
0.19110371 -0.069179229 0.28272641 229 231 235 -0.3168 -0.4113 -0.85470003 0
0.18345584 -0.069582671 0.28744715 245 246 253 -0.28850001 -0.3917 -0.87370002 0
0.14875969 -0.078137666 0.32354254 211 214 213 -0.6724 -0.1216 -0.73009998 0
0.14212914 -0.081543654 0.33713886 204 206 210 -0.83149999 0.094700001 -0.5474 0
0.13483891 -0.08495985 0.35106957 175 179 180 -0.78200001 -0.025800001 -0.62269998 0
0.12748761 -0.089182109 0.367385 157 162 163 -0.58969998 -0.39219999 -0.70599997 0
0.2115429 -0.066419169 0.27106461 238 235 238 -0.40990001 -0.3312 -0.84990001 0
0.19360961 -0.068091199 0.28146857 230 232 236 -0.2906 -0.38370001 -0.87650001 0
0.17593835 -0.070633627 0.29428306 246 248 252 -0.491 -0.37090001 -0.78820002 0
0.15772694 -0.073807441 0.30951625 255 255 255 -0.35409999 -0.2705 -0.89520001 0
0.15122274 -0.076379925 0.32056996 180 182 184 -0.64200002 -0.2384 -0.72869998 0
0.11857569 -0.092801608 0.38264501 149 155 158 -0.6074 -0.53439999 -0.58780003 0
0.11094135 -0.10005021 0.40803972 178 183 184 -0.86879998 -0.33250001 -0.3669 0
0.22744958 -0.062351707 0.25651327 217 215 215 -0.33149999 -0.34259999 -0.87900001 0
0.21887241 -0.06386584 0.26262259 149 148 155 -0.3804 -0.16590001 -0.90979999 0
0.20308495 -0.066216245 0.2744787 197 106 121 -0.19750001 -0.19670001 -0.96039999 0
0.19638214 -0.067146219 0.28045061 207 208 214 -0.25310001 -0.35589999 -0.89960003 0
0.18581544 -0.068365604 0.28586441 255 255 255 -0.25150001 -0.39879999 -0.88190001 0
0.16139036 -0.073399909 0.30991432 255 255 255 -0.2631 -0.26109999 -0.92879999 0
0.14379689 -0.078846015 0.33184001 150 151 157 -0.85119998 0.064400002 -0.52079999 0
0.13682936 -0.082214072 0.34558076 116 125 126 -0.75239998 0.1235 -0.64709997 0
0.12944601 -0.08591862 0.36050755 118 122 125 -0.66759998 -0.32659999 -0.66909999 0
0.22121754 -0.062902749 0.26153472 233 232 237 -0.23360001 -0.21610001 -0.94800001 0
0.21382447 -0.065303095 0.26960793 182 184 188 -0.44890001 -0.3574 -0.81900001 0
0.20591231 -0.06540639 0.27380484 170 74 93 -0.1029 -0.22400001 -0.9691 0
0.18842129 -0.067364007 0.28483266 239 237 245 -0.33950001 -0.4149 -0.84420002 0
0.17757508 -0.068669029 0.29074278 250 252 253 -0.56040001 -0.3188 -0.76440001 0
0.17018509 -0.069740675 0.29768595 240 165 174 -0.37619999 -0.40759999 -0.83209997 0
0.13989389 -0.080780677 0.34347358 107 112 113 -0.75510001 0.155 -0.63709998 0
0.12102526 -0.089846648 0.37659848 178 183 182 -0.54470003 -0.61729997 -0.56770003 0
0.11186449 -0.093923934 0.3935101 221 226 227 -0.82139999 -0.3211 -0.47130001 0
0.22403261 -0.062175393 0.26090828 213 215 216 -0.26910001 -0.30809999 -0.91250002 0
0.21503487 -0.06363079 0.26692989 255 255 255 -0.50929999 -0.3267 -0.79610002 0
0.2088999 -0.064664967 0.27323744 148 117 141 -0.23639999 -0.39919999 -0.88590002 0
0.19831763 -0.065659992 0.27811983 212 160 184 -0.37040001 -0.34459999 -0.86260003 0
0.17937258 -0.067002192 0.2880314 151 153 157 -0.4675 -0.28819999 -0.83569998 0
0.15362091 -0.070978224 0.30981719 111 115 120 -0.61430001 -0.2112 -0.76029998 0
0.15235753 -0.073590897 0.31497711 115 115 117 -0.72369999 -0.1181 -0.67989999 0
0.1485658 -0.075031415 0.32506287 137 139 141 -0.75470001 0.1785 -0.63129997 0
0.14607665 -0.076825663 0.32814246 113 119 122 -0.76810002 0.1719 -0.61680001 0
0.1320024 -0.083841644 0.35687792 167 171 172 -0.67360002 -0.26120001 -0.69139999 0
0.19017671 -0.065794878 0.28239852 255 255 255 -0.27599999 -0.39739999 -0.87519997 0
0.17252827 -0.068401024 0.29574615 196 106 116 -0.31259999 -0.26109999 -0.91329998 0
0.14214736 -0.078621402 0.33950213 187 189 191 -0.82730001 0.1094 -0.551 0
0.1147307 -0.090856999 0.38695279 140 144 147 -0.7015 -0.50169998 -0.50620002 0
0.10964026 -0.09516082 0.40715685 194 196 198 -0.9443 -0.112 -0.30950001 0
0.22607997 -0.061087355 0.25944492 143 144 150 -0.2678 -0.31569999 -0.91030002 0
0.21617681 -0.062013261 0.26440704 168 167 172 -0.4425 -0.1997 -0.87419999 0
0.20992939 -0.06282448 0.27009273 173 170 175 -0.3048 -0.46540001 -0.83090001 0
0.20027977 -0.064356416 0.27636269 226 220 226 -0.33230001 -0.3488 -0.87629998 0
0.18216193 -0.065951318 0.28666431 186 185 192 -0.3039 -0.2536 -0.91829997 0
0.17468457 -0.066930585 0.29348993 219 129 150 -0.52029997 -0.26640001 -0.8114 0
0.15686673 -0.070283711 0.30955127 111 115 118 -0.46520001 -0.1453 -0.8732 0
0.13430549 -0.081428483 0.35218182 165 171 176 -0.63059998 -0.19660001 -0.75080001 0
0.1264843 -0.084923483 0.36698124 212 216 219 -0.42910001 -0.58939999 -0.68440002 0
0.2277353 -0.059833512 0.25773394 203 200 203 -0.20559999 -0.28080001 -0.9375 0
0.21792684 -0.06070032 0.26248428 212 211 216 -0.29449999 -0.1522 -0.94340003 0
0.20211697 -0.062946007 0.27426642 215 217 219 -0.24510001 -0.40830001 -0.8793 0
0.19198078 -0.064300112 0.28011215 234 238 241 -0.2076 -0.3524 -0.91250002 0
0.18412943 -0.064516231 0.28452787 235 236 240 -0.31130001 -0.2773 -0.90899998 0
0.17696707 -0.065470107 0.2911109 195 197 199 -0.62019998 -0.2006 -0.75840002 0
0.1604412 -0.069864802 0.30998686 255 255 255 -0.29949999 -0.16850001 -0.93910003 0
0.1500697 -0.072522007 0.32006973 67 73 78 -0.82260001 0.17389999 -0.5413 0
0.14343736 -0.075659908 0.33337888 129 138 137 -0.84979999 0.072899997 -0.52209997 0
0.13678685 -0.079224609 0.34802696 177 181 184 -0.67580003 -0.089100003 -0.7317 0
0.12889367 -0.08240024 0.36201218 111 114 113 -0.4497 -0.54769999 -0.70550001 0
0.11694576 -0.087606512 0.38004249 188 192 193 -0.63690001 -0.5837 -0.50370002 0
0.22109573 -0.060163677 0.26233622 249 249 251 -0.30320001 -0.1983 -0.9321 0
0.21186377 -0.061589602 0.26844969 208 205 208 -0.32929999 -0.47979999 -0.8132 0
0.20467725 -0.061991982 0.27326566 217 216 219 -0.2182 -0.43169999 -0.87519997 0
0.19479696 -0.063501611 0.27956241 194 196 198 -0.2492 -0.37959999 -0.89099997 0
0.18649165 -0.063398235 0.2831943 252 254 255 -0.38159999 -0.2814 -0.8804 0
0.16900052 -0.066067412 0.2970342 213 131 156 -0.2359 -0.075499997 -0.96880001 0
0.15141238 -0.069925517 0.3148672 129 130 134 -0.8308 0.1494 -0.53609997 0
0.14523549 -0.073145732 0.32833293 161 165 168 -0.78109998 0.064000003 -0.62120003 0
0.13967252 -0.077689819 0.3456499 124 128 131 -0.65189999 -0.069799997 -0.75510001 0
0.11854689 -0.083819516 0.3716639 214 216 215 -0.53219998 -0.60420001 -0.59310001 0
0.111103 -0.089849338 0.3942892 141 147 150 -0.9375 -0.1215 -0.32620001 0
0.22910321 -0.058447488 0.25557515 213 206 210 -0.2199 -0.092900001 -0.97109997 0
0.21406338 -0.060448695 0.26686898 187 189 193 -0.34189999 -0.43779999 -0.83149999 0
0.19658074 -0.061985485 0.2771261 234 236 237 -0.3766 -0.4043 -0.83350003 0
0.17847329 -0.063580915 0.28769526 243 245 246 -0.5219 -0.13160001 -0.84280002 0
0.15495512 -0.069245242 0.31448513 175 177 181 -0.72070003 0.1162 -0.68349999 0
0.14905515 -0.07255508 0.32824284 102 106 107 -0.67199999 0.1837 -0.71740001 0
0.13118146 -0.080105141 0.35766789 120 126 131 -0.3488 -0.59649998 -0.72280002 0
0.23089696 -0.057295848 0.25396743 99 96 102 -0.24250001 -0.066299997 -0.96789998 0
0.2227205 -0.058837753 0.26031244 192 168 176 -0.45469999 -0.30379999 -0.83719999 0
0.20711882 -0.060974684 0.27205652 210 209 214 -0.25260001 -0.4623 -0.85000002 0
0.18841815 -0.061928168 0.28086168 255 255 255 -0.33399999 -0.2427 -0.91079998 0
0.1712341 -0.064603269 0.29467806 230 137 150 -0.32539999 -0.091799997 -0.9411 0
0.14250849 -0.07594537 0.34258705 198 203 203 -0.74919999 -0.0309 -0.66170001 0
0.13364863 -0.077763304 0.35303491 207 211 217 -0.39269999 -0.495 -0.77509999 0
0.12067683 -0.080670372 0.36481518 235 237 238 -0.4091 -0.62339997 -0.6663 0
0.1122807 -0.084471583 0.38112712 147 151 156 -0.85949999 -0.27970001 -0.42789999 0
0.10980686 -0.092295043 0.41177815 164 168 172 -0.94230002 -0.0288 -0.33360001 0
0.22379401 -0.057300083 0.25788951 96 63 58 -0.2881 -0.29010001 -0.91259998 0
0.21553349 -0.058984 0.2645753 220 220 222 -0.2051 -0.38249999 -0.90090001 0
0.19837762 -0.060539681 0.27488965 155 159 164 -0.3109 -0.40009999 -0.86210001 0
0.180967 -0.062385 0.28598544 237 239 243 -0.41319999 -0.083400004 -0.90679997 0
0.17451543 -0.063950233 0.29441613 156 52 80 -0.56569999 -0.1113 -0.81709999 0
0.15571176 -0.066409849 0.30860275 180 182 184 -0.54680002 0.2133 -0.8096 0
0.15038288 -0.069920644 0.32286265 141 146 146 -0.7396 0.2062 -0.64060003 0
0.21801123 -0.058106501 0.26372153 255 254 255 -0.21080001 -0.3017 -0.92979997 0
0.20876621 -0.05949118 0.2696569 159 160 169 -0.27289999 -0.47420001 -0.83710003 0
0.20120619 -0.059727397 0.27420929 229 231 232 -0.2454 -0.40310001 -0.88160002 0
0.19057941 -0.06069085 0.27917692 216 218 222 -0.289 -0.2238 -0.93080002 0
0.18329063 -0.06120592 0.28443229 231 233 237 -0.4567 -0.060800001 -0.88749999 0
0.14437421 -0.073446184 0.33750153 182 184 186 -0.80779999 -0.1123 -0.57870001 0
0.13668656 -0.076106288 0.35018054 205 210 210 -0.42179999 -0.47780001 -0.77060002 0
0.12369601 -0.078938022 0.36188382 222 224 226 -0.38589999 -0.67919999 -0.6243 0
0.11388017 -0.08078979 0.37283686 235 239 243 -0.81590003 -0.33579999 -0.4707 0
0.22673705 -0.05672868 0.25770682 190 96 112 -0.1268 -0.18359999 -0.97479999 0
0.21086641 -0.058392234 0.26834133 219 218 223 -0.31279999 -0.46830001 -0.82639998 0
0.19371785 -0.060084965 0.27904722 255 255 255 -0.37329999 -0.25889999 -0.89090002 0
0.17614135 -0.062134556 0.29111606 209 210 217 -0.61760002 -0.062399998 -0.78399998 0
0.15923212 -0.065873899 0.3086749 255 255 255 -0.479 0.2242 -0.84869999 0
0.1527826 -0.068177208 0.31971636 160 162 164 -0.81339997 0.26710001 -0.51670003 0
0.14599702 -0.071002312 0.33261791 103 104 111 -0.76429999 -0.1574 -0.62540001 0
0.13922997 -0.074373253 0.34730068 85 89 95 -0.45809999 -0.37720001 -0.80489999 0
0.12593858 -0.076224454 0.35610771 194 198 201 -0.31690001 -0.6943 -0.64609998 0
0.11048273 -0.08601664 0.39581957 74 80 85 -0.96640003 0.0167 -0.25650001 0
0.22868173 -0.055653282 0.25630251 223 207 197 -0.15260001 -0.1391 -0.97850001 0
0.21999227 -0.056967027 0.26214516 198 196 206 -0.32249999 -0.2665 -0.90829998 0
0.20269215 -0.058174979 0.27164784 230 232 236 -0.2861 -0.39289999 -0.8739 0
0.19544357 -0.058553509 0.27650616 241 242 246 -0.442 -0.29539999 -0.847 0
0.1854111 -0.059899807 0.2825031 246 248 250 -0.4887 -0.031199999 -0.87190002 0
0.16811007 -0.06254629 0.29665923 180 100 104 -0.3132 0.13160001 -0.94050002 0
0.16181135 -0.064573735 0.30677557 255 255 255 -0.74620003 0.024900001 -0.66530001 0
0.15500426 -0.066395365 0.31642848 189 189 189 -0.7626 0.3468 -0.546 0
0.11632229 -0.078189239 0.36745897 160 167 171 -0.67680001 -0.4664 -0.56959999 0
0.22157146 -0.055592932 0.25992796 187 182 188 -0.41670001 -0.2518 -0.87349999 0
0.21221027 -0.05685135 0.26581222 135 134 141 -0.2339 -0.41530001 -0.87910002 0
0.20446423 -0.056789447 0.26949558 253 255 255 -0.28349999 -0.34470001 -0.89490002 0
0.18766478 -0.058649939 0.28066358 203 206 212 -0.42559999 -0.0114 -0.9048 0
0.17749847 -0.060255278 0.2877461 247 249 253 -0.50870001 -0.0276 -0.86049998 0
0.17109738 -0.061626751 0.29565799 133 37 24 -0.3906 0.0233 -0.92030001 0
0.16342784 -0.062633216 0.30311081 171 170 175 -0.78839999 0.1065 -0.60589999 0
0.14846216 -0.069186024 0.32925749 96 100 103 -0.5632 -0.0546 -0.82450002 0
0.14090542 -0.071501411 0.34102419 175 179 180 -0.60759997 -0.34509999 -0.71539998 0
0.11184728 -0.081273347 0.38421613 202 209 209 -0.9526 0.098499998 -0.2877 0
0.21430203 -0.055734899 0.26431948 185 187 188 -0.1209 -0.361 -0.92470002 0
0.19745743 -0.057233445 0.27447259 140 142 146 -0.3387 -0.32460001 -0.88309997 0
0.19009364 -0.057614952 0.27946207 247 251 252 -0.4298 -0.067500003 -0.90039998 0
0.18061273 -0.059528299 0.28725517 242 243 249 -0.49079999 0.059700001 -0.86919999 0
0.1739393 -0.060707383 0.29471004 244 241 242 -0.60780001 -0.0451 -0.79280001 0
0.15562655 -0.063575804 0.3105188 255 255 255 -0.57190001 0.4355 -0.69520003 0
0.15074791 -0.067259938 0.32559237 145 149 152 -0.56999999 0.0122 -0.8215 0
0.14402413 -0.070146523 0.33897027 225 229 232 -0.72229999 -0.28080001 -0.63200003 0
0.13218418 -0.073125221 0.35101864 238 240 244 -0.23280001 -0.6767 -0.69849998 0
0.11888465 -0.075754374 0.36246011 128 134 137 -0.53960001 -0.55849999 -0.63 0
0.22263613 -0.054100391 0.25755289 200 194 201 -0.20029999 -0.054000001 -0.97820002 0
0.21681161 -0.054862048 0.2634103 211 210 215 -0.1661 -0.31310001 -0.93510002 0
0.20635821 -0.055516414 0.26761335 206 204 227 -0.27149999 -0.25549999 -0.92790002 0
0.18282776 -0.058243617 0.28532258 222 223 230 -0.54189998 -0.0098000001 -0.84039998 0
0.16432405 -0.060117114 0.29787356 147 63 87 -0.52810001 0.2297 -0.8175 0
0.15309322 -0.065482989 0.32225803 144 146 148 -0.68379998 0.1495 -0.71420002 0
0.13487001 -0.071149684 0.34721091 184 188 191 -0.2297 -0.65030003 -0.72409999 0
0.11331463 -0.077491589 0.37541309 87 94 96 -0.94889998 0.0091000004 -0.3154 0
0.11050422 -0.082798392 0.39920551 173 180 182 -0.96509999 0.1365 -0.2237 0
-0.020190731 -0.084804282 0.43400803 255 212 192 0 0 0 0
0.22522476 -0.053348988 0.25695097 216 185 194 -0.092799999 -0.0228 -0.99540001 0
0.20825465 -0.054307532 0.26591143 253 252 255 -0.40990001 -0.26840001 -0.87180001 0
0.20161776 -0.054807354 0.27101171 255 255 255 -0.3475 -0.23109999 -0.90880001 0
0.19986553 -0.056219868 0.27325758 201 203 205 -0.34130001 -0.2809 -0.89700001 0
0.19255251 -0.056581661 0.2782042 241 243 244 -0.47589999 -0.1248 -0.87059999 0
0.17511518 -0.058670785 0.29081848 255 255 255 -0.54100001 -0.046 -0.83969998 0
0.16784754 -0.059594985 0.29790872 227 134 147 -0.41679999 0.14669999 -0.89709997 0
0.14463252 -0.066936836 0.3318263 159 166 168 -0.70999998 -0.29730001 -0.63840002 0
0.12077872 -0.072925627 0.35631996 178 182 186 -0.50089997 -0.57800001 -0.64420003 0
0.22863756 -0.052962787 0.25713798 220 184 180 -0.1754 -0.1895 -0.96609998 0
0.21901461 -0.053825933 0.26205871 235 237 238 -0.28929999 -0.2475 -0.92470002 0
0.19426005 -0.05508877 0.27569592 163 164 168 -0.48269999 -0.16240001 -0.86059999 0
0.18501134 -0.056895364 0.28313923 190 192 198 -0.45109999 -0.019400001 -0.89230001 0
0.17752583 -0.057512924 0.28925818 255 255 255 -0.4989 0.032299999 -0.866 0
0.17149964 -0.059235372 0.29848576 197 117 137 -0.50099999 0.023499999 -0.86510003 0
0.15397459 -0.062655911 0.31604263 180 182 186 -0.73040003 0.1608 -0.6638 0
0.14714527 -0.065305278 0.3289713 162 167 165 -0.45039999 -0.2273 -0.86339998 0
0.13796686 -0.070039988 0.34600988 158 169 173 -0.2395 -0.58459997 -0.77520001 0
0.1236878 -0.070931308 0.35240987 228 232 236 -0.4517 -0.58630002 -0.6724 0
0.0029303338 -0.082583584 0.42502397 255 248 229 -0.4337 -0.1605 -0.88669997 0
-0.014873372 -0.081088059 0.42461744 255 255 232 -0.066299997 -0.0337 -0.99720001 0
0.23099834 -0.05208569 0.25611711 157 147 148 -0.33629999 -0.2888 -0.89639997 0
0.22114976 -0.052785806 0.26066342 222 222 224 -0.3089 -0.16590001 -0.93650001 0
0.2092512 -0.052656084 0.26309454 239 238 241 -0.29190001 -0.1446 -0.94550002 0
0.20382677 -0.053706266 0.26951826 202 204 208 -0.29530001 -0.1154 -0.94840002 0
0.18771391 -0.055980127 0.28218734 214 219 222 -0.3628 0.0143 -0.93180001 0
0.14054382 -0.068120375 0.34232193 149 154 155 -0.41569999 -0.52289999 -0.74409997 0
0.11448868 -0.073132887 0.36460903 197 201 204 -0.76529998 -0.223 -0.6038 0
0.11189369 -0.078426868 0.38841236 166 168 170 -0.93309999 0.2525 -0.2559 0
0.0074619777 -0.080299348 0.420214 255 255 255 -0.61409998 0.085699998 -0.78460002 0
-0.010616206 -0.080543332 0.4254058 255 212 199 0.25150001 -0.081100002 -0.96450001 0
0.21224028 -0.052018147 0.26274136 183 182 185 -0.1344 -0.083300002 -0.9874 0
0.19607024 -0.053711582 0.27351305 235 236 240 -0.43169999 -0.1407 -0.89099997 0
0.17997178 -0.056404535 0.28777802 203 202 207 -0.52200001 0.044100001 -0.85180002 0
0.15653192 -0.061420165 0.31436804 255 255 255 -0.5442 0.17919999 -0.81959999 0
0.11725488 -0.071067356 0.36057699 181 185 188 -0.79830003 -0.28549999 -0.53030002 0
-0.0065001724 -0.080719367 0.42852053 255 211 192 0.1666 -0.1189 -0.9788 0
-0.028957838 -0.079696871 0.42706257 242 161 140 0 0 0 0
0.23093112 -0.05009855 0.25226578 0 0 0 -0.13410001 -0.32870001 -0.93489999 0
0.22514214 -0.050635394 0.25773937 194 108 117 -0.1565 0.069300003 -0.98519999 0
0.22161043 -0.05098594 0.25743645 253 247 240 -0.1925 0.031599998 -0.98079997 0
0.2153728 -0.051430449 0.26245508 212 211 216 -0.1964 -0.080700003 -0.97719997 0
0.20625314 -0.052766122 0.26850611 204 203 208 -0.3804 0.048599999 -0.9235 0
0.19857259 -0.05273702 0.27234823 255 255 255 -0.4021 -0.104 -0.90969998 0
0.18966562 -0.054599244 0.2799446 232 234 236 -0.50089997 -0.0495 -0.86409998 0
0.1821627 -0.05510911 0.28577209 211 213 217 -0.56650001 -0.051399998 -0.82249999 0
0.17279625 -0.057126299 0.29414767 230 232 234 -0.58710003 -0.1393 -0.79750001 0
0.16553198 -0.058110159 0.30164856 220 145 147 -0.59030002 0.0517 -0.80559999 0
0.16038249 -0.060919717 0.31448591 251 248 249 -0.66579998 0.2313 -0.7094 0
0.15061326 -0.064392827 0.32802603 102 104 108 -0.41010001 -0.2264 -0.88349998 0
0.14344603 -0.066686496 0.33998314 178 182 186 -0.61729997 -0.45649999 -0.6408 0
0.13000381 -0.067980528 0.34752193 145 149 152 -0.21259999 -0.66589999 -0.71509999 0
0.11314882 -0.074384727 0.37855601 119 124 131 -0.95420003 0.2022 -0.2202 0
0.011697984 -0.07696259 0.41195893 255 255 255 -0.72189999 0.058600001 -0.68949997 0
-0.0022233226 -0.079657868 0.42765024 255 222 211 -0.15979999 -0.14210001 -0.97689998 0
0.20827088 -0.051604539 0.26685807 210 209 214 -0.5596 0.0469 -0.82740003 0
0.19183962 -0.053373735 0.2781021 197 196 201 -0.59179997 -0.094700001 -0.80049998 0
0.17490372 -0.055678278 0.29170045 121 121 130 -0.42930001 -0.058400001 -0.90130001 0
0.16814576 -0.05692403 0.29988897 207 115 123 -0.54879999 -0.045699999 -0.83469999 0
0.15353033 -0.062947646 0.32547542 131 135 138 -0.54149997 -0.24969999 -0.8028 0
0.14349486 -0.062987216 0.33122295 212 216 219 -0.61229998 -0.227 -0.75730002 0
0.13271093 -0.066159911 0.34402066 136 141 144 -0.1155 -0.6473 -0.75349998 0
0.11885382 -0.067792021 0.35287538 196 198 202 -0.7008 -0.38100001 -0.6031 0
0.015721288 -0.07499963 0.40811983 255 255 255 -0.68239999 0.077600002 -0.72689998 0
0.21710257 -0.050190166 0.26053175 163 164 170 -0.32139999 -0.043000001 -0.94599998 0
0.20147011 -0.051990688 0.27173826 134 132 144 -0.31990001 -0.036400001 -0.94669998 0
0.19368009 -0.051997606 0.2758674 236 238 239 -0.49700001 -0.074199997 -0.8646 0
0.18420707 -0.053710062 0.28338489 222 224 226 -0.42590001 -0.080499999 -0.9012 0
0.17782512 -0.054840904 0.29092613 250 251 255 -0.42649999 -0.041200001 -0.90359998 0
0.16177216 -0.058593355 0.30938971 105 107 113 -0.66750002 -0.208 -0.71499997 0
0.15506007 -0.06055484 0.32028738 255 255 255 -0.4605 -0.39019999 -0.79729998 0
0.14598134 -0.061363004 0.32829529 152 155 161 -0.4384 -0.25580001 -0.86159998 0
0.12196432 -0.066118971 0.34974846 136 143 143 -0.54000002 -0.4657 -0.70099998 0
0.11231514 -0.075621478 0.39286232 149 153 157 -0.93769997 0.25549999 -0.23559999 0
0.088301368 -0.068096936 0.36133373 202 205 204 -0.2475 -0.58450001 -0.77270001 0
0.076104529 -0.067083456 0.36427364 188 192 193 0.029200001 -0.57059997 -0.82069999 0
0.0021088717 -0.078160577 0.42532647 255 255 241 -0.37830001 -0.1752 -0.90890002 0
0.2196092 -0.049354542 0.25968012 183 182 187 -0.26620001 -0.0049000001 -0.96390003 0
0.20961386 -0.050138272 0.26443326 222 222 224 -0.44220001 0.060800001 -0.89480001 0
0.20311423 -0.050655149 0.26974556 255 255 255 -0.2667 -0.0176 -0.96359998 0
0.18704034 -0.052882865 0.28265637 210 212 216 -0.3396 -0.072700001 -0.93779999 0
0.17000805 -0.055368714 0.29714838 156 147 159 -0.54970002 -0.17120001 -0.81760001 0
0.1580312 -0.059541494 0.31916049 255 255 255 -0.40400001 -0.1129 -0.90780002 0
0.13910538 -0.063749515 0.34070644 160 162 164 -0.2168 -0.61159998 -0.76090002 0
0.13574211 -0.064772189 0.34181833 157 162 163 -0.086599998 -0.66430002 -0.74239999 0
0.090731323 -0.065498829 0.35552245 178 183 184 -0.40099999 -0.4258 -0.81110001 0
0.0065439041 -0.076614678 0.42276791 255 255 255 0 0 0 0
-0.01176689 -0.076983601 0.42854676 240 179 172 0 0 0 0
-0.057432327 -0.06530115 0.38775977 196 196 196 0.13349999 -0.86879998 -0.47670001 0
-0.075997733 -0.063638739 0.38369814 255 255 255 0.033300001 -0.8344 -0.55010003 0
0.22234142 -0.04864369 0.25915599 206 123 142 -0.17990001 0.0173 -0.9835 0
0.21237184 -0.049371734 0.2637392 218 220 222 -0.1848 0.1515 -0.97100002 0
0.19605604 -0.051004022 0.27473429 175 179 182 -0.31740001 0.023399999 -0.94800001 0
0.1891311 -0.051640093 0.28080261 209 210 217 -0.5079 -0.1048 -0.85500002 0
0.18019196 -0.053621743 0.28906342 222 224 228 -0.56349999 -0.0392 -0.82520002 0
0.17196602 -0.053857744 0.29455265 241 245 248 -0.53619999 -0.1778 -0.8251 0
0.16257448 -0.056139085 0.30417007 181 113 125 -0.65670002 -0.16320001 -0.73629999 0
0.12418383 -0.06382104 0.34481221 167 170 167 -0.52029997 -0.50400001 -0.68940002 0
0.11394285 -0.072027288 0.38412052 105 111 111 -0.92769998 0.31060001 -0.20720001 0
0.09221445 -0.061682686 0.34603903 182 186 189 -0.098200001 -0.33750001 -0.93620002 0
-0.070586026 -0.060609434 0.37590158 134 134 134 0.1285 -0.7719 -0.62260002 0
0.23069385 -0.047380991 0.25309092 0 0 0 -0.28240001 -0.16060001 -0.94569999 0
0.21503642 -0.048588302 0.26301759 207 208 214 -0.2164 0.1728 -0.96090001 0
0.20540009 -0.049685705 0.26868078 229 229 233 -0.33719999 0.029300001 -0.94099998 0
0.19782312 -0.049649045 0.27251899 192 191 196 -0.37059999 0.119 -0.92110002 0
0.18201099 -0.052155197 0.28655672 255 255 255 -0.60900003 -0.068800002 -0.7902 0
0.16590101 -0.055508923 0.30404848 249 155 173 -0.602 -0.1142 -0.79030001 0
0.14120114 -0.061712194 0.33658367 208 215 215 -0.4648 -0.57410002 -0.67409998 0
0.12685125 -0.062141158 0.34173536 154 160 162 -0.33919999 -0.60000002 -0.7245 0
0.010985186 -0.073452853 0.41478395 255 255 255 -0.73009998 0.1161 -0.67339998 0
-0.0072449818 -0.07530614 0.42548594 246 191 180 0 0 0 0
-0.015933011 -0.061986163 0.37380934 166 146 132 0.17380001 0.40920001 -0.89569998 0
-0.052322309 -0.062648356 0.38125372 139 137 137 0.0076000001 -0.8434 -0.53719997 0
0.22560874 -0.048151545 0.2590735 161 152 155 -0.2378 0.0024999999 -0.97130001 0
0.20821601 -0.048913185 0.26799458 228 230 231 -0.50120002 -0.0295 -0.86479998 0
0.19114271 -0.05042984 0.27906767 224 226 230 -0.56040001 -0.1071 -0.82130003 0
-0.0030117545 -0.074792027 0.42643186 241 183 173 0 0 0 0
-0.067273781 -0.060606625 0.37816772 212 210 211 0.035999998 -0.75800002 -0.6512 0
0.22730824 -0.046941604 0.25710133 201 198 201 -0.4127 0.017899999 -0.91070002 0
0.21664245 -0.047305405 0.26097199 185 184 189 -0.31889999 0.16859999 -0.93269998 0
0.19967696 -0.048369445 0.27050379 188 189 196 -0.36300001 0.1754 -0.91509998 0
0.18304379 -0.050246339 0.28280315 211 215 218 -0.43270001 -0.078299999 -0.89819998 0
0.17673382 -0.051329862 0.29037321 188 190 194 -0.41859999 -0.1229 -0.8998 0
0.17408188 -0.052477133 0.29217434 183 187 192 -0.3123 -0.046100002 -0.94889998 0
0.16774428 -0.053825594 0.30081305 147 87 105 -0.61299998 -0.145 -0.77670002 0
0.1526935 -0.059299987 0.32557797 163 167 170 -0.4156 -0.44980001 -0.79049999 0
0.14282806 -0.059409749 0.33165178 152 155 161 -0.41299999 -0.50160003 -0.76010001 0
0.13000926 -0.060750291 0.33937204 161 165 168 -0.17730001 -0.62459999 -0.76050001 0
0.11417285 -0.066770099 0.36991549 49 58 60 -0.95319998 0.0482 -0.29840001 0
0.086479373 -0.062833875 0.35725084 185 190 189 -0.2604 -0.54449999 -0.79729998 0
0.015069755 -0.070948221 0.40891546 255 255 255 -0.66909999 -0.0076000001 -0.7432 0
-0.027717751 -0.059418045 0.37131283 222 205 197 0.41819999 -0.47940001 -0.77160001 0
0.22759107 -0.045221202 0.25398293 183 180 184 -0.3987 -0.0217 -0.91680002 0
0.21978413 -0.046756104 0.26083124 251 248 251 -0.273 0.082099997 -0.95850003 0
0.20929073 -0.04731261 0.26508832 172 171 178 -0.43099999 -0.054200001 -0.90069997 0
0.20295097 -0.047891434 0.27074894 237 237 241 -0.33770001 0.13 -0.93220001 0
0.19274367 -0.048892763 0.27626768 224 226 230 -0.41859999 -0.0229 -0.90789998 0
0.18651922 -0.049772266 0.28299549 181 183 187 -0.34709999 -0.042399999 -0.93690002 0
0.16942325 -0.052030347 0.29723361 190 187 191 -0.60890001 -0.1498 -0.77890003 0
0.16297336 -0.053647105 0.3071174 173 92 101 -0.64200002 -0.2545 -0.72320002 0
0.15510742 -0.057626303 0.32230389 255 255 255 -0.3856 -0.51999998 -0.7622 0
0.14568329 -0.058049649 0.32939827 165 171 176 -0.3037 -0.458 -0.8355 0
0.13323191 -0.059496857 0.33740428 157 164 162 -0.094400004 -0.62959999 -0.7712 0
0.12025025 -0.061457917 0.34733436 201 203 205 -0.72600001 -0.12909999 -0.67540002 0
0.11616577 -0.063863225 0.36298451 61 72 73 -0.51560003 -0.4289 -0.74180001 0
-0.031236453 -0.059774455 0.37022883 181 167 156 0.3712 -0.46340001 -0.8046 0
0.21214575 -0.046619724 0.26465565 243 242 247 -0.1903 0.047200002 -0.9806 0
0.19553739 -0.048063174 0.27544612 220 219 224 -0.27180001 0.146 -0.95120001 0
0.17921627 -0.050111528 0.28833362 131 134 140 -0.55769998 -0.074600004 -0.82669997 0
0.14826383 -0.056462839 0.32636917 135 139 143 -0.3624 -0.43849999 -0.82239997 0
0.12287488 -0.059565809 0.34349707 166 170 171 -0.71829998 -0.2872 -0.63370001 0
0.089268669 -0.060678247 0.35253859 159 163 166 -0.1947 -0.42359999 -0.8847 0
0.074204609 -0.060992774 0.3572877 96 103 107 -0.0832 -0.3933 -0.9156 0
-0.073781662 -0.056218211 0.37161124 168 168 168 0.2762 -0.76800001 -0.57789999 0
0.23022802 -0.044491235 0.25327802 163 161 164 -0.071000002 0.19760001 -0.9777 0
0.21504013 -0.045971002 0.26436788 210 209 214 -0.1433 0.090099998 -0.98559999 0
0.20484161 -0.046701781 0.26900658 223 223 228 -0.36629999 0.064300001 -0.92830002 0
0.19762255 -0.046861552 0.27357763 194 188 199 -0.3529 0.2331 -0.90619999 0
0.1890742 -0.048826285 0.28192893 255 255 255 -0.43720001 -0.0469 -0.89810002 0
0.18107258 -0.048721768 0.28600591 228 229 233 -0.5395 -0.067599997 -0.83920002 0
0.17150421 -0.050642051 0.2948474 255 255 255 -0.5316 -0.0041999999 -0.847 0
0.16486759 -0.051929075 0.30366048 209 137 159 -0.61000001 -0.18790001 -0.76980001 0
0.13697892 -0.058918335 0.33758059 218 222 227 -0.1612 -0.64289999 -0.74879998 0
0.11835762 -0.061364964 0.35725167 79 91 91 -0.82920003 -0.024800001 -0.55839998 0
0.093291789 -0.059927423 0.3521314 130 134 137 0.036800001 -0.2816 -0.95880002 0
0.077702686 -0.059944823 0.35612053 167 171 174 0.1283 -0.55489999 -0.82200003 0
0.019505749 -0.068504617 0.40303761 255 255 255 -0.31729999 -0.7421 -0.59039998 0
-0.035061032 -0.055470441 0.36632505 121 110 109 0.1692 -0.4445 -0.87970001 0
-0.05498958 -0.056814406 0.37223038 215 213 211 0.2005 -0.79650003 -0.57050002 0
-0.070203908 -0.055573724 0.37176654 201 201 201 0.1934 -0.76349998 -0.61619997 0
0.21701062 -0.044888142 0.26287273 225 224 227 -0.2827 0.0471 -0.958 0
0.20797281 -0.04607347 0.26868576 255 255 255 -0.48120001 0.058600001 -0.87459999 0
0.20003039 -0.045867946 0.27231821 197 194 200 -0.37740001 0.28130001 -0.88230002 0
0.19046642 -0.047256988 0.27908683 248 247 252 -0.55190003 0.024599999 -0.83359998 0
0.17304134 -0.04893142 0.29154396 203 207 210 -0.3493 -0.040199999 -0.93610001 0
0.15704642 -0.052724324 0.3113547 147 146 149 -0.6566 -0.1295 -0.74299997 0
0.13982773 -0.057547059 0.33534941 189 193 196 -0.28369999 -0.65649998 -0.69889998 0
0.12530139 -0.057595003 0.33932421 137 144 146 -0.43939999 -0.47569999 -0.76200002 0
0.097344108 -0.059804168 0.35390458 116 123 123 -0.12809999 -0.26899999 -0.95459998 0
0.086130716 -0.05941074 0.35863551 199 203 207 -0.073200002 -0.61540002 -0.78479999 0
0.081781618 -0.059695017 0.35743394 99 105 108 0.031099999 -0.6074 -0.7938 0
-0.050454713 -0.054959424 0.36822155 255 255 255 0.2252 -0.73220003 -0.64279997 0
-0.066201754 -0.054352202 0.36988813 174 172 170 0.0206 -0.83890003 -0.5438 0
0.22667257 -0.044095099 0.25785711 203 202 207 -0.30019999 -0.033199999 -0.9533 0
0.20899852 -0.044461813 0.26567385 230 230 232 -0.4558 0.0046999999 -0.8901 0
0.18343699 -0.047617778 0.28446621 236 237 241 -0.4571 0.025 -0.88910002 0
0.1773724 -0.048939552 0.29320383 252 255 255 -0.46039999 -0.0513 -0.88620001 0
0.16638176 -0.050036881 0.29972842 201 203 205 -0.5794 -0.1497 -0.80119997 0
0.15976587 -0.051458821 0.30921999 222 142 156 -0.59100002 -0.18610001 -0.78490001 0
0.14921124 -0.053708877 0.31973788 255 255 255 -0.29530001 -0.4761 -0.8283 0
0.12853839 -0.056428384 0.33763692 190 194 195 -0.3037 -0.52160001 -0.79729998 0
0.11972137 -0.057999156 0.3485885 115 121 126 -0.59920001 -0.24860001 -0.76109999 0
0.069352388 -0.057840072 0.35755455 182 184 188 -0.3612 -0.17829999 -0.91530001 0
-0.016381001 -0.056376748 0.36788926 200 186 174 0.3554 -0.67790002 -0.64359999 0
-0.04706911 -0.05435022 0.36854565 193 185 178 0.18970001 -0.73140001 -0.65509999 0
0.22814378 -0.042882688 0.25597852 128 125 133 -0.26030001 0.014 -0.96539998 0
0.21913248 -0.043841254 0.26134431 192 191 198 -0.4386 -0.0049999999 -0.89859998 0
0.20270419 -0.045046754 0.27153784 178 178 180 -0.39430001 0.2622 -0.88080001 0
0.19181502 -0.04556803 0.27571449 214 213 218 -0.44749999 0.096799999 -0.889 0
0.18566389 -0.04645142 0.2826719 241 239 242 -0.43009999 0.081100002 -0.89910001 0
0.1690581 -0.048981596 0.2982738 173 174 183 -0.62440002 -0.054400001 -0.77920002 0
0.14200838 -0.055672422 0.33149254 79 85 88 -0.2358 -0.62970001 -0.74019998 0
0.088230774 -0.056528639 0.35149902 114 120 123 0.0253 -0.52209997 -0.85250002 0
-0.03142355 -0.054777384 0.36627883 195 188 186 0.3752 -0.40450001 -0.83399999 0
-0.079872377 -0.051933482 0.36513141 212 207 206 0.1595 -0.69840002 -0.69770002 0
-0.093339466 -0.04976901 0.36131886 136 131 131 0.1121 -0.3511 -0.9296 0
0.2310922 -0.042213093 0.25527599 159 154 158 -0.1946 -0.054699998 -0.97939998 0
0.21123806 -0.043479417 0.26441342 114 114 123 -0.22499999 0.093999997 -0.9698 0
0.20466626 -0.04387401 0.2697598 234 229 230 -0.4267 0.139 -0.8937 0
0.19503681 -0.04497553 0.27556074 235 173 178 -0.27630001 0.1636 -0.94709998 0
0.18773243 -0.045239758 0.28080311 119 88 92 -0.44760001 0.0986 -0.88880002 0
0.17876247 -0.047188647 0.28963932 166 172 177 -0.54400003 -0.032699998 -0.83840001 0
0.16189791 -0.049971279 0.30645862 167 80 80 -0.67799997 -0.15440001 -0.71869999 0
0.1449054 -0.05441777 0.32955271 170 172 171 -0.2044 -0.6214 -0.75639999 0
0.13143466 -0.054972805 0.33499703 167 171 174 -0.23010001 -0.54869998 -0.80369997 0
0.1167415 -0.061409593 0.36790916 173 177 176 0.084700003 -0.77039999 -0.63190001 0
0.092208482 -0.055870116 0.35143515 176 180 183 0.074900001 -0.43889999 -0.89539999 0
0.072628796 -0.056059577 0.35383984 83 85 87 -0.17389999 -0.33070001 -0.92760003 0
0.0066501205 -0.05693211 0.37047476 255 255 241 0.40200001 -0.7177 -0.5686 0
-0.012344466 -0.055531126 0.36714527 255 246 228 -0.019300001 -0.82529998 -0.56440002 0
-0.043859515 -0.054430168 0.37119001 200 183 177 0.045000002 -0.71710002 -0.69550002 0
-0.061540466 -0.052465748 0.36557254 153 149 146 0.0583 -0.77429998 -0.63020003 0
-0.076340608 -0.051262632 0.36508584 128 123 123 0.1301 -0.73150003 -0.66930002 0
0.21421495 -0.04283049 0.26404887 255 255 255 -0.1014 0.103 -0.98949999 0
0.19820546 -0.044351719 0.2753135 255 253 255 -0.28490001 0.077200003 -0.95539999 0
0.18044101 -0.045707162 0.28699687 232 234 238 -0.48890001 0.0109 -0.87230003 0
0.17037632 -0.047096539 0.29430658 255 255 255 -0.56489998 0.0052999998 -0.8251 0
0.16365203 -0.048226245 0.30289498 210 207 212 -0.64480001 -0.1481 -0.74989998 0
0.13430054 -0.053619947 0.33273426 157 161 165 -0.24519999 -0.61479998 -0.74959999 0
0.11950979 -0.059576113 0.3642917 173 177 178 -0.51810002 -0.48629999 -0.70359999 0
0.076357022 -0.055010643 0.35245919 157 162 163 -0.058899999 -0.4005 -0.91439998 0
0.010719291 -0.056246895 0.37044826 255 255 241 0.22319999 -0.82520002 -0.51889998 0
-0.039526585 -0.052631248 0.36731011 255 241 229 -0.070600003 -0.7647 -0.64060003 0
-0.05718651 -0.050772194 0.36196259 176 170 163 0.163 -0.75419998 -0.63609999 0
-0.072520271 -0.0503904 0.36435458 245 241 240 0.070200004 -0.76770002 -0.63690001 0
-0.089925744 -0.04919548 0.36155564 105 105 105 0.091799997 -0.551 -0.82950002 0
0.2173762 -0.042288113 0.26403463 208 208 210 -0.271 -0.0096000005 -0.96249998 0
0.20673104 -0.042752009 0.26804364 163 119 125 -0.53649998 0.075199999 -0.8405 0
0.20113295 -0.043624084 0.27479574 126 110 122 -0.31850001 0.032499999 -0.94739997 0
0.18991493 -0.044147361 0.2793175 214 139 142 -0.52770001 0.12530001 -0.84009999 0
0.17353308 -0.04632714 0.29362589 140 144 147 -0.4082 -0.036899999 -0.91219997 0
0.15709747 -0.049787652 0.31313565 230 217 226 -0.50239998 -0.3168 -0.80449998 0
0.14964063 -0.051019695 0.32262877 255 255 255 -0.1997 -0.45989999 -0.86519998 0
0.14739966 -0.05279734 0.32630038 157 161 165 -0.2931 -0.4549 -0.8409 0
0.095806949 -0.055038389 0.35087955 198 202 205 -0.084399998 -0.36230001 -0.92820001 0
0.014311126 -0.054961421 0.36839965 255 255 236 0.34220001 -0.7845 -0.51719999 0
-0.0080608726 -0.051451895 0.35550147 255 255 247 -0.2386 -0.65609998 -0.71600002 0
-0.053576667 -0.050115507 0.36204115 220 214 209 0.2139 -0.76289999 -0.61009997 0
-0.086569421 -0.048522841 0.36141053 161 157 156 0.0229 -0.62309998 -0.78179997 0
0.20880318 -0.041651972 0.26639655 185 184 189 -0.46540001 0.068400003 -0.88249999 0
0.1924389 -0.043123648 0.27782413 188 185 188 -0.465 0.1229 -0.8768 0
0.17632939 -0.045403887 0.29248354 255 255 255 -0.44490001 -0.021299999 -0.89529997 0
0.1661367 -0.046903122 0.30044973 221 223 224 -0.58810002 -0.056499999 -0.80680001 0
0.15925616 -0.048185412 0.30988505 230 163 172 -0.58929998 -0.21340001 -0.77920002 0
0.15354425 -0.05053667 0.32299182 255 255 255 -0.4973 -0.3229 -0.8053 0
0.13682021 -0.052183196 0.33024544 117 124 124 -0.28870001 -0.61849999 -0.73079997 0
0.079846442 -0.053807817 0.35060647 182 186 189 -0.063299999 -0.3364 -0.93959999 0
0.038188197 -0.057245821 0.37689734 255 255 242 0.3179 -0.7604 -0.56629997 0
-0.050328348 -0.049888477 0.36367285 211 195 180 0.26010001 -0.77079999 -0.58149999 0
-0.068566509 -0.049066182 0.36194706 161 153 147 -0.0116 -0.75010002 -0.66119999 0
-0.082932621 -0.047735941 0.36094028 134 130 124 0.098200001 -0.70249999 -0.70490003 0
0.22813652 -0.040170107 0.25671703 175 174 177 -0.1886 -0.089000002 -0.97799999 0
0.21949746 -0.041268859 0.26258889 211 210 213 -0.54869998 -0.070699997 -0.833 0
0.20218129 -0.042022813 0.27178502 156 97 122 -0.37439999 0.042199999 -0.92629999 0
0.18515316 -0.043363016 0.28312543 236 168 191 -0.49430001 0.1292 -0.85960001 0
0.16850078 -0.045757566 0.29878148 239 243 244 -0.59530002 -0.0307 -0.80290002 0
0.13906226 -0.05035311 0.32634583 184 188 191 -0.20110001 -0.56389999 -0.801 0
0.12650129 -0.051704302 0.33448735 175 177 179 -0.57779998 -0.2784 -0.76719999 0
0.12063521 -0.055928133 0.35441977 82 86 87 -0.1365 -0.63270003 -0.76230001 0
0.098301277 -0.053044196 0.34653842 64 76 74 0.0016 -0.3617 -0.93229997 0
0.083752297 -0.05341801 0.35147139 145 152 154 0.0014 -0.26140001 -0.96520001 0
0.018098934 -0.055277027 0.37172666 255 255 246 0.40470001 -0.8003 -0.4425 0
-0.00063752034 -0.048911594 0.35118589 255 255 240 0.2386 -0.70630002 -0.66649997 0
-0.0042274715 -0.04917983 0.34987104 255 255 246 0.069300003 -0.67979997 -0.73009998 0
-0.016034536 -0.04891146 0.35506129 255 255 253 0.19859999 -0.74769998 -0.6336 0
-0.046759531 -0.049085137 0.36320278 240 211 191 0.1161 -0.82620001 -0.55119997 0
-0.064356081 -0.047657672 0.35924518 140 120 118 0.092799999 -0.73509997 -0.67159998 0
-0.079582408 -0.047088653 0.36096779 222 213 211 0.1201 -0.73750001 -0.66460001 0
0.229803 -0.039028257 0.25481588 121 113 120 -0.21269999 -0.2098 -0.95429999 0
0.22075504 -0.03990021 0.2601248 62 60 72 -0.4073 -0.052700002 -0.91180003 0
0.2108684 -0.040592611 0.26488191 182 180 188 -0.2412 0.1504 -0.9587 0
0.2048959 -0.041232191 0.27110079 129 13 45 -0.4224 0.085900001 -0.90240002 0
0.19524282 -0.042299457 0.27696905 241 154 169 -0.31029999 0.088600002 -0.9465 0
0.18785003 -0.042522326 0.28232911 139 66 93 -0.44600001 0.1498 -0.88239998 0
0.17755003 -0.043587919 0.28867778 255 255 255 -0.4743 -0.079400003 -0.8768 0
0.16097049 -0.046408821 0.30615842 220 190 189 -0.62730002 -0.2174 -0.74779999 0
0.14166243 -0.048937805 0.32375121 187 189 191 -0.21529999 -0.505 -0.83579999 0
0.12944935 -0.050387725 0.33223343 201 203 207 -0.4411 -0.43360001 -0.78570002 0
0.10307963 -0.05336035 0.34972638 44 55 60 0.080799997 -0.3849 -0.91939998 0
0.086996369 -0.052148279 0.34950083 71 77 80 0.1067 -0.28580001 -0.95230001 0
0.04563278 -0.054859895 0.37346864 255 253 238 0.46880001 -0.59170002 -0.65579998 0
0.021938464 -0.054775719 0.37233752 255 255 244 0.28200001 -0.8506 -0.4438 0
0.0028637231 -0.048336025 0.351437 255 255 244 0.26969999 -0.77999997 -0.56459999 0
-0.060473129 -0.046472419 0.35739106 176 169 171 0.065700002 -0.73339999 -0.67659998 0
-0.094205715 -0.046433322 0.36246258 205 203 202 0.2243 -0.69300002 -0.68519998 0
0.21385527 -0.039959904 0.26459455 255 255 255 -0.1042 0.1417 -0.98439997 0
0.19771509 -0.041354444 0.27581465 195 190 192 -0.27059999 -0.038199998 -0.9619 0
0.18054657 -0.042871106 0.28825933 178 184 187 -0.4905 -0.0060999999 -0.8714 0
0.17037655 -0.044276115 0.29600877 201 204 210 -0.5503 -0.1103 -0.8276 0
0.16335082 -0.045101758 0.30384308 218 220 224 -0.59719998 -0.1865 -0.78009999 0
0.15452442 -0.048072297 0.31696969 168 163 167 -0.3549 -0.48300001 -0.80040002 0
0.13269761 -0.04940461 0.33108437 151 158 160 -0.36320001 -0.46360001 -0.8082 0
0.10675878 -0.052535415 0.34916896 183 187 188 0.1661 -0.4411 -0.88200003 0
0.091280267 -0.052123431 0.35166159 111 115 120 0.0077999998 -0.37200001 -0.92820001 0
0.074115589 -0.067578562 0.43258634 132 136 139 -0.2464 0.4296 -0.86879998 0
-0.012251407 -0.047422398 0.35207018 255 255 253 -0.091200002 -0.66579998 -0.74049997 0
-0.042696953 -0.047534235 0.35999674 255 255 253 -0.0199 -0.85360003 -0.5205 0
-0.075341746 -0.045766082 0.35850117 212 206 199 0.0614 -0.75389999 -0.6541 0
-0.090709835 -0.04563126 0.36190504 142 136 133 0.086900003 -0.65509999 -0.75050002 0
0.20653033 -0.039958868 0.26898867 220 217 223 -0.45449999 0.083400004 -0.88679999 0
0.19024979 -0.041508678 0.28097829 196 99 122 -0.4689 0.1218 -0.87480003 0
0.17328843 -0.043343022 0.29475698 218 222 225 -0.49779999 -0.092699997 -0.86229998 0
0.15604363 -0.046087254 0.31254941 200 109 119 -0.40009999 -0.37639999 -0.83560002 0
0.14856125 -0.047328357 0.32243064 255 255 255 -0.2545 -0.6164 -0.74519998 0
0.14443329 -0.047492851 0.32091781 255 255 255 -0.18430001 -0.54400003 -0.8186 0
0.12345217 -0.049895238 0.3386206 185 194 193 -0.63139999 -0.1684 -0.75700003 0
0.11049226 -0.051838119 0.34901515 137 146 147 0.15440001 -0.5614 -0.81300002 0
0.094954662 -0.051198773 0.35075986 141 147 150 -0.068300001 -0.3969 -0.91530001 0
0.07841251 -0.066078961 0.43003905 107 108 112 0.0122 0.5302 -0.84780002 0
0.029294582 -0.051865838 0.36693293 255 255 240 0.28569999 -0.85500002 -0.43279999 0
0.025545878 -0.052987989 0.36846054 255 255 244 0.25260001 -0.88529998 -0.39039999 0
0.0063565946 -0.04782787 0.35190126 255 255 246 0.22849999 -0.81040001 -0.5395 0
-0.0083388323 -0.04558067 0.34777415 255 255 255 -0.1846 -0.59740001 -0.78039998 0
-0.056790814 -0.045510251 0.35628629 211 197 186 0.1055 -0.7432 -0.66070002 0
-0.071636297 -0.044865035 0.35759649 163 152 147 0.0137 -0.75550002 -0.65499997 0
-0.085910499 -0.043850943 0.3576369 136 128 121 -0.022399999 -0.70249999 -0.71130002 0
0.20930657 -0.039199881 0.2683405 219 216 220 -0.44760001 0.13950001 -0.88330001 0
0.20030068 -0.040470153 0.274813 188 178 184 -0.28189999 -0.061000001 -0.95749998 0
0.19274221 -0.040519968 0.27964339 196 110 144 -0.4589 0.061299998 -0.88639998 0
0.16536053 -0.043595556 0.3008365 174 178 179 -0.523 -0.1723 -0.83469999 0
0.13471502 -0.047545243 0.3270615 82 86 89 -0.34099999 -0.45559999 -0.82230002 0
0.11503688 -0.051831365 0.3512713 174 176 178 0.1829 -0.61519998 -0.7669 0
0.09787064 -0.049630515 0.34772688 132 141 145 0.035300002 -0.41429999 -0.90939999 0
0.033050254 -0.051319718 0.36740136 255 255 239 0.2447 -0.86049998 -0.447 0
0.0098551251 -0.04696336 0.35111961 255 255 237 0.22840001 -0.82120001 -0.523 0
-0.038638264 -0.045910377 0.35645196 255 255 255 0.1328 -0.87620002 -0.46329999 0
-0.053202953 -0.044883829 0.35642019 229 202 186 0.13699999 -0.79369998 -0.5927 0
-0.067939959 -0.043759815 0.35592872 182 169 162 0.0048000002 -0.76090002 -0.64889997 0
0.22798774 -0.037363149 0.25714201 219 218 221 -0.29929999 -0.093099996 -0.94959998 0
0.21832937 -0.038002037 0.261792 128 128 137 -0.57069999 -0.019099999 -0.82090002 0
0.20271586 -0.03950341 0.27359954 208 135 146 -0.3511 -0.1121 -0.9296 0
0.18528439 -0.040680245 0.28492457 183 182 189 -0.4201 -0.033100002 -0.90689999 0
0.17508814 -0.041868124 0.2918973 175 179 184 -0.39840001 -0.083999999 -0.91329998 0
0.1680496 -0.042651359 0.29978222 245 252 254 -0.50279999 -0.2053 -0.83969998 0
0.15847082 -0.044764373 0.31019017 214 117 141 -0.49559999 -0.34079999 -0.79890001 0
0.12573698 -0.048024431 0.33449793 180 184 185 -0.71130002 -0.1041 -0.69510001 0
0.11799601 -0.050272834 0.34828129 168 172 173 -0.1885 -0.6814 -0.70719999 0
-0.0045445235 -0.043966603 0.34423485 255 255 252 -0.0405 -0.6279 -0.77719998 0
-0.034984402 -0.044890463 0.35515186 255 255 251 0.2561 -0.84289998 -0.47330001 0
-0.049788054 -0.04431263 0.356749 255 230 209 0.1062 -0.84249997 -0.52810001 0
-0.081902355 -0.042705204 0.35571226 204 191 184 0.048099998 -0.73890001 -0.67210001 0
0.2307252 -0.036731064 0.25690961 90 85 91 -0.42680001 -0.1655 -0.88910002 0
0.21978697 -0.036774535 0.25976959 187 187 191 -0.41060001 0.0098999999 -0.91180003 0
0.21094939 -0.037925795 0.2660819 193 192 197 -0.27289999 0.1069 -0.95609999 0
0.20501992 -0.038545229 0.27241424 120 89 86 -0.39629999 -0.081 -0.9145 0
0.19432041 -0.039106619 0.27697802 195 147 152 -0.43830001 0.044199999 -0.89770001 0
