ply
format ascii 1.0
comment PCL generated
element vertex 582
property float x
property float y
property float z
property uchar red
property uchar green
property uchar blue
property float nx
property float ny
property float nz
property float curvature
element camera 0
property float view_px
property float view_py
property float view_pz
property float x_axisx
property float x_axisy
property float x_axisz
property float y_axisx
property float y_axisy
property float y_axisz
property float z_axisx
property float z_axisy
property float z_axisz
property float focal
property float scalex
property float scaley
property float centerx
property float centery
property int viewportx
property int viewporty
property float k1
property float k2
end_header
0.17940921 -0.082523823 0.29619262 199 197 200 -0.56519997 0.22499999 -0.79360002 0
0.15738042 -0.099623434 0.33141497 150 154 158 -0.64179999 -0.2492 -0.72530001 0
0.14946401 -0.10498966 0.34344274 150 151 155 -0.79939997 -0.37740001 -0.4675 0
0.14406356 -0.11490475 0.36577427 168 172 175 -0.78439999 -0.4928 -0.37670001 0
0.22171918 -0.062072337 0.25575328 0 0 0 -0.43399999 -0.1125 -0.89380002 0
0.20148715 -0.071250878 0.2741746 185 108 121 -0.57679999 0.0081000002 -0.81690001 0
0.17214997 -0.086151615 0.3041701 195 192 195 -0.71799999 0.33360001 -0.61089998 0
0.16701294 -0.092211038 0.31774893 145 145 150 -0.72049999 -0.1265 -0.68180001 0
0.15972845 -0.096880063 0.32817534 197 199 203 -0.69279999 -0.2261 -0.68480003 0
0.13950561 -0.12051389 0.38182864 203 205 207 -0.91119999 -0.27649999 -0.3053 0
0.2101399 -0.067174509 0.26757264 217 216 221 -0.4815 -0.0266 -0.87599999 0
0.20400801 -0.069765784 0.27333239 205 202 208 -0.56410003 -0.1203 -0.81690001 0
0.19477798 -0.07386829 0.27981654 173 101 111 -0.60339999 -0.036899999 -0.79659998 0
0.18801418 -0.076920867 0.28646728 237 237 241 -0.50260001 0.078599997 -0.861 0
0.18197335 -0.080711171 0.29481328 206 207 211 -0.5 0.1714 -0.84890002 0
0.17471302 -0.084326774 0.3028315 184 181 187 -0.73629999 0.24770001 -0.62970001 0
0.16868563 -0.089178376 0.31371555 168 119 140 -0.64160001 -0.087700002 -0.76200002 0
0.16234501 -0.094432041 0.32557479 255 255 255 -0.69150001 -0.26930001 -0.67030001 0
0.15147422 -0.10173315 0.33913362 172 173 177 -0.70130002 -0.3786 -0.60409999 0
0.14457478 -0.10924882 0.35618365 159 161 165 -0.81779999 -0.41800001 -0.39539999 0
0.217471 -0.062572755 0.25928083 147 32 51 -0.3373 0.1349 -0.93169999 0
0.19709241 -0.072211504 0.27864352 184 112 125 -0.53490001 -0.078199998 -0.84130001 0
0.19116963 -0.075819992 0.28670824 162 161 168 -0.51459998 -0.048500001 -0.85600001 0
0.14644963 -0.10518331 0.35009068 178 179 187 -0.84009999 -0.2969 -0.454 0
0.14063641 -0.11509053 0.3727977 155 159 162 -0.83099997 -0.41319999 -0.3725 0
0.21215686 -0.065493949 0.26614109 227 224 230 -0.47510001 -0.2007 -0.8567 0
0.20560734 -0.067768529 0.27124482 197 196 201 -0.4765 -0.2428 -0.84500003 0
0.18437295 -0.078933738 0.29347304 193 194 200 -0.64990002 -0.049199998 -0.75840002 0
0.17677003 -0.081962541 0.30018654 203 193 197 -0.68430001 0.023499999 -0.7288 0
0.17046128 -0.086616993 0.31072879 200 143 158 -0.56840003 -0.2447 -0.78560001 0
0.15351456 -0.098814204 0.33553231 154 158 163 -0.61019999 -0.38640001 -0.69160002 0
0.14241856 -0.11069525 0.36606407 124 128 131 -0.82340002 -0.43259999 -0.36719999 0
0.21906927 -0.06087748 0.25772229 179 90 107 -0.52719998 0.042399999 -0.84869999 0
0.19957761 -0.070726015 0.27788788 174 108 123 -0.5115 -0.1304 -0.84930003 0
0.19277787 -0.073536403 0.284082 158 159 164 -0.6117 -0.2165 -0.76090002 0
0.18547812 -0.076179668 0.28986055 243 244 250 -0.77670002 -0.1495 -0.61189997 0
0.17311674 -0.084631808 0.30902502 210 139 154 -0.64539999 -0.14229999 -0.75050002 0
0.16338018 -0.09104953 0.32076451 255 255 255 -0.74049997 -0.34400001 -0.57740003 0
0.15627541 -0.096260555 0.33272946 180 182 184 -0.61110002 -0.3768 -0.6961 0
0.14768809 -0.10065394 0.34275913 178 179 183 -0.79610002 -0.30779999 -0.52100003 0
0.22123738 -0.05943796 0.25673166 0 0 0 -0.43349999 -0.045400001 -0.89999998 0
0.20826924 -0.066442922 0.2707049 214 214 216 -0.38460001 -0.2324 -0.89340001 0
0.2015568 -0.068895474 0.27623162 179 160 166 -0.54170001 -0.1565 -0.82590002 0
0.19443744 -0.071317412 0.28159052 199 198 203 -0.61180001 -0.2773 -0.74080002 0
0.17914242 -0.079903513 0.29819208 234 232 235 -0.5747 -0.16429999 -0.8017 0
0.16514449 -0.088223577 0.31718266 255 255 255 -0.72780001 -0.42390001 -0.53909999 0
0.15794347 -0.092873819 0.32787228 154 156 160 -0.63510001 -0.3897 -0.66689998 0
0.13807394 -0.11643733 0.38276401 153 157 158 -0.90130001 -0.32839999 -0.28240001 0
0.21003017 -0.064645052 0.2690489 226 225 228 -0.38440001 -0.21359999 -0.89810002 0
0.18689828 -0.073653467 0.28667021 251 253 255 -0.57319999 -0.1953 -0.79579997 0
0.1815566 -0.078070484 0.2967633 214 213 218 -0.495 -0.35280001 -0.79400003 0
0.17448127 -0.081695504 0.30501127 208 126 140 -0.59539998 -0.3899 -0.70249999 0
0.14915988 -0.096716098 0.33672285 140 143 151 -0.7234 -0.308 -0.61790001 0
0.14291427 -0.10503497 0.35618159 162 161 166 -0.74449998 -0.38139999 -0.54790002 0
0.21933742 -0.058622088 0.25971854 216 175 189 -0.53149998 -0.1724 -0.82929999 0
0.21719918 -0.060199078 0.26107314 192 105 121 -0.39489999 -0.1 -0.91329998 0
0.21165058 -0.062762663 0.26711836 224 221 224 -0.57160002 -0.248 -0.78219998 0
0.20283304 -0.066659063 0.27355912 236 238 239 -0.59249997 -0.32390001 -0.73760003 0
0.19585325 -0.069045037 0.27890888 218 217 222 -0.4788 -0.31810001 -0.81830001 0
0.18980628 -0.072404198 0.28653374 202 206 209 -0.56099999 -0.22409999 -0.79689997 0
0.1839918 -0.076313928 0.29550883 176 178 184 -0.54290003 -0.39089999 -0.74330002 0
0.16737744 -0.085643567 0.31405592 203 201 209 -0.58279997 -0.46270001 -0.66799998 0
0.16057831 -0.090581395 0.32554427 164 163 168 -0.65530002 -0.44400001 -0.61110002 0
0.1512115 -0.093837328 0.33313188 164 165 169 -0.65930003 -0.29080001 -0.69340003 0
0.1381653 -0.10949156 0.36991373 183 185 189 -0.86580002 -0.33610001 -0.37079999 0
0.20432316 -0.064658284 0.27145115 229 229 233 -0.4914 -0.34279999 -0.80059999 0
0.17617905 -0.079156265 0.30191433 207 124 143 -0.62080002 -0.39179999 -0.67900002 0
0.16181275 -0.087145239 0.32047683 185 187 188 -0.67979997 -0.44479999 -0.58310002 0
0.14492786 -0.10124481 0.35051852 164 168 172 -0.80620003 -0.2351 -0.54290003 0
0.198266 -0.067490295 0.27792594 223 223 226 -0.39770001 -0.32300001 -0.85879999 0
0.19077209 -0.06978143 0.28304991 208 209 216 -0.5941 -0.34720001 -0.72570002 0
0.18524174 -0.073725805 0.29215932 208 209 216 -0.55830002 -0.40939999 -0.72149998 0
0.16899498 -0.082740322 0.31013712 209 206 209 -0.4973 -0.53659999 -0.68169999 0
0.15425216 -0.091785952 0.33137155 197 199 203 -0.65930003 -0.35769999 -0.66140002 0
0.13976502 -0.10522616 0.36318207 168 170 172 -0.77219999 -0.46799999 -0.4298 0
0.21964994 -0.056158055 0.25610015 226 225 228 -0.40360001 -0.2516 -0.87970001 0
0.20544818 -0.062384855 0.26855004 222 224 228 -0.2913 -0.2924 -0.91079998 0
0.20030034 -0.065728843 0.27641055 255 255 255 -0.5068 -0.37090001 -0.77819997 0
0.17745589 -0.076302923 0.29796696 212 175 178 -0.51410002 -0.47400001 -0.71490002 0
0.16313033 -0.083779618 0.31541771 255 255 255 -0.70109999 -0.42089999 -0.57560003 0
0.15629235 -0.088924102 0.32767403 152 156 159 -0.6462 -0.4278 -0.63209999 0
0.14582887 -0.096469685 0.34241349 171 175 179 -0.85500002 -0.056000002 -0.51550001 0
0.21299897 -0.058237299 0.26128188 141 45 64 -0.4508 -0.39050001 -0.80269998 0
0.20819674 -0.061192833 0.26832762 255 255 255 -0.31600001 -0.2764 -0.90759999 0
0.19292857 -0.068014592 0.28157279 202 203 210 -0.59490001 -0.36849999 -0.71439999 0
0.18603078 -0.070721515 0.28772807 234 232 235 -0.546 -0.32370001 -0.77270001 0
0.17951272 -0.0741136 0.29558524 227 221 226 -0.4587 -0.52899998 -0.71399999 0
0.17287399 -0.077972606 0.30466425 204 151 156 -0.51980001 -0.56059998 -0.64459997 0
0.14099513 -0.10050084 0.35528973 136 141 144 -0.62459999 -0.14910001 -0.7665 0
0.13555861 -0.11088781 0.38017103 150 156 159 -0.94120002 -0.19760001 -0.27419999 0
0.21633016 -0.057434317 0.26190433 218 180 186 -0.36489999 -0.37470001 -0.8524 0
0.201176 -0.063280262 0.27315217 185 186 190 -0.62110001 -0.3811 -0.68480003 0
0.16453058 -0.080729187 0.31106633 255 255 255 -0.62129998 -0.41780001 -0.66289997 0
0.15873669 -0.086509019 0.32495815 192 194 195 -0.63910002 -0.43290001 -0.6358 0
0.13707471 -0.1060146 0.37199908 163 167 170 -0.93519998 -0.1831 -0.303 0
0.21068874 -0.059946038 0.26797804 202 194 199 -0.57639998 -0.32170001 -0.75120002 0
0.19416443 -0.065672085 0.27863944 228 229 233 -0.4808 -0.38499999 -0.78780001 0
0.18814366 -0.06884037 0.28599593 221 220 227 -0.63599998 -0.28459999 -0.7173 0
0.18149164 -0.072044104 0.29344898 237 237 239 -0.48089999 -0.53570002 -0.69400001 0
0.17437696 -0.075419575 0.30142266 158 69 86 -0.4553 -0.52029997 -0.72240001 0
0.14288925 -0.096571624 0.34917328 188 192 193 -0.64340001 -0.16590001 -0.74730003 0
0.21855214 -0.055997472 0.26087588 165 157 165 -0.46149999 -0.4023 -0.79070002 0
0.21091425 -0.057377473 0.26422459 201 117 129 -0.68830001 -0.39050001 -0.61140001 0
0.20275785 -0.061361346 0.27114922 234 234 236 -0.50019997 -0.28279999 -0.81840003 0
0.19643341 -0.06404683 0.27746537 225 227 231 -0.41980001 -0.3585 -0.83380002 0
0.1897237 -0.066628806 0.28341451 230 232 236 -0.63870001 -0.36379999 -0.67799997 0
0.16590996 -0.077874303 0.30715674 255 255 255 -0.57800001 -0.41240001 -0.70420003 0
0.16057104 -0.083680652 0.32118705 210 212 216 -0.6821 -0.442 -0.58249998 0
0.14519316 -0.093393698 0.34478149 153 157 160 -0.85750002 0.0093999999 -0.51440001 0
0.1365665 -0.099080317 0.35854492 164 168 174 -0.81690001 -0.2026 -0.54009998 0
0.1340809 -0.11394995 0.39488778 155 159 162 -0.93349999 -0.2308 -0.27430001 0
0.21867387 -0.05353757 0.25726092 197 196 199 -0.42399999 -0.39320001 -0.81590003 0
0.2045839 -0.059635829 0.26962125 222 224 228 -0.28349999 -0.24959999 -0.92589998 0
0.19847271 -0.062307633 0.27594665 239 238 243 -0.48120001 -0.41319999 -0.77310002 0
0.18299128 -0.069722623 0.29068738 204 201 207 -0.43689999 -0.4445 -0.78200001 0
0.17570555 -0.072680712 0.29764539 213 143 153 -0.53039998 -0.47710001 -0.70069999 0
0.16215788 -0.080700971 0.31700608 129 131 132 -0.7274 -0.3987 -0.55849999 0
0.21241239 -0.055557895 0.26228151 170 87 106 -0.4578 -0.40290001 -0.79250002 0
0.20711631 -0.058332283 0.26910844 196 168 184 -0.345 -0.29390001 -0.89139998 0
0.19093724 -0.064276874 0.28042153 221 220 227 -0.58130002 -0.40959999 -0.70310003 0
0.18498738 -0.067721598 0.2886543 248 248 250 -0.47 -0.42539999 -0.77340001 0
0.16654468 -0.074461177 0.30172008 255 255 255 -0.64600003 -0.3635 -0.67129999 0
0.1474051 -0.090273038 0.3403734 160 162 166 -0.85409999 -0.133 -0.50279999 0
0.13878347 -0.095785707 0.35391203 156 160 164 -0.61089998 -0.053100001 -0.79000002 0
0.1343518 -0.10720866 0.38206029 136 141 144 -0.92760003 -0.1935 -0.31959999 0
0.13071583 -0.11450011 0.40385181 195 197 201 -0.92049998 -0.2013 -0.33500001 0
0.21438928 -0.054073952 0.26118752 213 208 212 -0.37279999 -0.36570001 -0.85280001 0
0.19933145 -0.059913713 0.27271768 188 190 194 -0.57810003 -0.41949999 -0.69989997 0
0.19264057 -0.062269431 0.27825895 186 187 193 -0.43489999 -0.3935 -0.81 0
0.17728803 -0.070073307 0.29409641 225 135 154 -0.5988 -0.42899999 -0.67629999 0
0.1693372 -0.072788596 0.30057418 187 189 191 -0.53890002 -0.3628 -0.76020002 0
0.16338885 -0.077483177 0.31209803 176 175 178 -0.71319997 -0.32499999 -0.62110001 0
0.20936456 -0.056854755 0.26810965 126 65 79 -0.5571 -0.3439 -0.75590003 0
0.1865941 -0.065478474 0.28594539 211 213 217 -0.59490001 -0.42559999 -0.68190002 0
0.17844911 -0.067473687 0.29055652 198 116 130 -0.57429999 -0.4709 -0.66970003 0
0.15558307 -0.081187084 0.32115233 173 175 177 -0.72240001 -0.2465 -0.64600003 0
0.14904399 -0.086984925 0.33552843 169 173 178 -0.86089998 -0.14839999 -0.4867 0
0.14260508 -0.094155721 0.35334069 145 146 153 -0.62309998 -0.088600002 -0.77710003 0
0.13578074 -0.10233472 0.37361792 170 174 177 -0.95160002 -0.054200001 -0.30239999 0
0.21526867 -0.052035157 0.25860706 202 206 207 -0.4174 -0.37360001 -0.82840002 0
0.2101867 -0.054609299 0.26507211 206 205 210 -0.63190001 -0.3768 -0.67729998 0
0.20027699 -0.057624891 0.26971489 212 211 216 -0.37419999 -0.32640001 -0.86799997 0
0.19463107 -0.060494307 0.27661803 251 253 255 -0.41839999 -0.39269999 -0.81900001 0
0.18800315 -0.063136049 0.28292191 227 228 232 -0.59820002 -0.42899999 -0.67690003 0
0.1714813 -0.070681959 0.29831451 140 137 141 -0.52880001 -0.2326 -0.81620002 0
0.1655211 -0.075184561 0.30944645 255 255 255 -0.68470001 -0.2288 -0.69199997 0
0.15760352 -0.078598037 0.31784973 125 127 133 -0.7374 -0.25150001 -0.62690002 0
0.13486768 -0.094931595 0.35861826 153 155 159 -0.88730001 0.065300003 -0.45649999 0
0.13186225 -0.10899168 0.39394969 173 175 179 -0.92650002 -0.2561 -0.27559999 0
0.21719445 -0.05051351 0.25731656 219 218 221 -0.47060001 -0.31779999 -0.82309997 0
0.20307803 -0.056480199 0.26961905 234 235 239 -0.25389999 -0.2744 -0.92750001 0
0.19678293 -0.058818992 0.27521881 225 227 229 -0.51209998 -0.36430001 -0.77789998 0
0.18046583 -0.065622531 0.28886944 198 154 160 -0.3897 -0.46079999 -0.7974 0
0.17361774 -0.068608522 0.29610208 195 179 180 -0.62970001 -0.2297 -0.7421 0
0.16742432 -0.072707415 0.30629584 255 255 255 -0.74479997 -0.2013 -0.63620001 0
0.15041296 -0.083384022 0.32976499 169 174 174 -0.801 -0.13410001 -0.58350003 0
0.14572629 -0.091727316 0.35070506 148 152 155 -0.84359998 -0.081600003 -0.53079998 0
0.20999381 -0.051916473 0.26077956 218 220 224 -0.60140002 -0.26269999 -0.75449997 0
0.20551424 -0.055112056 0.26892024 236 236 240 -0.39269999 -0.3175 -0.86309999 0
0.18953197 -0.060950991 0.28025666 228 227 232 -0.54860002 -0.3973 -0.73570001 0
0.18337727 -0.064310923 0.28853479 195 185 191 -0.34689999 -0.44850001 -0.82370001 0
0.15974304 -0.076141991 0.31478089 163 165 166 -0.76560003 -0.1793 -0.6178 0
0.15286209 -0.081103928 0.32730138 149 153 157 -0.78320003 0.052700002 -0.6196 0
0.14635161 -0.086873785 0.34184718 115 121 126 -0.90249997 -0.1349 -0.4091 0
0.13773422 -0.091998383 0.35475031 130 134 137 -0.5869 0.1541 -0.7949 0
0.13274291 -0.10309085 0.38285229 169 173 178 -0.86860001 -0.29699999 -0.39669999 0
0.21856679 -0.048755623 0.25533637 0 0 0 -0.39500001 -0.31920001 -0.86150002 0
0.19849877 -0.056987029 0.27337056 246 248 250 -0.54280001 -0.3459 -0.76529998 0
0.17537157 -0.066329591 0.29329801 200 143 156 -0.73720002 -0.2474 -0.62879997 0
0.16830054 -0.069586471 0.30138269 255 255 255 -0.75639999 -0.125 -0.64209998 0
0.16156313 -0.073538125 0.31131491 126 128 132 -0.73750001 -0.2208 -0.63819999 0
0.14153686 -0.090368539 0.35415187 123 129 134 -0.69889998 0.0471 -0.7137 0
0.13462722 -0.098467655 0.37485665 147 153 155 -0.88630003 -0.23559999 -0.39860001 0
0.2123149 -0.050627913 0.26016417 230 232 234 -0.551 -0.1679 -0.8175 0
0.20696305 -0.05317314 0.26663741 245 247 251 -0.53350002 -0.29969999 -0.79089999 0
0.19147447 -0.059128311 0.27846909 247 250 251 -0.4156 -0.28600001 -0.86339998 0
0.18513419 -0.06211577 0.28584373 255 255 255 -0.54299998 -0.41100001 -0.73229998 0
0.17729191 -0.064237744 0.29094419 203 126 138 -0.70480001 -0.3123 -0.63700002 0
0.15480074 -0.078175925 0.32309148 102 105 111 -0.80790001 0.064999998 -0.58579999 0
0.14807101 -0.083765142 0.33730814 148 151 159 -0.88440001 -0.068300001 -0.46169999 0
0.213816 -0.04889806 0.25830752 221 222 226 -0.51340002 -0.18430001 -0.83819997 0
0.19980827 -0.054951355 0.2709409 235 235 237 -0.33660001 -0.23890001 -0.9109 0
0.19335033 -0.057309434 0.27669704 243 245 246 -0.48640001 -0.3012 -0.82020003 0
0.17008285 -0.067258462 0.29847848 165 164 171 -0.58069998 0.082599998 -0.80989999 0
0.16701575 -0.069918782 0.30835998 184 184 186 -0.70599997 -0.2393 -0.66659999 0
0.16342005 -0.071049772 0.30806533 145 149 152 -0.67949998 -0.1911 -0.70829999 0
0.13511828 -0.09298896 0.36446175 191 190 195 -0.91329998 -0.1917 -0.35929999 0
0.1300309 -0.10426994 0.39349321 131 137 142 -0.89060003 -0.35420001 -0.28549999 0
0.21587871 -0.047435854 0.25712731 228 228 230 -0.57749999 -0.1804 -0.79619998 0
0.20852666 -0.051301233 0.26446101 222 222 226 -0.60939997 -0.204 -0.76620001 0
0.20243321 -0.053646404 0.27040806 239 241 245 -0.29910001 -0.23029999 -0.926 0
0.18611158 -0.05953607 0.28208888 215 215 219 -0.5679 -0.30590001 -0.76419997 0
0.17873108 -0.061950348 0.28802577 194 113 124 -0.3477 -0.36849999 -0.86220002 0
0.15909158 -0.073155202 0.31662735 190 192 194 -0.83539999 0.028100001 -0.54900002 0
0.15653718 -0.075271241 0.31883016 218 220 224 -0.84969997 0.0111 -0.52710003 0
0.14943424 -0.08013165 0.33131993 109 112 118 -0.82179999 0.0418 -0.56830001 0
0.14413643 -0.08768943 0.35081249 162 167 167 -0.82319999 -0.069499999 -0.56339997 0
0.20929459 -0.049148105 0.26153177 218 220 222 -0.63870001 -0.089599997 -0.76419997 0
0.20446342 -0.052024797 0.26897332 216 218 222 -0.4763 -0.2518 -0.84249997 0
0.19472873 -0.055206876 0.27407476 246 245 250 -0.53100002 -0.23450001 -0.8143 0
0.18709831 -0.057088152 0.27862439 233 237 242 -0.59670001 -0.2093 -0.77460003 0
0.15157147 -0.077444725 0.32769635 151 152 159 -0.7705 0.15790001 -0.61750001 0
0.14450957 -0.08287359 0.34178802 182 184 188 -0.90969998 0.044100001 -0.41280001 0
0.13724405 -0.08949063 0.35901332 172 173 177 -0.74650002 0.1812 -0.64020002 0
0.13141888 -0.0988058 0.38322374 143 148 151 -0.82679999 -0.3705 -0.4233 0
0.21722339 -0.045662291 0.25504684 0 0 0 -0.46950001 -0.19059999 -0.86210001 0
0.19614279 -0.053190742 0.27165434 246 245 248 -0.55599999 -0.21960001 -0.80159998 0
0.18936643 -0.055466846 0.2773391 249 250 254 -0.45950001 -0.15180001 -0.87510002 0
0.18096922 -0.060185455 0.28643259 206 122 135 -0.29710001 -0.26320001 -0.91780001 0
0.16713049 -0.066292509 0.30196437 255 255 255 -0.72329998 -0.074100003 -0.68650001 0
0.1540745 -0.075259514 0.32534844 115 114 121 -0.78799999 0.1584 -0.59500003 0
0.21095906 -0.047532972 0.25999492 237 237 241 -0.65020001 0.035399999 -0.75889999 0
0.20521796 -0.049768403 0.26576769 249 249 251 -0.54229999 -0.23190001 -0.8075 0
0.18301356 -0.058322571 0.2845628 197 116 139 -0.55040002 -0.2026 -0.81 0
0.16037829 -0.070095748 0.31179884 134 138 143 -0.7852 0.0484 -0.61729997 0
0.14627923 -0.079511307 0.33643743 124 125 132 -0.89590001 0.1875 -0.40279999 0
0.14030227 -0.086965509 0.35604259 173 177 178 -0.74949998 0.097900003 -0.6548 0
0.13390563 -0.095363267 0.3780672 125 129 132 -0.80800003 -0.4249 -0.40810001 0
0.21312493 -0.046180293 0.2591475 190 192 198 -0.6063 -0.0623 -0.79280001 0
0.20761198 -0.048345879 0.26478612 197 196 201 -0.5557 -0.1814 -0.81129998 0
0.19757234 -0.051234666 0.26933601 244 246 250 -0.39250001 -0.1389 -0.90920001 0
0.19220553 -0.054253258 0.27711681 209 211 215 -0.52410001 -0.090700001 -0.84680003 0
0.16921647 -0.064295188 0.29984444 255 255 255 -0.48359999 0.1741 -0.85780001 0
0.16176364 -0.067340203 0.30773154 153 157 160 -0.72210002 0.1382 -0.6778 0
0.15552613 -0.072042309 0.32015997 173 173 175 -0.8545 0.057799999 -0.51620001 0
0.1426408 -0.083903171 0.35156602 66 74 78 -0.85180002 -0.0055 -0.52389997 0
0.1279432 -0.099344373 0.39240921 143 149 152 -0.8229 -0.45359999 -0.34209999 0
0.21509387 -0.044765461 0.25809082 210 209 214 -0.62010002 -0.1611 -0.76779997 0
0.20070153 -0.050259952 0.26968756 239 241 245 -0.41800001 -0.18719999 -0.88889998 0
0.18451744 -0.05618998 0.28189862 194 170 176 -0.67339998 0.046799999 -0.7378 0
0.17675647 -0.058183677 0.28686452 188 96 114 -0.49599999 0.0134 -0.8682 0
0.17169572 -0.062354304 0.29778433 255 255 255 -0.3096 0.34380001 -0.8865 0
0.14833224 -0.076591469 0.33213973 183 187 190 -0.85509998 0.28330001 -0.43430001 0
0.13473625 -0.090201296 0.36820316 140 146 148 -0.77560002 -0.38280001 -0.50190002 0
0.20944713 -0.046862956 0.26365429 225 224 229 -0.5826 -0.17479999 -0.79369998 0
0.20279515 -0.048713375 0.26842511 193 194 198 -0.49059999 -0.20280001 -0.84750003 0
0.19325443 -0.051990971 0.27397794 243 245 246 -0.56410003 -0.0088999998 -0.82569999 0
0.18634461 -0.054278631 0.27981019 225 222 230 -0.67750001 0.0080000004 -0.73549998 0
0.16520651 -0.066140227 0.30777082 152 154 158 -0.73280001 0.115 -0.6706 0
0.15814322 -0.069938384 0.31782991 156 157 161 -0.8179 0.1067 -0.5654 0
0.15082197 -0.074315809 0.3295421 182 186 189 -0.74959999 0.30050001 -0.5898 0
0.14424732 -0.080233432 0.34538138 139 141 145 -0.86299998 0.1037 -0.49450001 0
0.12897404 -0.093640938 0.38115519 151 158 160 -0.7802 -0.47400001 -0.4082 0
0.21543474 -0.042584252 0.25480315 213 213 213 -0.39680001 -0.1418 -0.90689999 0
0.21090934 -0.045247838 0.2621519 213 212 217 -0.5284 -0.1418 -0.83710003 0
0.19569291 -0.050602764 0.2732414 185 189 197 -0.65969998 0.033 -0.75080001 0
0.17940508 -0.056700982 0.28597888 211 127 140 -0.42410001 0.1144 -0.89829999 0
0.16630445 -0.063233949 0.30319449 144 146 145 -0.6954 0.1547 -0.70169997 0
0.16005872 -0.067541197 0.31476304 164 165 169 -0.7536 0.1402 -0.64219999 0
0.13977937 -0.083854467 0.35879725 153 157 160 -0.6785 -0.25350001 -0.68949997 0
0.13593322 -0.085596539 0.35964534 170 174 177 -0.70020002 -0.2798 -0.65679997 0
0.20417853 -0.046923053 0.26647201 210 209 214 -0.47580001 -0.2163 -0.85250002 0
0.18833996 -0.052531108 0.27808779 213 214 218 -0.53850001 -0.041000001 -0.8416 0
0.18202466 -0.055196326 0.28502119 171 93 113 -0.62690002 0.091499999 -0.7737 0
0.15363258 -0.072281912 0.32749873 167 169 171 -0.7464 0.2906 -0.59869999 0
0.14624599 -0.077052854 0.34036654 145 149 152 -0.87169999 0.2383 -0.42809999 0
0.13110015 -0.089962482 0.37518907 158 165 167 -0.76569998 -0.49090001 -0.4156 0
0.12452819 -0.099758916 0.40158445 167 171 172 -0.82130003 -0.44600001 -0.35589999 0
0.21230178 -0.043523163 0.26021263 187 187 191 -0.55409998 -0.1193 -0.82380003 0
0.20697474 -0.04583513 0.26646289 205 209 214 -0.51349998 -0.21070001 -0.83179998 0
0.19736435 -0.048786599 0.2712566 247 246 251 -0.56550002 0.0125 -0.8247 0
0.19080098 -0.051104449 0.27728873 218 217 222 -0.52869999 -0.0473 -0.84750003 0
0.18413943 -0.053439405 0.28333053 215 217 221 -0.65679997 0.030300001 -0.75340003 0
0.16815953 -0.0608503 0.29991731 255 255 255 -0.26840001 -0.16410001 -0.94919997 0
0.16145982 -0.064759932 0.31048483 187 191 194 -0.74260002 0.37819999 -0.55269998 0
0.15579842 -0.069738925 0.32404268 154 160 162 -0.86260003 0.1847 -0.47099999 0
0.14829417 -0.074005753 0.33563107 153 156 162 -0.88870001 0.25650001 -0.38 0
0.14171928 -0.080517434 0.3534292 168 170 176 -0.65140003 -0.3301 -0.6832 0
0.19978233 -0.047421828 0.27051336 214 215 219 -0.5262 -0.031199999 -0.84979999 0
0.17191526 -0.060080647 0.30116016 255 255 255 -0.252 0.2032 -0.94620001 0
0.16427912 -0.062917627 0.30877605 169 168 173 -0.74779999 0.43349999 -0.50300002 0
0.13249877 -0.085322164 0.36642402 155 161 164 -0.71619999 -0.47229999 -0.51380002 0
0.1258187 -0.094397731 0.39116451 167 171 174 -0.87410003 -0.3479 -0.33899999 0
0.21344571 -0.041602697 0.25761449 185 184 189 -0.64829999 -0.1015 -0.75459999 0
0.2079991 -0.04382515 0.26373577 228 227 232 -0.54149997 -0.24250001 -0.80500001 0
0.19237041 -0.049146917 0.27491385 189 191 197 -0.42089999 -0.075300001 -0.90399998 0
0.18619938 -0.051717456 0.28169736 218 217 220 -0.62599999 -0.027100001 -0.77939999 0
0.17898403 -0.054044031 0.28784785 188 82 116 -0.39379999 0.13510001 -0.90920001 0
0.15631711 -0.06604284 0.31726265 166 170 171 -0.85650003 0.1114 -0.50389999 0
0.15049265 -0.071393728 0.33199337 180 182 184 -0.76450002 0.3019 -0.56950003 0
0.14409235 -0.077596575 0.34914768 147 151 152 -0.69169998 -0.2059 -0.69220001 0
0.1351562 -0.082198225 0.36174387 163 167 170 -0.62269998 -0.4862 -0.61299998 0
0.21550116 -0.04022273 0.25659046 233 232 235 -0.28169999 -0.0134 -0.9594 0
0.20141126 -0.04566573 0.26859719 119 122 130 -0.47780001 -0.067900002 -0.87580001 0
0.19501063 -0.04782242 0.27432474 236 237 241 -0.5291 -0.084799998 -0.84429997 0
0.18829508 -0.050022203 0.28012726 252 254 255 -0.58780003 -0.098200001 -0.80299997 0
0.18218103 -0.052975569 0.28812632 192 172 172 -0.62459999 0.0251 -0.78049999 0
0.16586857 -0.06030336 0.30480036 200 200 202 -0.75880003 0.30720001 -0.57440001 0
0.15947194 -0.064617552 0.31676811 92 96 102 -0.75129998 0.1618 -0.63980001 0
0.15264045 -0.068853363 0.32852209 156 157 161 -0.67409998 0.30160001 -0.67430001 0
0.14662956 -0.075050198 0.3458392 155 160 160 -0.76700002 -0.081 -0.6365 0
0.12686574 -0.088952102 0.38021708 185 189 193 -0.83099997 -0.43959999 -0.3409 0
0.12246288 -0.09486416 0.40076271 168 172 175 -0.94370002 -0.176 -0.28029999 0
0.20997407 -0.042332295 0.26245743 222 222 226 -0.4971 -0.205 -0.84310001 0
0.20312172 -0.044013169 0.2669754 239 241 245 -0.48010001 -0.077699997 -0.87379998 0
0.15607429 -0.06750489 0.32837111 101 107 112 -0.82639998 0.1481 -0.54320002 0
0.138537 -0.080187798 0.36001688 215 217 221 -0.52079999 -0.58090001 -0.62559998 0
0.21165079 -0.040777214 0.26099184 218 217 220 -0.55369997 -0.13169999 -0.8222 0
0.19653139 -0.045916967 0.27199319 230 232 234 -0.58039999 -0.067599997 -0.81150001 0
0.18368822 -0.050779067 0.28508925 188 189 196 -0.62559998 -0.098399997 -0.77389997 0
0.17273578 -0.0583492 0.30625024 255 255 255 0 0 0 0
0.16810192 -0.058376908 0.30278561 255 255 255 -0.49680001 0.081500001 -0.86400002 0
0.16136853 -0.061926194 0.31264499 135 139 145 -0.69270003 0.2032 -0.69199997 0
0.14865351 -0.071963221 0.34084886 89 92 98 -0.86989999 -0.057700001 -0.48980001 0
0.12829266 -0.084336281 0.37140235 178 182 186 -0.75830001 -0.47870001 -0.44240001 0
0.21238692 -0.038726375 0.25795236 219 218 221 -0.61150002 -0.0125 -0.79110003 0
0.20505323 -0.042481158 0.2656236 229 231 235 -0.58230001 -0.048500001 -0.81150001 0
0.1983286 -0.044205781 0.27020013 244 245 252 -0.5614 -0.079899997 -0.82359999 0
0.18967867 -0.047983605 0.27747101 236 236 240 -0.52640003 -0.1267 -0.84079999 0
0.17647192 -0.053172264 0.29157364 193 112 119 -0.25350001 0.026799999 -0.96700001 0
0.16461989 -0.060582031 0.31231734 171 173 174 -0.72790003 0.1714 -0.66399997 0
0.13983385 -0.076208711 0.35270372 127 133 138 -0.43900001 -0.49700001 -0.74849999 0
0.12995166 -0.080070108 0.36339661 131 134 140 -0.6649 -0.55089998 -0.5043 0
0.12351362 -0.089325123 0.38942537 159 165 170 -0.94230002 -0.1789 -0.28279999 0
0.20624991 -0.04054781 0.26302508 212 211 216 -0.60509998 -0.061700001 -0.7938 0
0.19535822 -0.045524303 0.27687985 215 215 217 -0.50880003 -0.1919 -0.83920002 0
0.19235609 -0.046668164 0.27693096 210 211 218 -0.3951 -0.1675 -0.90319997 0
0.17900006 -0.05160974 0.29043278 221 145 166 -0.46759999 -0.082099997 -0.88010001 0
0.16604476 -0.05794242 0.30822766 175 177 181 -0.71439999 -0.0136 -0.6997 0
0.1566727 -0.063850939 0.32152796 156 157 163 -0.89810002 -0.0231 -0.4391 0
0.15015346 -0.068598427 0.33497924 145 149 150 -0.77410001 0.00069999998 -0.63309997 0
0.14253873 -0.073752381 0.34960833 198 202 205 -0.52280003 -0.43979999 -0.73019999 0
0.21376146 -0.037113924 0.25618184 208 208 212 -0.27970001 0.15989999 -0.94669998 0
0.2001276 -0.042540863 0.26850325 235 234 239 -0.52429998 -0.035 -0.85079998 0
0.18788287 -0.04739181 0.28188568 208 209 216 -0.63489997 -0.108 -0.76499999 0
0.18451037 -0.04830265 0.28118387 225 227 231 -0.60140002 -0.1239 -0.78930002 0
0.17255194 -0.054596663 0.29875365 116 117 124 -0.48050001 -0.50830001 -0.71469998 0
0.15868852 -0.061482619 0.31827453 161 163 167 -0.74830002 -0.0128 -0.66329998 0
0.15281692 -0.066497773 0.33270022 143 148 149 -0.61500001 -0.079000004 -0.78460002 0
0.13233775 -0.076804139 0.35806957 188 192 195 -0.57980001 -0.61879998 -0.52999997 0
0.12442581 -0.083783254 0.3778227 198 202 205 -0.92549998 -0.2362 -0.29589999 0
0.21606012 -0.035924103 0.25569662 0 0 0 0.058499999 0.30630001 -0.9501 0
0.20778725 -0.038867094 0.26113629 236 236 240 -0.54540002 -0.037799999 -0.83740002 0
0.20247902 -0.041181814 0.26766926 219 218 221 -0.53759998 -0.020500001 -0.84289998 0
0.18036678 -0.049271341 0.28690374 255 255 255 -0.66890001 -0.1246 -0.73290002 0
0.16835855 -0.056081105 0.30633134 255 255 255 -0.50449997 -0.37110001 -0.77960002 0
0.16142258 -0.059550311 0.31628129 185 189 193 -0.65079999 -0.071800001 -0.75580001 0
0.15585132 -0.06475684 0.3314012 175 179 182 -0.68629998 -0.1495 -0.71179998 0
0.14516982 -0.071256354 0.34630617 170 171 177 -0.64170003 -0.37689999 -0.66799998 0
0.21064484 -0.037949488 0.26157802 237 237 239 -0.5643 0.0233 -0.82529998 0
0.20443025 -0.039692681 0.26644757 173 170 175 -0.57639998 0.044199999 -0.81599998 0
0.19574371 -0.043063283 0.27282286 135 135 144 -0.5571 -0.16150001 -0.81459999 0
0.1875689 -0.044495534 0.27660152 217 216 221 -0.56809998 -0.1424 -0.81059998 0
0.18260153 -0.047593847 0.28537446 227 228 232 -0.64639997 -0.2057 -0.73470002 0
0.14743327 -0.06841898 0.34194368 184 188 191 -0.68550003 -0.46180001 -0.56290001 0
0.13496609 -0.074117027 0.35432476 163 167 170 -0.42210001 -0.59539998 -0.68360001 0
0.12616228 -0.079424396 0.36943653 149 155 158 -0.81900001 -0.391 -0.4199 0
0.19755374 -0.041396704 0.27111074 251 253 255 -0.5126 -0.076399997 -0.85519999 0
0.17488654 -0.049659092 0.29110235 211 122 138 -0.30250001 0.0086000003 -0.95310003 0
0.17135902 -0.050568182 0.29029053 176 93 114 -0.3951 -0.00089999998 -0.91860002 0
0.1639125 -0.057601728 0.31415987 145 149 152 -0.59020001 -0.32440001 -0.7392 0
0.13774817 -0.071608782 0.3510212 205 209 212 -0.3592 -0.58450001 -0.72759998 0
0.12232722 -0.085280217 0.39054289 127 133 138 -0.98089999 0.0418 -0.18979999 0
0.21193066 -0.036198445 0.25936449 193 192 197 -0.57969999 0.077699997 -0.81110001 0
0.20579633 -0.037934404 0.26430777 169 166 174 -0.60180002 0.1167 -0.79009998 0
0.19968952 -0.039960891 0.27008128 206 207 211 -0.4993 -0.067500003 -0.86379999 0
0.19042203 -0.043315995 0.27642733 214 213 218 -0.40669999 -0.086800002 -0.90939999 0
0.1837886 -0.045418438 0.28226003 236 236 240 -0.59450001 -0.22059999 -0.77319998 0
0.17808001 -0.048647571 0.29157719 182 145 148 -0.55470002 -0.0109 -0.83200002 0
0.16477063 -0.050549027 0.29344532 255 255 255 -0.62840003 -0.32550001 -0.70649999 0
0.15595588 -0.060755514 0.32330361 92 96 104 -0.81279999 -0.1948 -0.54900002 0
0.14897178 -0.065128915 0.33607495 103 109 116 -0.55330002 -0.52520001 -0.64660001 0
0.14054397 -0.069318235 0.34830436 159 167 164 -0.37979999 -0.59390002 -0.70920002 0
0.12874299 -0.076256387 0.36435652 163 167 170 -0.76139998 -0.44260001 -0.47369999 0
0.21715701 -0.033842217 0.25842652 0 0 0 0.075599998 0.22939999 -0.97039998 0
0.21379787 -0.034675337 0.25781396 157 156 161 -0.18539999 0.17820001 -0.96640003 0
0.20771195 -0.036444124 0.26297897 195 190 196 -0.58039999 0.1336 -0.80330002 0
0.19283071 -0.041825183 0.27522764 206 207 211 -0.52990001 -0.1534 -0.83410001 0
0.18670122 -0.044249814 0.28214639 223 225 229 -0.59170002 -0.13519999 -0.79470003 0
0.16939147 -0.050093252 0.29549593 204 201 205 -0.58759999 0.1988 -0.78439999 0
0.16580163 -0.055288561 0.3108812 156 158 159 -0.46560001 -0.4305 -0.77319998 0
0.15746854 -0.057847541 0.31832603 156 157 161 -0.79280001 -0.1138 -0.59869999 0
0.15181795 -0.063212961 0.3342863 152 156 159 -0.4472 -0.5557 -0.70090002 0
0.12300336 -0.079359941 0.37744921 173 177 180 -0.91979998 0.065899998 -0.38690001 0
0.20185891 -0.038486142 0.26886281 196 193 196 -0.52090001 -0.1026 -0.84740001 0
0.19457464 -0.040053032 0.27320153 189 191 195 -0.5521 -0.1793 -0.81419998 0
0.17906317 -0.04609111 0.28730464 191 188 194 -0.71469998 -0.088200003 -0.69379997 0
0.14363664 -0.06732583 0.34640461 145 151 156 -0.47929999 -0.6706 -0.56620002 0
0.13054621 -0.072585404 0.35764208 179 180 184 -0.65600002 -0.50620002 -0.55980003 0
0.20953567 -0.034953777 0.26157323 202 190 198 -0.57630002 0.1745 -0.79839998 0
0.20408776 -0.037098404 0.26790264 213 129 142 -0.4774 -0.1168 -0.87089998 0
0.18732995 -0.041830853 0.27816832 195 197 199 -0.52490002 -0.1269 -0.8416 0
0.16983654 -0.047227744 0.2903606 186 99 117 -0.47209999 0.1087 -0.87480003 0
0.16669288 -0.052484639 0.30604711 255 255 255 -0.56309998 -0.31020001 -0.76599997 0
0.1599883 -0.055886667 0.31613588 168 170 172 -0.72180003 -0.25490001 -0.64349997 0
0.15495323 -0.061439697 0.33283684 146 150 153 -0.4779 -0.5794 -0.6602 0
0.13200799 -0.068879761 0.35071117 89 96 100 -0.4702 -0.6067 -0.64099997 0
0.12381846 -0.074226938 0.36641708 147 150 158 -0.79519999 -0.094899997 -0.59890002 0
0.12200997 -0.082370907 0.3951833 142 148 153 -0.9738 0.2057 -0.096600004 0
0.21126448 -0.033423487 0.26002878 168 61 93 -0.53049999 0.077600002 -0.8441 0
0.19673826 -0.0385933 0.27207038 185 185 187 -0.47710001 -0.050999999 -0.87739998 0
0.18996322 -0.040500328 0.27750948 174 175 184 -0.53680003 0.1093 -0.83660001 0
0.18139066 -0.044469692 0.28581429 232 234 238 -0.6821 -0.092399999 -0.72539997 0
0.17406468 -0.046690792 0.29226273 217 127 144 -0.42750001 0.1033 -0.89810002 0
0.16697362 -0.049238622 0.29974481 171 172 176 -0.7245 -0.133 -0.67629999 0
0.16075172 -0.052989114 0.31101161 192 193 197 -0.61589998 -0.38730001 -0.68610001 0
0.15566826 -0.058000162 0.32624438 139 141 145 -0.60250002 -0.48179999 -0.63630003 0
0.14534347 -0.064118631 0.3406868 190 192 196 -0.49599999 -0.6929 -0.52340001 0
0.13575189 -0.067259744 0.3499651 176 180 185 -0.38710001 -0.6401 -0.66360003 0
0.21386786 -0.0322906 0.25970882 157 42 67 -0.2024 0.0352 -0.97869998 0
0.20545568 -0.035312131 0.26562658 230 227 228 -0.47220001 -0.076300003 -0.87819999 0
0.1987939 -0.037060652 0.27067438 237 237 239 -0.48460001 -0.044100001 -0.87360001 0
0.18348436 -0.042752676 0.28404549 247 249 253 -0.65030003 -0.1009 -0.7529 0
0.14738074 -0.061345566 0.33626771 185 189 193 -0.43650001 -0.68879998 -0.57889998 0
0.12501064 -0.069986515 0.35784754 112 118 122 -0.85820001 -0.1077 -0.50190002 0
0.20795541 -0.034095798 0.26514053 89 73 83 -0.51319999 0.015 -0.8581 0
0.19152078 -0.0386471 0.27516595 204 203 208 -0.6056 0.072499998 -0.79250002 0
0.17674531 -0.045260828 0.29140639 244 241 244 -0.57190001 0.051199999 -0.81870002 0
0.16879457 -0.047021657 0.29649523 195 136 147 -0.74299997 0.2243 -0.63059998 0
0.15658835 -0.05481327 0.32025006 170 174 179 -0.75919998 -0.227 -0.61000001 0
0.12777466 -0.067394279 0.35420188 148 153 161 -0.82920003 -0.20039999 -0.52170002 0
0.12247396 -0.076368935 0.38141105 142 148 151 -0.92110002 0.25760001 -0.292 0
0.21676902 -0.031269301 0.25972149 190 182 187 -0.0017 0.0526 -0.99860001 0
0.20002116 -0.035168219 0.26805958 238 235 240 -0.5323 -0.028100001 -0.84609997 0
0.18486227 -0.040753637 0.28127751 255 255 255 -0.57450002 -0.059300002 -0.81639999 0
0.17868613 -0.043356773 0.2890642 220 219 224 -0.71039999 -0.0023000001 -0.70380002 0
0.17166628 -0.045760952 0.29625529 203 120 137 -0.63620001 0.145 -0.75770003 0
0.16492645 -0.048748586 0.30535048 255 255 255 -0.54500002 -0.1411 -0.8265 0
0.16083941 -0.049464699 0.30378678 255 255 255 -0.41569999 0.070699997 -0.90679997 0
0.14074151 -0.062097024 0.34234494 161 163 169 -0.42359999 -0.72280002 -0.54610002 0
0.13779958 -0.064321734 0.345056 147 151 154 -0.39340001 -0.7457 -0.5377 0
0.12358043 -0.071566969 0.37110865 124 125 134 -0.84539998 0.4614 -0.26930001 0
0.20884289 -0.032185607 0.26232648 197 118 131 -0.50019997 0.1367 -0.85500002 0
0.19361903 -0.037084162 0.27367079 214 188 197 -0.60189998 0.054099999 -0.7967 0
0.18722135 -0.0392402 0.28006598 238 240 244 -0.51340002 -0.0055 -0.8581 0
0.1489547 -0.058425922 0.33118075 150 154 158 -0.40959999 -0.69419998 -0.59189999 0
0.12220813 -0.080249831 0.40253282 126 132 136 -0.9842 0.1014 -0.1451 0
0.20247568 -0.033930857 0.26754978 202 141 164 -0.4795 -0.071400002 -0.87470001 0
0.19536152 -0.035434321 0.27189368 147 40 72 -0.5108 0.1066 -0.8531 0
0.17990442 -0.041133206 0.28560773 201 201 205 -0.73710001 0.0049999999 -0.67570001 0
0.17366475 -0.04391193 0.29406798 173 140 161 -0.62739998 0.055500001 -0.77670002 0
0.15111682 -0.055914279 0.32733729 135 141 144 -0.3143 -0.60259998 -0.7335 0
0.14186908 -0.058569264 0.3354162 185 189 195 -0.43439999 -0.70160002 -0.56489998 0
0.12962498 -0.064020731 0.34794015 161 165 170 -0.67199999 -0.42410001 -0.60710001 0
0.20423433 -0.032413673 0.26608565 183 177 172 -0.4429 -0.054900002 -0.89490002 0
0.19812703 -0.03427152 0.2716729 195 159 158 -0.498 0.085000001 -0.86299998 0
0.18903627 -0.037483517 0.27797234 237 239 243 -0.54089999 0.1008 -0.83499998 0
0.18196514 -0.039423738 0.28373936 183 185 191 -0.72600001 0.0517 -0.68580002 0
0.17572425 -0.042067304 0.29186991 193 192 199 -0.55339998 0.027899999 -0.83249998 0
0.15403502 -0.054220948 0.32604358 171 175 179 -0.37400001 -0.56770003 -0.73339999 0
0.13271008 -0.061898187 0.34551665 106 113 113 -0.61250001 -0.51560003 -0.59909999 0
0.12489987 -0.067538939 0.36294729 51 60 61 -0.90069997 0.29750001 -0.31670001 0
0.12280983 -0.074470423 0.38911173 69 80 83 -0.86729997 -0.1104 -0.48550001 0
0.20697162 -0.031291164 0.26589844 230 225 227 -0.44479999 -0.0035999999 -0.89560002 0
0.19137688 -0.03608736 0.27708223 166 167 176 -0.6595 0.0337 -0.75099999 0
0.16837895 -0.044235609 0.29847181 209 137 155 -0.66600001 0.096699998 -0.73970002 0
0.16178283 -0.047511838 0.30877176 255 255 255 -0.44859999 -0.17200001 -0.87709999 0
0.15614827 -0.05196273 0.32284632 176 178 182 -0.48050001 -0.51569998 -0.70929998 0
0.14431576 -0.056409489 0.33267522 192 197 198 -0.42969999 -0.69319999 -0.57859999 0
0.12734546 -0.064692818 0.35834122 109 115 120 -0.92330003 0.24150001 -0.29859999 0
0.21496741 -0.028104145 0.25907707 233 231 232 -0.14390001 0.089900002 -0.98549998 0
0.19925086 -0.032376423 0.26897213 210 120 141 -0.62360001 0.092399999 -0.77630001 0
0.19312868 -0.034361076 0.27502269 221 188 197 -0.63120002 0.051100001 -0.77389997 0
0.18296182 -0.037253663 0.2803396 211 213 217 -0.59039998 0.0297 -0.80659997 0
0.1777443 -0.040316191 0.28990462 220 221 227 -0.6437 0.019099999 -0.76499999 0
0.17112266 -0.042863041 0.29783016 188 103 120 -0.71240002 0.084700003 -0.69660002 0
0.16586237 -0.046837494 0.31053969 255 255 255 -0.21070001 -0.3847 -0.8987 0
0.14595047 -0.053418532 0.32720593 100 104 108 -0.40540001 -0.64410001 -0.6487 0
0.13429388 -0.058650613 0.33948559 203 207 210 -0.52029997 -0.59689999 -0.61070001 0
0.12523146 -0.071007885 0.38285303 114 118 124 -0.7899 0.17839999 -0.58670002 0
0.20833604 -0.029545968 0.26355585 143 90 94 -0.4262 0.066500001 -0.90219998 0
0.20180897 -0.031153454 0.26849407 197 187 193 -0.58630002 0.0535 -0.80830002 0
0.18628709 -0.036265165 0.28078943 179 180 186 -0.49270001 0.13609999 -0.85949999 0
0.17994149 -0.038662929 0.28826341 213 214 220 -0.7378 0.073399998 -0.671 0
0.15760435 -0.049315579 0.31828284 130 133 139 -0.6577 -0.39660001 -0.64039999 0
0.13733098 -0.056660082 0.3372851 139 138 143 -0.54369998 -0.60100001 -0.58579999 0
0.21065001 -0.028268067 0.26276997 198 184 187 -0.50230002 0.1533 -0.85100001 0
0.19455869 -0.032635588 0.2729145 224 216 223 -0.4474 0.1234 -0.8858 0
0.18785976 -0.034431286 0.27838567 242 241 246 -0.48570001 0.073799998 -0.87099999 0
0.17222187 -0.040476877 0.29378352 234 234 236 -0.73839998 -0.048500001 -0.67259997 0
0.14860518 -0.051447179 0.32491568 180 182 184 -0.2951 -0.6103 -0.73519999 0
0.12781246 -0.059855849 0.34722322 173 179 184 -0.91829997 0.054299999 -0.39210001 0
0.12630993 -0.06629277 0.37227422 60 63 69 -0.66360003 0.45550001 -0.5934 0
0.21230091 -0.026779639 0.26121953 224 220 221 -0.50959998 0.076499999 -0.85699999 0
0.20292908 -0.029348785 0.26596633 229 223 230 -0.45030001 0.066600002 -0.89039999 0
0.19743648 -0.031506822 0.27280521 174 99 127 -0.44839999 0.15449999 -0.8804 0
0.18149897 -0.03666795 0.2853623 242 243 247 -0.7493 0.077100001 -0.65780002 0
0.17500044 -0.039046995 0.29288995 244 244 246 -0.58350003 -0.023700001 -0.8118 0
0.16757561 -0.044705801 0.30743933 172 169 170 -0.58630002 -0.29229999 -0.75559998 0
0.15872814 -0.046272844 0.31229219 255 255 255 -0.56720001 -0.271 -0.77770001 0
0.15160145 -0.049839873 0.32377893 155 159 162 -0.2493 -0.58999997 -0.76789999 0
0.13939144 -0.054092683 0.33318236 169 173 176 -0.53719997 -0.61489999 -0.57730001 0
0.1299455 -0.056856181 0.34181798 201 205 208 -0.84280002 -0.1417 -0.51920003 0
0.12249978 -0.071754977 0.39453512 83 89 91 0 0 0 0
0.20556171 -0.028174596 0.26557508 156 81 95 -0.34279999 0.090099998 -0.93510002 0
0.19098358 -0.033435814 0.27880925 244 244 246 -0.63630003 0.0429 -0.77020001 0
0.18362521 -0.035083532 0.28385741 206 207 213 -0.61860001 0.0372 -0.78490001 0
0.16848898 -0.041833758 0.30185699 185 103 115 -0.6232 -0.041000001 -0.78100002 0
0.12691306 -0.061624754 0.36158457 112 116 121 -0.92110002 0.32100001 -0.22040001 0
0.21396175 -0.025372097 0.25990817 157 75 100 -0.38139999 0.0504 -0.92299998 0
0.20772697 -0.026839737 0.2646035 170 71 79 -0.38429999 0.068499997 -0.92070001 0
0.19902955 -0.029772038 0.27054897 167 74 99 -0.61970001 0.1104 -0.77710003 0
0.17687178 -0.037257906 0.29074422 237 239 243 -0.58350003 -0.079000004 -0.80830002 0
0.17008184 -0.039715074 0.29864678 200 181 187 -0.71469998 -0.1063 -0.69129997 0
0.15418172 -0.047945809 0.32164916 164 169 170 -0.38980001 -0.59210002 -0.70539999 0
0.14121038 -0.051349394 0.32836673 140 144 149 -0.47870001 -0.5772 -0.66159999 0
0.13237371 -0.054467697 0.33830774 183 185 189 -0.7457 -0.28349999 -0.60290003 0
0.12435224 -0.067620255 0.38581154 134 140 145 -0.83899999 -0.13420001 -0.5273 0
0.20176503 -0.028620925 0.27031031 192 104 115 -0.67129999 0.0473 -0.7396 0
0.19239178 -0.031581897 0.27621236 197 196 201 -0.62819999 0.048999999 -0.77649999 0
0.18584527 -0.033522565 0.28234124 246 248 252 -0.49129999 0.070900001 -0.86809999 0
0.17949095 -0.03582925 0.28978586 228 229 233 -0.66149998 -0.059599999 -0.74760002 0
0.14390416 -0.049292605 0.32576987 183 185 189 -0.4237 -0.60509998 -0.67409998 0
0.12810796 -0.057482753 0.35243493 95 99 102 -0.92830002 0.255 -0.27070001 0
0.12725866 -0.064453326 0.38024428 117 119 123 -0.82099998 -0.074299999 -0.56599998 0
0.210428 -0.025752109 0.26448882 168 65 84 -0.50840002 -0.0093 -0.86110002 0
0.19391742 -0.029825192 0.27392912 253 245 252 -0.44029999 0.1064 -0.8915 0
0.18792576 -0.031938482 0.28074616 180 179 186 -0.41280001 0.0096000005 -0.91079998 0
0.17113678 -0.037316475 0.29442433 240 239 244 -0.72719997 -0.1507 -0.66970003 0
0.16460507 -0.04000761 0.30328336 217 146 159 -0.61089998 -0.2058 -0.76450002 0
0.15773886 -0.043080371 0.31349936 255 255 255 -0.44780001 -0.4867 -0.75010002 0
0.15627585 -0.045726079 0.31832182 171 172 176 -0.51550001 -0.51599997 -0.68409997 0
0.14600749 -0.047099859 0.32260931 172 179 179 -0.30270001 -0.5848 -0.7525 0
0.13409109 -0.051513731 0.33279365 209 211 213 -0.72149998 -0.32539999 -0.61129999 0
0.094220325 -0.060194932 0.3509542 143 148 158 -0.0473 -0.62459999 -0.77950001 0
0.21270382 -0.024475535 0.26365164 162 77 99 -0.54299998 -0.1319 -0.82929999 0
0.2024959 -0.026667576 0.26716623 154 69 89 -0.4964 0.040800001 -0.8671 0
0.19704822 -0.028789084 0.27414981 152 85 90 -0.46160001 0.119 -0.87910002 0
0.180416 -0.033562291 0.28584942 224 225 232 -0.70910001 -0.1358 -0.69190001 0
0.13625163 -0.049062435 0.32886198 114 118 122 -0.6943 -0.35710001 -0.62489998 0
0.12990545 -0.054263696 0.34613577 126 130 133 -0.87650001 -0.1283 -0.4639 0
0.20516296 -0.02552069 0.26688778 162 61 77 -0.33559999 0.038600001 -0.94120002 0
0.18974954 -0.030288905 0.2788361 222 224 226 -0.62910002 0.064300001 -0.77469999 0
0.18298686 -0.032193668 0.28502283 234 235 239 -0.63630003 -0.1183 -0.76239997 0
0.1735741 -0.035752047 0.29298854 244 244 248 -0.53079998 -0.1604 -0.83219999 0
0.16710791 -0.038406566 0.30181694 204 128 144 -0.56720001 -0.27450001 -0.77649999 0
0.14858109 -0.045163129 0.32026756 186 186 188 -0.2305 -0.5747 -0.78530002 0
0.097952537 -0.058918171 0.35126618 140 146 150 -0.081600003 -0.6487 -0.75669998 0
0.21390536 -0.02288547 0.26163799 222 219 222 -0.396 -0.1717 -0.90200001 0
0.2076316 -0.024338529 0.26646495 200 107 120 -0.36309999 -0.042300001 -0.93080002 0
0.19836989 -0.02700216 0.27162915 204 124 142 -0.6322 0.036200002 -0.77389997 0
0.19093114 -0.028404657 0.27605355 198 195 201 -0.62110001 0.073200002 -0.78030002 0
0.17612393 -0.034320045 0.2920253 244 244 248 -0.55199999 -0.2008 -0.80930001 0
0.16968076 -0.03693267 0.30082342 215 215 217 -0.66659999 -0.28349999 -0.68940002 0
0.15142152 -0.04333045 0.31820649 164 165 169 -0.35179999 -0.57889998 -0.73559999 0
0.13857889 -0.046761792 0.32536936 149 153 157 -0.61150002 -0.4129 -0.67500001 0
0.13145171 -0.051221039 0.34027681 187 190 198 -0.83130002 -0.1505 -0.53509998 0
0.20049714 -0.025627276 0.27056599 149 62 76 -0.69090003 0.0105 -0.72289997 0
0.18410017 -0.030135414 0.28165987 255 255 255 -0.49000001 -0.1381 -0.86070001 0
0.17834102 -0.032687962 0.29027644 178 179 187 -0.56830001 -0.23909999 -0.78740001 0
0.14135282 -0.044884656 0.32320276 157 161 165 -0.55330002 -0.47420001 -0.68480003 0
0.12860908 -0.055459023 0.35911453 142 146 150 0 0 0 0
0.10538863 -0.055733684 0.34987116 140 146 150 0.152 -0.57279998 -0.80549997 0
0.10127153 -0.056725122 0.34854046 180 183 189 0.042599998 -0.60780001 -0.79290003 0
0.085682668 -0.059722502 0.35320586 139 148 152 -0.3026 -0.47679999 -0.82529998 0
0.20936209 -0.022855477 0.26485893 151 69 87 -0.47710001 -0.1179 -0.87089998 0
0.19322497 -0.02700514 0.27496329 169 121 137 -0.46079999 0.094499998 -0.88249999 0
0.18736768 -0.029136106 0.28211778 229 229 233 -0.41389999 -0.081200004 -0.90670002 0
0.1708952 -0.034660332 0.2968522 209 206 211 -0.70569998 -0.2904 -0.64630002 0
0.15346724 -0.041055363 0.31454799 255 255 255 -0.3784 -0.52700001 -0.76099998 0
0.13273424 -0.048090022 0.33392537 84 93 97 -0.81889999 -0.050999999 -0.57169998 0
0.10924804 -0.054461528 0.35018447 148 155 155 -0.021 -0.64380002 -0.76490003 0
0.08914306 -0.05788644 0.35172266 64 75 80 -0.2836 -0.50199997 -0.81709999 0
0.0029495405 -0.08527264 0.42752963 255 255 244 0.2595 -0.2406 -0.93529999 0
0.21095082 -0.021319574 0.26299962 193 123 135 -0.55059999 -0.2174 -0.80589998 0
0.20118064 -0.023686439 0.26734096 185 96 114 -0.50889999 -0.0504 -0.85939997 0
0.19641046 -0.02598685 0.27526107 175 167 174 -0.50449997 0.026799999 -0.86299998 0
0.17992193 -0.030796096 0.28757837 206 205 212 -0.67930001 -0.2466 -0.69120002 0
0.17284137 -0.032824446 0.29443485 209 211 215 -0.53570002 -0.29679999 -0.79049999 0
0.16357817 -0.036892802 0.3044188 228 148 161 -0.56129998 -0.37009999 -0.7403 0
0.15693294 -0.039943263 0.31492555 255 255 255 -0.3511 -0.48359999 -0.80180001 0
0.14386724 -0.042931817 0.32073754 103 104 113 -0.39179999 -0.55269998 -0.73549998 0
0.1351974 -0.045700427 0.33007449 91 90 97 -0.82410002 -0.056899998 -0.5636 0
0.092567168 -0.055991601 0.35000399 199 203 207 -0.1839 -0.48840001 -0.85299999 0
0.0074534528 -0.084934592 0.43166706 255 249 231 -0.14300001 -0.22 -0.96499997 0
0.20453352 -0.022734461 0.26776326 247 240 242 -0.37540001 -0.0298 -0.92640001 0
0.18910514 -0.027459044 0.28004935 236 237 241 -0.56480002 -0.055500001 -0.82340002 0
0.16551177 -0.034889992 0.3014645 227 208 212 -0.49349999 -0.37189999 -0.78619999 0
0.14689945 -0.041358814 0.31957376 180 182 184 -0.25440001 -0.57429999 -0.77819997 0
0.12925234 -0.05139238 0.34962839 113 117 122 -0.1382 -0.53979999 -0.83039999 0
0.095836468 -0.054233272 0.34867513 111 120 124 -0.2096 -0.52899998 -0.82230002 0
0.080394849 -0.057088908 0.35298759 142 146 152 -0.33340001 -0.2491 -0.90930003 0
0.21200207 -0.019687314 0.26071423 158 78 96 -0.47639999 -0.213 -0.8531 0
0.20686524 -0.021518243 0.26717156 252 248 247 -0.42230001 -0.1071 -0.90009999 0
0.19783336 -0.024237236 0.27277842 206 191 199 -0.64700001 -0.082999997 -0.7579 0
0.19105645 -0.025877567 0.27829698 178 177 184 -0.57609999 -0.026900001 -0.81690001 0
0.18174408 -0.02909489 0.28544596 193 194 200 -0.61849999 -0.1803 -0.76480001 0
0.17490776 -0.031022586 0.29203105 204 206 210 -0.5266 -0.2863 -0.80049998 0
0.15017737 -0.039916098 0.31885415 166 169 175 -0.3105 -0.58170003 -0.7518 0
0.13724764 -0.043192226 0.32566985 223 223 228 -0.82660002 -0.21089999 -0.52179998 0
0.1305953 -0.048009936 0.34240335 118 122 127 -0.45289999 -0.37180001 -0.81040001 0
0.083332904 -0.054462284 0.34876168 109 115 120 -0.37470001 -0.175 -0.91049999 0
