ply
format ascii 1.0
comment PCL generated
element vertex 596
property float x
property float y
property float z
property uchar red
property uchar green
property uchar blue
property float nx
property float ny
property float nz
property float curvature
element camera 0
property float view_px
property float view_py
property float view_pz
property float x_axisx
property float x_axisy
property float x_axisz
property float y_axisx
property float y_axisy
property float y_axisz
property float z_axisx
property float z_axisy
property float z_axisz
property float focal
property float scalex
property float scaley
property float centerx
property float centery
property int viewportx
property int viewporty
property float k1
property float k2
end_header
0.2095733 0.068304881 0.28251684 189 186 189 -0.55739999 0.3039 -0.7726 0
0.20114805 0.069445729 0.29109991 183 182 185 -0.58960003 0.2001 -0.78250003 0
0.19463588 0.071123235 0.29827425 219 218 223 -0.4258 0.2976 -0.8545 0
0.18468866 0.072546601 0.30588087 182 184 190 -0.4569 0.21870001 -0.86220002 0
0.16766028 0.075581327 0.3258397 193 111 125 -0.67970002 -0.1108 -0.72500002 0
0.15700829 0.076952294 0.33833602 223 223 226 -0.7353 0.2013 -0.64719999 0
0.13989587 0.081151225 0.3589043 146 150 153 -0.54799998 0.4702 -0.6918 0
0.10316532 0.086591668 0.35811836 74 76 87 0.3576 0.61799997 -0.7001 0
0.21784244 0.067129374 0.27524668 206 206 206 -0.70499998 0.1867 -0.68419999 0
0.2036664 0.0698587 0.28987446 220 220 222 -0.59640002 0.1575 -0.78710002 0
0.17796017 0.074223116 0.31495544 201 203 207 -0.53359997 -0.33860001 -0.77499998 0
0.15899111 0.077718891 0.33314198 110 89 93 -0.6006 0.0858 -0.7949 0
0.15157339 0.079547644 0.34466612 255 255 255 -0.60930002 -0.0017 -0.79290003 0
0.13055249 0.083440728 0.37049013 96 103 107 -0.70969999 0.40259999 -0.57810003 0
0.10750388 0.086743161 0.36074755 53 66 73 0.47679999 0.66240001 -0.57779998 0
0.21196182 0.068711422 0.28136486 216 213 216 -0.59990001 0.31639999 -0.7349 0
0.20571025 0.070382416 0.28770483 162 161 166 -0.5499 0.18780001 -0.81389999 0
0.19721568 0.071559228 0.29660434 137 133 141 -0.59859997 0.2441 -0.76289999 0
0.19011071 0.073398262 0.30330592 244 244 246 -0.53500003 0.17470001 -0.82660002 0
0.186965 0.073078275 0.30378374 249 249 251 -0.54070002 0.2295 -0.80930001 0
0.18073004 0.074668288 0.31334126 174 176 180 -0.56840003 -0.26069999 -0.78039998 0
0.16987133 0.076208487 0.32248133 205 204 207 -0.6268 -0.1745 -0.75940001 0
0.16222486 0.078123137 0.3316671 202 110 128 -0.63139999 -0.041200001 -0.7744 0
0.14238769 0.081814438 0.35446447 117 121 122 -0.5934 0.28420001 -0.75309998 0
0.13359198 0.084002286 0.36678776 120 125 125 -0.6825 0.45989999 -0.56800002 0
0.091441199 0.089555882 0.35973454 131 139 145 -0.56330001 0.27829999 -0.778 0
0.21927083 0.067738928 0.27262831 175 174 177 -0.64179999 0.1419 -0.7536 0
0.21411888 0.069169953 0.2798197 224 222 222 -0.59640002 0.2992 -0.74479997 0
0.19953136 0.072044358 0.29458088 206 204 207 -0.72530001 0.1498 -0.67189997 0
0.17225583 0.076766796 0.31976476 140 139 144 -0.67199999 -0.1557 -0.72399998 0
0.14674444 0.081988379 0.35611132 119 123 126 -0.6336 0.1144 -0.7651 0
0.094504751 0.090085477 0.35631573 97 106 110 -0.3143 0.2902 -0.90390003 0
0.22178221 0.068085797 0.27175981 187 184 187 -0.46329999 0.1886 -0.86589998 0
0.21613272 0.069646195 0.27806747 219 216 220 -0.56830001 0.331 -0.75330001 0
0.20829983 0.070759699 0.28671899 180 176 182 -0.4738 0.26719999 -0.8391 0
0.19277595 0.073821254 0.30182043 255 255 255 -0.36739999 0.045299999 -0.9289 0
0.18215467 0.075419933 0.30884025 224 226 230 -0.4621 -0.1699 -0.87040001 0
0.16514657 0.078584097 0.32959747 195 183 187 -0.7141 -0.15539999 -0.68260002 0
0.13642429 0.084593646 0.36273938 150 154 158 -0.59469998 0.45919999 -0.65990001 0
0.12858577 0.086631157 0.37956834 149 153 159 -0.68839997 0.45629999 -0.56379998 0
0.09861666 0.09030202 0.35762313 147 152 159 0.2168 0.66409999 -0.71560001 0
0.22334568 0.068647988 0.26948962 199 197 198 -0.34290001 0.15710001 -0.92610002 0
0.21053816 0.071208782 0.2850858 127 121 127 -0.54970002 0.2538 -0.79589999 0
0.20186856 0.07250315 0.29295447 137 133 141 -0.70200002 0.0647 -0.70920002 0
0.19587077 0.074133508 0.30133018 215 210 214 -0.30379999 0.0093 -0.95270002 0
0.18592459 0.075627066 0.30930862 166 168 172 -0.37270001 -0.1183 -0.92040002 0
0.17398076 0.077472404 0.31552932 192 192 194 -0.56099999 -0.088200003 -0.82309997 0
0.16721027 0.079239123 0.32572925 240 239 242 -0.68959999 -0.2132 -0.69220001 0
0.16010699 0.081081808 0.33701891 170 95 107 -0.70630002 -0.1052 -0.69999999 0
0.14084813 0.084797643 0.36345041 69 78 82 -0.64240003 0.33450001 -0.68949997 0
0.1312997 0.087267041 0.37412813 123 130 132 -0.74010003 0.3479 -0.57550001 0
0.12369221 0.089327328 0.39614972 148 152 157 -0.87769997 0.2131 -0.42919999 0
0.10907218 0.090215206 0.36925977 66 79 86 0.56260002 0.66479999 -0.4914 0
0.10358026 0.090320438 0.36181828 33 41 50 0.37099999 0.7227 -0.58319998 0
0.21797745 0.070151716 0.27608588 202 199 202 -0.66939998 0.3461 -0.6573 0
0.21297045 0.071612343 0.28372243 180 177 180 -0.60280001 0.2112 -0.7694 0
0.20370166 0.073053598 0.29057521 146 143 148 -0.60229999 0.0147 -0.79809999 0
0.18838361 0.076100878 0.30752996 192 191 198 -0.49470001 -0.1779 -0.85070002 0
0.17735514 0.07778538 0.31480867 182 181 184 -0.54070002 -0.074600004 -0.83789998 0
0.21904518 0.070807569 0.27302143 178 178 180 -0.66799998 0.38929999 -0.63419998 0
0.19803454 0.0746364 0.29937884 255 255 255 -0.52160001 -0.0495 -0.85180002 0
0.16290323 0.08157777 0.33448249 170 80 88 -0.6936 -0.1899 -0.69489998 0
0.13479812 0.087705851 0.37125969 112 118 120 -0.69840002 0.32300001 -0.63870001 0
0.1264919 0.089961559 0.38963553 152 159 159 -0.8581 0.138 -0.4946 0
0.095194176 0.093753763 0.35988343 145 152 154 -0.20190001 0.82740003 -0.52410001 0
0.21482868 0.072112337 0.28171891 141 139 140 -0.54790002 0.20190001 -0.8118 0
0.20606184 0.073487811 0.28885302 186 182 188 -0.4659 0.0071 -0.88480002 0
0.19075669 0.076585606 0.3051194 137 136 143 -0.53780001 -0.2915 -0.79110003 0
0.17997128 0.078252427 0.31262413 217 219 223 -0.58969998 -0.0638 -0.80510002 0
0.17188551 0.080346555 0.31979951 189 191 193 -0.68699998 -0.0189 -0.72640002 0
0.16529705 0.082146376 0.33089992 170 168 171 -0.68040001 -0.33719999 -0.65060002 0
0.1551172 0.083617933 0.34566775 255 255 255 -0.6354 -0.083400004 -0.7676 0
0.14673771 0.085832238 0.3567965 83 85 91 -0.65750003 -0.33000001 -0.67729998 0
0.13793448 0.088201724 0.36846572 113 117 120 -0.66820002 0.2484 -0.70130002 0
0.12955196 0.090519182 0.38438982 123 130 130 -0.83999997 0.1046 -0.53240001 0
0.099729225 0.093896322 0.3639183 127 136 140 0.113 0.8513 -0.51230001 0
0.22102766 0.071253754 0.27148786 232 229 232 -0.47260001 0.47510001 -0.74220002 0
0.21699499 0.072541118 0.28031951 191 189 192 -0.4727 0.234 -0.84960002 0
0.20883936 0.073810704 0.28830284 180 180 182 -0.34380001 0.055 -0.93739998 0
0.19248156 0.077196002 0.30187827 116 95 114 -0.3845 -0.3468 -0.85549998 0
0.1813505 0.078967668 0.30836493 238 240 242 -0.47639999 -0.1004 -0.87349999 0
0.17388311 0.080943845 0.31636494 251 253 255 -0.61510003 -0.0092000002 -0.78839999 0
0.14143844 0.088605054 0.36645842 97 101 104 -0.72850001 0.1284 -0.67299998 0
0.10433578 0.094025433 0.36783046 91 101 107 0.2791 0.78509998 -0.55290002 0
0.094041921 0.096737787 0.37792018 221 226 227 -0.6178 0.54089999 -0.57080001 0
0.22404663 0.071487546 0.27142292 170 168 169 -0.43220001 0.41549999 -0.8003 0
0.21947151 0.072899349 0.27941257 196 195 198 -0.61580002 0.3335 -0.71390003 0
0.21114965 0.074221767 0.28716341 223 220 223 -0.45590001 0.083499998 -0.88609999 0
0.20209187 0.075690493 0.29388601 206 204 207 -0.7026 -0.1304 -0.69959998 0
0.18539511 0.079110339 0.30940184 252 254 255 -0.4014 -0.15350001 -0.903 0
0.16756094 0.082711384 0.32764158 174 176 180 -0.62089998 -0.36300001 -0.69480002 0
0.14925259 0.086415827 0.35228783 105 109 114 -0.66039997 -0.41800001 -0.62379998 0
0.13205309 0.091151342 0.37868208 106 110 113 -0.80879998 0.089199997 -0.5812 0
0.12365485 0.093587905 0.3979834 99 105 110 -0.89709997 0.226 -0.37970001 0
0.20404066 0.076190405 0.29194102 201 119 135 -0.58990002 -0.17919999 -0.78729999 0
0.19526017 0.077569015 0.30082446 140 44 60 -0.25889999 -0.35600001 -0.89789999 0
0.17621496 0.081461094 0.31324834 237 239 241 -0.5564 0.052900001 -0.82920003 0
0.15997264 0.084767275 0.33748427 175 135 153 -0.80059999 -0.2394 -0.5492 0
0.15139662 0.08704564 0.34744993 115 114 119 -0.59899998 -0.41620001 -0.68409997 0
0.096732944 0.097309344 0.37238747 105 116 119 -0.5025 0.67339998 -0.54220003 0
0.22056445 0.07352832 0.27623013 205 202 206 -0.65079999 0.37920001 -0.65780002 0
0.21318682 0.074687585 0.2850346 225 223 223 -0.60320002 0.1028 -0.79089999 0
0.20624733 0.076639242 0.28990248 184 174 180 -0.4434 -0.1506 -0.8836 0
0.19831912 0.077881366 0.30030948 212 130 144 -0.4339 -0.37830001 -0.81770003 0
0.18800209 0.079546914 0.30745119 235 235 237 -0.53380001 -0.2367 -0.8118 0
0.1790403 0.081864938 0.31170243 255 255 255 -0.5675 0.027100001 -0.8229 0
0.16164818 0.085437052 0.33271062 132 44 49 -0.73070002 -0.40630001 -0.54860002 0
0.14300266 0.089352041 0.35906389 116 120 121 -0.84130001 -0.2375 -0.48550001 0
0.13564746 0.091551401 0.37612671 104 108 111 -0.76380002 -0.0535 -0.64319998 0
0.12605168 0.094231583 0.38974103 122 130 134 -0.88910002 0.044199999 -0.45550001 0
0.22216374 0.074043848 0.27401718 195 192 195 -0.4639 0.47130001 -0.75010002 0
0.21484686 0.075214468 0.28270081 245 242 243 -0.59009999 0.1045 -0.80049998 0
0.2003503 0.078387588 0.29763514 192 186 193 -0.66619998 -0.35690001 -0.6548 0
0.18948954 0.080181792 0.30349132 255 255 255 -0.63120002 -0.26679999 -0.72829998 0
0.17284732 0.083655044 0.32274601 237 239 243 -0.5948 -0.33399999 -0.73119998 0
0.15343028 0.087679453 0.34218916 255 255 255 -0.5499 -0.38100001 -0.74330002 0
0.14541283 0.089931846 0.35413149 95 101 106 -0.7432 -0.4289 -0.51340002 0
0.13837974 0.09208779 0.37111557 95 99 100 -0.7471 -0.15549999 -0.64630002 0
0.12980552 0.094621554 0.38739219 116 120 121 -0.87080002 -0.035599999 -0.49039999 0
0.21726127 0.075585388 0.28153354 199 197 200 -0.4598 0.077699997 -0.88459998 0
0.20870352 0.077024132 0.28851542 198 190 197 -0.2879 -0.1415 -0.94709998 0
0.18193991 0.082239345 0.31043294 212 211 216 -0.4756 -0.0092000002 -0.87959999 0
0.17538588 0.084125757 0.32031396 197 199 203 -0.55989999 -0.3448 -0.75340003 0
0.16367362 0.086027272 0.32794273 151 70 93 -0.65130001 -0.51969999 -0.55299997 0
0.21950293 0.075979665 0.2801455 220 220 222 -0.5891 0.0294 -0.80760002 0
0.21135591 0.07735642 0.28812125 245 242 245 -0.40540001 -0.1473 -0.90219998 0
0.20162739 0.079010241 0.29401177 122 97 110 -0.68480003 -0.3258 -0.65189999 0
0.19143417 0.080701992 0.30104527 219 216 220 -0.5226 -0.2428 -0.81730002 0
0.18423493 0.082711048 0.30813071 183 182 187 -0.53509998 -0.027100001 -0.84429997 0
0.16581731 0.086580753 0.32465059 220 218 219 -0.5054 -0.52710003 -0.6832 0
0.14831534 0.090395205 0.35078436 126 130 135 -0.66140002 -0.4192 -0.62199998 0
0.14135078 0.092566796 0.36755732 117 121 124 -0.79759997 -0.24510001 -0.55110002 0
0.13157222 0.095299497 0.37887076 93 99 106 -0.82539999 -0.1726 -0.53750002 0
0.12477708 0.097712494 0.40421781 109 117 121 -0.9095 -0.062399998 -0.4111 0
0.21290557 0.077892624 0.28540307 248 246 249 -0.53670001 -0.13860001 -0.83230001 0
0.20348316 0.079508901 0.29171899 185 114 131 -0.57590002 -0.2766 -0.76929998 0
0.19424932 0.081061177 0.29983789 176 104 115 -0.37369999 -0.28780001 -0.8818 0
0.1778304 0.084604152 0.31759036 182 184 188 -0.4648 -0.30720001 -0.83039999 0
0.15932515 0.088537678 0.33798194 182 182 182 -0.62819999 -0.52999997 -0.56959999 0
0.15101944 0.09087646 0.34749883 144 146 150 -0.62 -0.4691 -0.62900001 0
0.14329256 0.093204722 0.36142918 162 166 169 -0.8721 -0.28150001 -0.40020001 0
0.12706143 0.098315202 0.39591387 124 127 133 -0.91509998 -0.042399999 -0.40099999 0
0.22167468 0.076386549 0.27860972 240 237 243 -0.61299998 -0.029300001 -0.7895 0
0.19727845 0.081368849 0.29908195 230 138 158 -0.44350001 -0.37470001 -0.81419998 0
0.18642795 0.083194368 0.30549562 203 202 205 -0.6243 -0.099100001 -0.7748 0
0.18045601 0.085032105 0.31563777 214 214 216 -0.43329999 -0.28850001 -0.8538 0
0.16880578 0.086964689 0.32340312 240 239 242 -0.44260001 -0.53049999 -0.72299999 0
0.16112868 0.089151472 0.3325302 195 136 145 -0.72359997 -0.45019999 -0.52319998 0
0.1543543 0.091248088 0.34548303 242 244 243 -0.53320003 -0.45230001 -0.71499997 0
0.22381267 0.076785281 0.27707213 238 235 238 -0.34990001 0.031300001 -0.93629998 0
0.21451265 0.0783948 0.28305423 217 215 215 -0.49079999 -0.16069999 -0.8563 0
0.20568089 0.079932131 0.28995273 202 197 203 -0.44850001 -0.27250001 -0.85119998 0
0.19939408 0.081826106 0.29671448 239 226 221 -0.59490001 -0.37419999 -0.71130002 0
0.18889853 0.083617233 0.30364487 243 243 245 -0.6196 -0.067000002 -0.78200001 0
0.13791515 0.096174151 0.37211964 165 166 170 -0.77399999 -0.2414 -0.58530003 0
0.12231793 0.10155219 0.41463891 124 126 128 -0.92900002 -0.14560001 -0.34009999 0
0.22632472 0.077112064 0.27647316 237 237 237 -0.3035 0.13249999 -0.9436 0
0.21747601 0.078658231 0.28274819 208 205 208 -0.41339999 -0.1568 -0.8969 0
0.20803131 0.080321953 0.28838161 192 149 150 -0.30809999 -0.29620001 -0.9041 0
0.19105026 0.084079467 0.30118465 203 102 138 -0.52329999 -0.031800002 -0.85159999 0
0.18229069 0.085577235 0.31189963 184 183 188 -0.447 -0.2499 -0.85890001 0
0.17119379 0.087440036 0.32019517 222 224 226 -0.44170001 -0.46419999 -0.76770002 0
0.16356245 0.089624852 0.32871798 192 103 117 -0.7101 -0.45230001 -0.53960001 0
0.14494786 0.093823045 0.35414049 118 122 127 -0.76599997 -0.2366 -0.5977 0
0.12934658 0.098843567 0.38778338 81 91 87 -0.88749999 -0.077200003 -0.4542 0
0.22727425 0.077698089 0.27352732 197 195 196 -0.41260001 0.1698 -0.89490002 0
0.21981303 0.079025649 0.28132069 217 214 219 -0.48879999 -0.26429999 -0.83139998 0
0.2112518 0.080555327 0.28841865 186 92 108 -0.33050001 -0.28670001 -0.89920002 0
0.20101219 0.08235243 0.29400122 242 232 233 -0.62029999 -0.3096 -0.72070003 0
0.18470782 0.086018525 0.30975553 108 109 113 -0.51899999 -0.18089999 -0.83539999 0
0.17371871 0.087880835 0.31757465 183 185 189 -0.45089999 -0.38119999 -0.8071 0
0.14727895 0.094329029 0.3489424 50 56 61 -0.69190001 -0.26640001 -0.67110002 0
0.14055252 0.096650459 0.36694032 138 142 145 -0.83759999 -0.25 -0.48570001 0
0.13182154 0.099372111 0.38149399 136 143 143 -0.8506 -0.1637 -0.49970001 0
0.12437971 0.10210136 0.40457696 89 96 96 -0.90829998 -0.2436 -0.34020001 0
0.20302857 0.082795762 0.29182562 213 201 203 -0.59530002 -0.1981 -0.77869999 0
0.19365118 0.08445102 0.29958555 184 98 104 -0.50700003 -0.044799998 -0.86080003 0
0.11923874 0.10563141 0.42407852 171 178 178 -0.93730003 0.1029 -0.333 0
0.22210561 0.079391949 0.27998671 231 228 231 -0.51029998 -0.2863 -0.81099999 0
0.21368103 0.080912814 0.28710452 178 85 96 -0.40020001 -0.3021 -0.86519998 0
0.20530809 0.083188638 0.29009259 209 115 135 -0.47710001 -0.15180001 -0.86570001 0
0.19627011 0.084812984 0.29822847 172 60 77 -0.5776 -0.1176 -0.80779999 0
0.18690062 0.086475924 0.30748984 138 140 144 -0.57069999 -0.20829999 -0.79430002 0
0.17562339 0.088397242 0.31406417 174 176 180 -0.4149 -0.30590001 -0.85689998 0
0.16831604 0.090560839 0.32312003 179 178 183 -0.4851 -0.4686 -0.73830003 0
0.15875813 0.092281483 0.33744949 91 96 96 -0.54119998 -0.4253 -0.72539997 0
0.15012443 0.09475486 0.34601536 72 80 86 -0.66729999 -0.37729999 -0.64219999 0
0.14212655 0.097232752 0.35918587 86 90 96 -0.88669997 -0.22229999 -0.40529999 0
0.12688355 0.10257757 0.3969363 57 67 75 -0.90369999 -0.1646 -0.3953 0
0.2233135 0.079925023 0.27696937 159 159 159 -0.36970001 -0.29409999 -0.88139999 0
0.21575902 0.081323989 0.28538004 216 213 214 -0.47440001 -0.30140001 -0.82709998 0
0.18912455 0.08691252 0.30522722 174 171 174 -0.55110002 -0.15800001 -0.81940001 0
0.17880096 0.088722639 0.31315565 224 227 226 -0.50480002 -0.3775 -0.77630001 0
0.17080642 0.090995111 0.3201232 193 193 195 -0.45429999 -0.4109 -0.79040003 0
0.16075343 0.09280169 0.3324112 150 89 96 -0.73509997 -0.39379999 -0.55180001 0
0.15259124 0.095205694 0.34217843 161 165 168 -0.57249999 -0.43689999 -0.69379997 0
0.14414552 0.0977621 0.3531355 109 116 116 -0.8179 -0.1744 -0.54830003 0
0.12871294 0.1030906 0.38693142 74 82 90 -0.90539998 -0.1194 -0.40740001 0
0.12190691 0.10605194 0.41529807 138 145 147 -0.93669999 0.055399999 -0.3457 0
0.22617461 0.080186374 0.27698886 120 120 122 -0.3267 -0.1893 -0.926 0
0.21752048 0.081768326 0.28313872 226 223 227 -0.4747 -0.26809999 -0.83829999 0
0.20783152 0.083533041 0.28890148 194 116 133 -0.3793 -0.21960001 -0.89889997 0
0.19840679 0.085239783 0.29616588 189 88 106 -0.58700001 -0.1513 -0.79540002 0
0.19184788 0.08727327 0.30355531 217 214 217 -0.5036 -0.12819999 -0.85439998 0
0.18137076 0.089124352 0.31120804 239 239 239 -0.47420001 -0.40889999 -0.77969998 0
0.16219637 0.093383208 0.32677761 121 38 46 -0.70730001 -0.4075 -0.5776 0
0.13709025 0.10025806 0.37026048 75 78 84 -0.80610001 -0.16760001 -0.56760001 0
0.21000545 0.083917014 0.2871227 169 92 91 -0.39840001 -0.2595 -0.87980002 0
0.20060456 0.085646503 0.29434764 222 173 180 -0.58990002 -0.14579999 -0.7942 0
0.18454266 0.089430526 0.31027925 175 174 179 -0.41209999 -0.40279999 -0.81720001 0
0.17310885 0.091436364 0.3171564 160 162 164 -0.4118 -0.21179999 -0.88630003 0
0.1534723 0.095865533 0.33500522 255 255 255 -0.35980001 0.046799999 -0.93190002 0
0.1470663 0.098139726 0.34958953 132 136 137 -0.74769998 -0.1823 -0.63849998 0
0.13987465 0.10067578 0.36588752 132 135 141 -0.85699999 -0.18520001 -0.4808 0
0.131662 0.10348634 0.38238069 128 133 134 -0.83590001 -0.0374 -0.54759997 0
0.12351899 0.10653666 0.40374509 166 170 171 -0.92460001 0.015699999 -0.38049999 0
0.21215358 0.084305905 0.28520739 211 204 206 -0.40419999 -0.30700001 -0.86159998 0
0.20239489 0.086100839 0.29173443 124 11 47 -0.60860002 -0.096299998 -0.78759998 0
0.19366741 0.087747455 0.30064663 206 193 193 -0.50470001 -0.14120001 -0.85170001 0
0.17504369 0.091922842 0.31368184 222 224 226 -0.44819999 -0.1691 -0.87779999 0
0.16439341 0.093838707 0.32340288 181 145 155 -0.59329998 -0.366 -0.71700001 0
0.15675174 0.096209496 0.33437333 255 255 255 -0.48550001 0.093999997 -0.86919999 0
0.14981256 0.098552495 0.34655237 134 139 139 -0.8064 -0.221 -0.5485 0
0.14215878 0.10113443 0.36047655 118 122 125 -0.89170003 -0.1032 -0.44080001 0
0.12004019 0.11017838 0.42942759 162 166 169 -0.94940001 0.164 -0.26789999 0
0.23020215 0.080978557 0.27381557 159 156 157 -0.082999997 -0.079599999 -0.99339998 0
0.22082016 0.082669668 0.27844253 195 192 195 -0.47600001 -0.2216 -0.85110003 0
0.19575562 0.088168368 0.29845005 193 100 113 -0.62800002 -0.1169 -0.7694 0
0.18659142 0.089882083 0.3073298 218 217 220 -0.46329999 -0.38929999 -0.79610002 0
0.16702658 0.094240263 0.32116628 196 193 196 -0.48100001 -0.32699999 -0.81339997 0
0.13430956 0.10389645 0.37673858 100 101 105 -0.81150001 -0.0372 -0.58310002 0
0.12633766 0.10690217 0.39678037 135 142 142 -0.90750003 0.017999999 -0.41980001 0
0.22270133 0.083076991 0.27658889 199 197 200 -0.38510001 -0.2209 -0.89600003 0
0.21420757 0.084689796 0.28339857 152 147 153 -0.4831 -0.29660001 -0.82380003 0
0.20438755 0.08650919 0.2897782 191 97 111 -0.51239997 -0.054699998 -0.85699999 0
0.17834781 0.092213862 0.31318036 233 233 233 -0.55059999 -0.2436 -0.7985 0
0.15962578 0.09655159 0.33087617 177 175 174 -0.81190002 0.019200001 -0.58350003 0
0.15168315 0.099028356 0.34122053 138 140 142 -0.78140002 -0.1169 -0.61299998 0
0.13716823 0.10427792 0.372316 97 101 106 -0.82630002 0.0094999997 -0.5632 0
0.12921366 0.1072519 0.39054754 83 92 96 -0.91500002 0.082000002 -0.3951 0
0.12190159 0.11054165 0.41732895 174 178 179 -0.92449999 0.2148 -0.315 0
0.21627194 0.085070632 0.28175279 99 97 100 -0.53969997 -0.2554 -0.80220002 0
0.20709574 0.086814605 0.28872877 184 152 163 -0.47350001 -0.062799998 -0.8786 0
0.19763798 0.088600636 0.29565877 199 118 125 -0.55919999 -0.1249 -0.81959999 0
0.18823379 0.090376638 0.30386245 224 221 226 -0.52899998 -0.37009999 -0.76370001 0
0.18026336 0.092668302 0.31009188 204 206 210 -0.45339999 -0.35030001 -0.81959999 0
0.17015417 0.094558515 0.31974211 219 218 221 -0.4472 -0.2809 -0.84909999 0
0.16196078 0.096971594 0.32727239 188 121 130 -0.82889998 -0.1058 -0.54939997 0
0.1443841 0.10154866 0.35477138 120 124 127 -0.8265 -0.072300002 -0.5582 0
0.11847302 0.11465736 0.44807324 238 240 244 -0.9109 0.0823 -0.4043 0
0.20910276 0.087205015 0.28653982 211 163 177 -0.53680003 -0.1235 -0.83459997 0
0.19128172 0.090669915 0.30312827 195 160 167 -0.44530001 -0.36739999 -0.81650001 0
0.18276252 0.093043514 0.30805296 219 218 223 -0.3044 -0.35339999 -0.88459998 0
0.1773853 0.095111109 0.31956017 255 255 255 -0.43759999 -0.29730001 -0.84859997 0
0.17309497 0.094901912 0.31805006 238 240 242 -0.38420001 -0.27599999 -0.88099998 0
0.15398848 0.099442802 0.33680436 200 200 200 -0.55909997 0.0011 -0.82910001 0
0.14716309 0.10192897 0.35125116 132 135 141 -0.76980001 -0.0265 -0.63779998 0
0.14026779 0.10461318 0.36850274 96 97 104 -0.85409999 -0.0176 -0.51980001 0
0.12357452 0.11089753 0.405655 140 144 147 -0.89380002 0.31869999 -0.31560001 0
0.12070591 0.11486543 0.43490279 111 120 124 -0.95709997 0.0451 -0.2861 0
0.20282818 0.08926183 0.29337436 201 115 126 -0.57569999 -0.1837 -0.7967 0
0.19428848 0.090974636 0.30256695 205 121 136 -0.43340001 -0.42309999 -0.79570001 0
0.16378731 0.097433977 0.32295948 225 134 151 -0.65020001 -0.046500001 -0.75830001 0
0.1581483 0.099704295 0.33829513 255 255 255 -0.405 0.1517 -0.90170002 0
0.13069177 0.10766869 0.38092896 153 157 158 -0.81480002 0.14560001 -0.56120002 0
0.12662783 0.11118147 0.39921111 173 177 180 -0.87019998 0.3109 -0.38229999 0
0.2307774 0.083919346 0.27463958 177 175 178 -0.079499997 -0.1523 -0.98509997 0
0.22041872 0.085801706 0.27865142 177 175 178 -0.44839999 -0.046 -0.89270002 0
0.21212244 0.087455012 0.28626704 235 230 232 -0.53200001 -0.1802 -0.82740003 0
0.20461404 0.089679085 0.29106086 144 36 68 -0.4562 -0.14390001 -0.87819999 0
0.19616605 0.091400497 0.29995662 175 89 100 -0.53909999 -0.3563 -0.76310003 0
0.18604511 0.093315691 0.30725431 244 244 246 -0.34630001 -0.25569999 -0.90259999 0
0.16639814 0.09779606 0.32035932 172 138 152 -0.51169997 0.053199999 -0.85750002 0
0.16003592 0.10013136 0.33317086 171 171 173 -0.79659998 -0.056600001 -0.60180002 0
0.14969149 0.10231862 0.34760913 143 148 151 -0.7809 0.0068000001 -0.62459999 0
0.14223462 0.10501257 0.36187896 112 121 123 -0.86589998 0.0515 -0.4975 0
0.13410614 0.10801192 0.37845349 145 147 151 -0.77200001 0.21179999 -0.59920001 0
0.12266105 0.11510991 0.4228926 114 120 125 -0.92000002 0.0616 -0.38699999 0
0.22296733 0.086100318 0.27777067 172 168 174 -0.50199997 -0.025 -0.86449999 0
0.21444783 0.087793738 0.28492785 223 220 221 -0.49950001 -0.1937 -0.84439999 0
0.1787415 0.095601819 0.31512356 173 175 179 -0.62449998 -0.33520001 -0.70539999 0
0.14396228 0.10540516 0.35441262 73 75 79 -0.84469998 0.073899999 -0.52999997 0
0.13688527 0.1083508 0.37369925 93 99 102 -0.81080002 0.24339999 -0.5323 0
0.1293091 0.11147592 0.39263773 130 136 141 -0.88300002 0.27340001 -0.38150001 0
0.11867359 0.119404 0.44932219 255 255 255 -0.92549998 0.094599999 -0.36669999 0
0.21625191 0.088183321 0.28286108 195 192 195 -0.48539999 -0.1856 -0.85430002 0
0.2073319 0.089970671 0.28990489 201 183 185 -0.3822 -0.081900001 -0.92040002 0
0.19812383 0.09179192 0.29688045 169 151 166 -0.43279999 -0.33379999 -0.83749998 0
0.18864407 0.093652941 0.30519843 173 142 155 -0.55699998 -0.20020001 -0.80599999 0
0.17945486 0.096146122 0.30949676 193 194 198 -0.54699999 -0.31020001 -0.77759999 0
0.16903675 0.098158434 0.31821772 255 255 255 -0.48640001 0.061000001 -0.87159997 0
0.15136877 0.10274793 0.34148577 165 167 168 -0.73589998 0.065800004 -0.67390001 0
0.12522811 0.11532461 0.4137482 141 148 148 -0.884 0.2158 -0.4147 0
0.21805376 0.088567935 0.28069964 208 200 208 -0.48320001 -0.14399999 -0.86360002 0
0.20944686 0.090328977 0.28796393 229 208 208 -0.53390002 -0.1488 -0.83230001 0
0.20154402 0.092022337 0.29700494 229 224 226 -0.4738 -0.2748 -0.83670002 0
0.18970379 0.094163507 0.30110332 185 147 167 -0.50340003 -0.20829999 -0.83859998 0
0.18234204 0.096450046 0.30774754 118 116 124 -0.31130001 -0.25279999 -0.91610003 0
0.17152853 0.098537296 0.31645063 226 225 228 -0.4375 -0.082500003 -0.89539999 0
0.16106494 0.10061074 0.32638171 123 111 117 -0.69929999 -0.043299999 -0.71359998 0
0.15392826 0.10312613 0.33840108 178 180 179 -0.51959997 0.0726 -0.8513 0
0.14634548 0.1057509 0.34961575 122 123 127 -0.78079998 0.1699 -0.6013 0
0.13927375 0.10863121 0.36680052 128 129 133 -0.81309998 0.27700001 -0.51200002 0
0.1307347 0.11180557 0.38260502 174 176 180 -0.77670002 0.32359999 -0.54040003 0
0.2271979 0.086789601 0.27475449 151 151 153 -0.26390001 -0.0513 -0.96319997 0
0.21120121 0.090718664 0.28594595 210 200 204 -0.58679998 -0.2454 -0.77170002 0
0.19302429 0.094423115 0.3012 148 142 146 -0.47479999 -0.29969999 -0.82749999 0
0.16374163 0.10096047 0.32386547 209 136 140 -0.5733 0.099699996 -0.81330001 0
0.15800278 0.10339146 0.33908948 255 255 255 -0.48809999 0.0243 -0.87239999 0
0.1347824 0.11210471 0.38195005 176 180 183 -0.6846 0.4316 -0.58740002 0
0.12780079 0.11555542 0.40586421 162 166 171 -0.77149999 0.40200001 -0.4932 0
0.12092739 0.11958127 0.43823057 167 171 174 -0.96130002 -0.0137 -0.27520001 0
0.22971079 0.087087445 0.27383405 170 170 172 -0.088799998 0.0105 -0.99599999 0
0.22030006 0.088894427 0.2792941 214 207 210 -0.41749999 -0.1463 -0.89679998 0
0.20236951 0.092532724 0.2933836 185 180 184 -0.50199997 -0.2649 -0.8233 0
0.19501615 0.094804227 0.29871169 220 218 219 -0.53729999 -0.39660001 -0.74430001 0
0.18560351 0.096714772 0.3069396 218 215 219 -0.29539999 -0.1797 -0.93830001 0
0.17542836 0.098754168 0.31677794 99 100 106 -0.49810001 -0.17039999 -0.8502 0
0.16674179 0.10127089 0.32212904 143 46 72 -0.523 0.1874 -0.83149999 0
0.14896218 0.1060963 0.34601533 132 134 138 -0.72509998 0.3105 -0.6146 0
0.14162809 0.10894852 0.36103722 117 124 126 -0.79479998 0.34040001 -0.50230002 0
0.12326954 0.11975364 0.42790437 155 159 164 -0.92019999 0.0013 -0.3915 0
0.22329848 0.089133501 0.27907956 233 231 232 -0.46290001 -0.1549 -0.87279999 0
0.2131118 0.091078423 0.28390238 219 216 220 -0.49419999 -0.30559999 -0.81379998 0
0.20435877 0.092902131 0.29121915 203 113 132 -0.39019999 -0.271 -0.87989998 0
0.18788439 0.097075753 0.30481818 233 231 232 -0.54729998 -0.18529999 -0.8161 0
0.17711237 0.099180266 0.31265154 217 216 221 -0.5948 -0.1437 -0.79089999 0
0.16972277 0.10160422 0.32104665 231 228 229 -0.61510003 0.17919999 -0.76779997 0
0.15137371 0.10646603 0.34244379 69 73 76 -0.6652 0.37779999 -0.64399999 0
0.14466056 0.10926948 0.35829177 123 130 132 -0.79710001 0.3743 -0.47389999 0
0.13755518 0.11237721 0.37687936 156 162 165 -0.72229999 0.4596 -0.51679999 0
0.12968719 0.11576911 0.39605543 171 175 179 -0.7852 0.4664 -0.40740001 0
0.22443147 0.089578211 0.27634391 192 190 193 -0.4578 -0.127 -0.87989998 0
0.21574518 0.091363743 0.28307894 236 231 235 -0.38060001 -0.30540001 -0.87290001 0
0.20707816 0.093188286 0.2902987 172 84 105 -0.3752 -0.1961 -0.9059 0
0.19717495 0.095156573 0.29636407 218 138 158 -0.4226 -0.4129 -0.80680001 0
0.16000943 0.1037678 0.33471239 255 255 255 -0.81650001 -0.040100001 -0.57599998 0
0.12619545 0.11987034 0.41949466 106 112 115 -0.9012 0.0022 -0.43329999 0
0.21816865 0.091654204 0.2816197 184 112 123 -0.37490001 -0.2396 -0.89560002 0
0.20938134 0.093511842 0.28896487 255 251 254 -0.57749999 -0.22930001 -0.78350002 0
0.19980617 0.095460899 0.29529265 214 204 198 -0.48789999 -0.3545 -0.79769999 0
0.18932201 0.097523876 0.30178395 218 217 220 -0.602 -0.1714 -0.77990001 0
0.17854433 0.099604294 0.30847189 206 205 210 -0.54299998 -0.0889 -0.83499998 0
0.17191787 0.10197537 0.31817067 255 255 255 -0.70700002 0.063600004 -0.7044 0
0.15382278 0.10680766 0.33906272 136 137 141 -0.60699999 0.37779999 -0.69910002 0
0.14699572 0.10959484 0.35362267 86 91 92 -0.74769998 0.41409999 -0.51920003 0
0.13991132 0.11263438 0.37042293 114 120 123 -0.7403 0.4804 -0.47029999 0
0.13148874 0.1159912 0.38708436 154 158 161 -0.71069998 0.4425 -0.54689997 0
0.12064449 0.12435391 0.43959501 167 174 176 -0.96569997 -0.0125 -0.25920001 0
0.22656785 0.089903824 0.27495438 187 187 189 -0.26179999 -0.070100002 -0.96259999 0
0.21095897 0.093890183 0.28631169 193 188 192 -0.67970002 -0.23370001 -0.69520003 0
0.20112824 0.095877834 0.29217795 224 219 223 -0.46129999 -0.2291 -0.85710001 0
0.19179933 0.097842231 0.30010745 251 248 249 -0.59960002 -0.14569999 -0.787 0
0.18199067 0.099874005 0.30848905 255 255 255 -0.42539999 -0.025699999 -0.90460002 0
0.17449492 0.10228913 0.31557342 215 217 219 -0.66900003 0.0306 -0.74269998 0
0.15755489 0.10709591 0.33895263 219 219 219 -0.65759999 0.3594 -0.66210002 0
0.14965013 0.10986383 0.34934488 149 155 150 -0.65820003 0.4456 -0.60680002 0
0.14291364 0.11291622 0.36681128 153 157 160 -0.69029999 0.54659998 -0.47409999 0
0.135507 0.1163257 0.38682526 146 149 155 -0.66000003 0.48390001 -0.57459998 0
0.12899174 0.12006012 0.41248491 163 167 170 -0.83090001 0.077699997 -0.551 0
0.22920975 0.090178378 0.27433011 141 135 139 -0.067900002 0.035799999 -0.99699998 0
0.22031242 0.091974482 0.28004757 220 202 210 -0.39770001 -0.2377 -0.88620001 0
0.1854921 0.10012869 0.30852091 253 252 255 -0.3427 -0.0592 -0.93760002 0
0.16715628 0.10477433 0.32409844 200 108 127 -0.5431 0.2823 -0.79079998 0
0.1330557 0.12032823 0.41024962 143 149 154 -0.80360001 0.1471 -0.57660002 0
0.12306187 0.12434039 0.4287346 144 151 153 -0.90920001 0.023499999 -0.41580001 0
0.22271027 0.092270412 0.27912062 248 246 249 -0.48769999 -0.28080001 -0.82660002 0
0.21236321 0.094273411 0.28343299 219 216 220 -0.52829999 -0.2236 -0.81910002 0
0.20335239 0.096193247 0.29029793 125 84 87 -0.32600001 -0.1657 -0.9307 0
0.19356364 0.09820351 0.29705614 213 211 214 -0.57840002 -0.2123 -0.7877 0
0.18805903 0.10043644 0.30653387 196 195 198 -0.50480002 -0.1812 -0.84399998 0
0.1767945 0.10261568 0.31275383 199 199 201 -0.59920001 0.1258 -0.79070002 0
0.1582267 0.10747521 0.33110046 255 255 255 -0.7234 0.32409999 -0.60960001 0
0.15310371 0.11016493 0.34820503 86 90 94 -0.63889998 0.45320001 -0.62159997 0
0.14540656 0.11318538 0.36202762 109 113 116 -0.71960002 0.5255 -0.45390001 0
0.1382238 0.11652057 0.38088396 153 157 160 -0.68589997 0.4984 -0.53030002 0
0.2243011 0.092643805 0.27712932 227 225 226 -0.42750001 -0.3452 -0.8355 0
0.21528323 0.09451402 0.28295493 223 220 223 -0.37580001 -0.2054 -0.90369999 0
0.20621248 0.096455187 0.28973386 179 69 85 -0.39250001 -0.1587 -0.9059 0
0.19668435 0.098457575 0.29654118 169 129 140 -0.4461 -0.19499999 -0.87349999 0
0.17910753 0.10294946 0.31023544 213 213 215 -0.52630001 0.1355 -0.83939999 0
0.17004843 0.10509707 0.32278386 189 104 123 -0.65799999 0.1454 -0.73890001 0
0.16099496 0.10777122 0.32861421 255 255 255 -0.66070002 0.3664 -0.65509999 0
0.15501392 0.110499 0.34337723 117 119 121 -0.66900003 0.46219999 -0.58200002 0
0.14785562 0.11347625 0.35776076 151 153 157 -0.72329998 0.51059997 -0.46489999 0
0.14118944 0.11671966 0.37601718 138 140 144 -0.65960002 0.52609998 -0.53689998 0
0.12573887 0.12438682 0.41988608 91 95 98 -0.8955 0.0031000001 -0.44510001 0
0.22662346 0.092942595 0.27608508 220 218 221 -0.2157 -0.37920001 -0.8998 0
0.20889501 0.096727908 0.28894165 191 89 114 -0.59920001 -0.25760001 -0.75800002 0
0.1987728 0.098783553 0.29446879 163 156 158 -0.52530003 -0.25229999 -0.81260002 0
0.19013195 0.10078144 0.30415365 194 194 198 -0.6027 -0.14560001 -0.78460002 0
0.17241986 0.1054185 0.31996578 217 212 216 -0.73949999 0.064400002 -0.67009997 0
0.12154107 0.12933978 0.44663486 166 173 175 -0.96719998 -0.1411 -0.211 0
0.21742335 0.094822079 0.28136531 185 178 182 -0.35389999 -0.2095 -0.91149998 0
0.192517 0.10109751 0.30229947 222 222 226 -0.66610003 -0.079000004 -0.74159998 0
0.18125215 0.1032879 0.30786064 214 213 218 -0.53079998 0.1293 -0.83759999 0
0.15761262 0.11080103 0.34046295 114 118 122 -0.66460001 0.49149999 -0.56279999 0
0.15004148 0.11373331 0.35256663 109 110 117 -0.69739997 0.44440001 -0.56220001 0
0.14435592 0.11697748 0.37294447 156 162 165 -0.64569998 0.57230002 -0.50559998 0
0.13666926 0.12060132 0.39220357 117 120 128 -0.71079999 0.45789999 -0.53390002 0
0.1287701 0.12455102 0.41400313 178 183 184 -0.88069999 -0.0174 -0.47330001 0
0.22929135 0.093211077 0.27566305 219 216 220 0.098899998 -0.2262 -0.96899998 0
0.21953201 0.095135115 0.27986753 75 63 72 -0.4619 -0.2237 -0.85829997 0
0.21044816 0.097074181 0.28611347 180 175 177 -0.63169998 -0.25619999 -0.7317 0
0.20410109 0.099345438 0.29243544 255 255 255 -0.30739999 -0.21870001 -0.92610002 0
0.20084207 0.099107474 0.29249018 255 255 255 -0.47760001 -0.23270001 -0.84719998 0
0.18399036 0.10358197 0.30650708 115 111 117 -0.41960001 0.0986 -0.90240002 0
0.17450154 0.105734 0.31649008 198 197 202 -0.70410001 0.062199999 -0.70730001 0
0.16740614 0.10833951 0.32627577 220 150 171 -0.6056 0.32480001 -0.72649997 0
0.15992479 0.11107253 0.33625162 255 255 255 -0.68510002 0.47549999 -0.55180001 0
0.15375236 0.11401506 0.35181251 158 160 159 -0.66579998 0.4339 -0.60699999 0
0.14672202 0.11720739 0.36761352 119 123 126 -0.67220002 0.59189999 -0.4447 0
0.13936076 0.12074067 0.38607675 154 156 162 -0.71270001 0.3937 -0.58060002 0
0.1321786 0.12470003 0.40918446 155 161 164 -0.83530003 -0.1172 -0.53719997 0
0.1233199 0.1290319 0.43167081 164 168 172 -0.91409999 -0.0242 -0.4048 0
0.22134016 0.095453493 0.27770835 124 118 127 -0.54729998 -0.26269999 -0.79460001 0
0.21212342 0.097397961 0.28327376 195 192 195 -0.52340001 -0.19230001 -0.8301 0
0.19382799 0.10144918 0.29819191 196 193 196 -0.61629999 -0.080499999 -0.7834 0
0.17678201 0.10604291 0.31362993 233 232 235 -0.52539998 0.1751 -0.83270001 0
0.16951564 0.10865014 0.32283503 176 74 95 -0.67369998 0.26069999 -0.69150001 0
0.16339129 0.11134707 0.33531037 255 255 255 -0.64300001 0.50410002 -0.5765 0
0.2144677 0.097670682 0.28186184 181 178 181 -0.38429999 -0.1147 -0.91610003 0
0.20622005 0.099654786 0.29081354 255 254 249 -0.38929999 -0.29539999 -0.8725 0
0.19592018 0.10176232 0.29613507 220 220 222 -0.5244 -0.0307 -0.85089999 0
0.18685041 0.10384379 0.30497271 169 168 173 -0.4048 0.062199999 -0.91229999 0
0.18038763 0.10631476 0.31387132 183 182 187 -0.48429999 0.243 -0.8405 0
0.15619928 0.11426236 0.34772208 158 160 159 -0.6796 0.39739999 -0.61669999 0
0.14920132 0.1174501 0.36314461 116 119 125 -0.71569997 0.5704 -0.40310001 0
0.1426308 0.12095496 0.38254231 137 138 145 -0.70039999 0.3468 -0.62379998 0
0.13438375 0.12476856 0.40095696 134 138 143 -0.85280001 -0.0296 -0.52139997 0
0.12613556 0.12901835 0.42337155 104 108 111 -0.90179998 0.017999999 -0.43189999 0
0.22355148 0.095744833 0.27639583 157 152 156 -0.46759999 -0.35890001 -0.80779999 0
0.21703941 0.09793815 0.2811085 195 192 193 -0.37540001 -0.1078 -0.9206 0
0.20814337 0.099949047 0.28831297 243 236 241 -0.58780003 -0.3644 -0.72229999 0
0.18894838 0.10414489 0.30223307 233 232 235 -0.54549998 0.050900001 -0.83660001 0
0.17199427 0.10891101 0.319704 254 229 228 -0.70499998 0.27680001 -0.65289998 0
0.16572867 0.11161491 0.33178923 172 168 174 -0.6124 0.50080001 -0.6117 0
0.15881453 0.11453696 0.34450069 255 255 255 -0.65509999 0.4454 -0.6103 0
0.14582109 0.12121606 0.37960154 156 160 164 -0.67049998 0.31650001 -0.671 0
0.13767622 0.12491433 0.39650312 128 132 138 -0.84619999 -0.024900001 -0.5323 0
0.12907802 0.12909994 0.4169161 120 124 127 -0.88590002 -0.0038000001 -0.4639 0
0.12112653 0.13416694 0.44754505 194 198 199 -0.96399999 -0.1918 -0.1839 0
0.22612149 0.096019194 0.27598697 179 176 179 -0.26370001 -0.43189999 -0.86250001 0
0.21035087 0.10023724 0.28671932 245 242 245 -0.53509998 -0.38409999 -0.75239998 0
0.19150457 0.10443467 0.30086631 191 190 195 -0.65539998 0.1256 -0.74479997 0
0.18225148 0.10662985 0.31062227 195 192 197 -0.65679997 0.19840001 -0.72750002 0
0.17447028 0.1092049 0.31733572 220 205 213 -0.62059999 0.33669999 -0.70810002 0
0.15149663 0.11766317 0.35814685 146 148 152 -0.73040003 0.52060002 -0.44209999 0
0.22786656 0.096344858 0.27424648 187 184 187 0.062700003 -0.4312 -0.90009999 0
0.2198626 0.098184347 0.28075412 212 209 213 -0.4571 -0.095600002 -0.88419998 0
0.18427114 0.10691606 0.30748603 244 244 246 -0.61360002 0.22579999 -0.75669998 0
0.16762394 0.11192393 0.32806507 114 107 111 -0.62720001 0.48370001 -0.61049998 0
0.16119567 0.11478906 0.3407639 255 255 255 -0.65329999 0.50199997 -0.56669998 0
0.15450311 0.11788123 0.35507932 182 184 186 -0.69190001 0.4975 -0.52319998 0
0.14855203 0.12140288 0.3750675 134 138 143 -0.66589999 0.3486 -0.65960002 0
0.14006165 0.12494953 0.38917127 92 97 105 -0.81379998 0.084899999 -0.57489997 0
0.13181184 0.1291132 0.40975249 138 142 145 -0.85790002 -0.0427 -0.51200002 0
0.12304951 0.1337153 0.43304232 124 131 133 -0.90869999 -0.17020001 -0.38119999 0
0.21270782 0.10049767 0.28519204 226 225 228 -0.4217 -0.32769999 -0.84549999 0
0.20339867 0.10259193 0.29218927 136 130 139 -0.30180001 -0.2658 -0.9156 0
0.19371758 0.10470986 0.29845995 112 114 120 -0.61659998 0.1665 -0.76950002 0
0.18697454 0.1071904 0.30597597 211 210 213 -0.45519999 0.25189999 -0.85399997 0
0.17644572 0.10949171 0.31404197 204 203 206 -0.4675 0.3646 -0.8053 0
0.17032248 0.1121968 0.32573599 175 83 105 -0.60360003 0.48809999 -0.6304 0
0.15149115 0.12159169 0.37114754 88 91 97 -0.69239998 0.31369999 -0.64969999 0
0.21452801 0.10078937 0.28304479 101 97 105 -0.32370001 -0.23810001 -0.91570002 0
0.20589577 0.10287379 0.29134601 215 212 215 -0.41769999 -0.34999999 -0.83850002 0
0.19590506 0.10499507 0.29644096 158 158 162 -0.56950003 0.175 -0.80320001 0
0.19003424 0.10745423 0.30521405 201 201 203 -0.53299999 0.2137 -0.81870002 0
0.17991161 0.10976996 0.31406614 185 184 189 -0.4673 0.4021 -0.78740001 0
0.16361803 0.11501069 0.33701164 138 139 146 -0.63620001 0.52289999 -0.56730002 0
0.15656514 0.1180433 0.34945109 228 230 229 -0.67119998 0.42590001 -0.6067 0
0.14332782 0.1252218 0.38659781 91 95 100 -0.76389998 -0.042399999 -0.64399999 0
0.13448556 0.12916495 0.40319109 120 126 131 -0.83520001 -0.14820001 -0.52969998 0
0.12630096 0.13369042 0.42629549 130 136 141 -0.89579999 -0.2112 -0.39120001 0
0.21663329 0.10106897 0.2815395 188 183 189 -0.32910001 -0.2375 -0.91390002 0
0.20737305 0.10315121 0.28782392 160 156 157 -0.57359999 -0.30840001 -0.75889999 0
0.1987403 0.10525848 0.2957789 167 164 169 -0.64499998 0.1875 -0.74080002 0
0.18221481 0.11004134 0.31150171 196 195 200 -0.67769998 0.2816 -0.67930001 0
0.17280398 0.11241666 0.32244152 164 69 92 -0.60820001 0.50760001 -0.6103 0
0.16609825 0.11528002 0.33400908 177 171 175 -0.65570003 0.52319998 -0.54439998 0
0.15973629 0.11836548 0.34837011 255 255 255 -0.62120003 0.414 -0.66540003 0
0.15331841 0.12170583 0.36448911 180 182 184 -0.71520001 0.4795 -0.50849998 0
0.14668582 0.12545073 0.3839584 119 123 126 -0.74409997 -0.12549999 -0.65619999 0
0.13827309 0.12933728 0.40034884 92 96 99 -0.82700002 -0.26010001 -0.4984 0
0.22472207 0.099128477 0.27422085 185 184 189 -0.48500001 -0.1111 -0.86739999 0
0.19185397 0.1077434 0.3024281 217 216 219 -0.60280001 0.25999999 -0.75440001 0
0.17504248 0.11268582 0.31957486 149 85 102 -0.58249998 0.54280001 -0.60509998 0
0.16832563 0.11554012 0.33074072 162 80 92 -0.64709997 0.5284 -0.54960001 0
0.12904683 0.13362391 0.41871285 119 123 128 -0.8628 -0.2296 -0.45050001 0
0.22648056 0.099452019 0.27282143 223 220 221 -0.1027 -0.13500001 -0.98549998 0
0.21909192 0.10132068 0.28041351 115 112 115 -0.3506 -0.27320001 -0.89579999 0
0.20892714 0.10344221 0.28529146 180 179 186 -0.5151 -0.27669999 -0.81120002 0
0.19977461 0.10556249 0.29191488 204 203 206 -0.60140002 0.039799999 -0.79799998 0
0.19381227 0.10801418 0.29983956 230 230 232 -0.54729998 0.31940001 -0.77359998 0
0.18459558 0.11028422 0.30893135 212 211 214 -0.65630001 0.2157 -0.72299999 0
0.16246229 0.11861037 0.34550348 254 253 255 -0.67619997 0.435 -0.59450001 0
0.15515605 0.12183759 0.35845724 133 136 135 -0.7676 0.46450001 -0.44150001 0
0.14959516 0.12558754 0.37947661 143 144 148 -0.69209999 -0.2025 -0.69279999 0
0.14077133 0.1293485 0.3936334 78 79 85 -0.7773 -0.32879999 -0.53649998 0
0.13163853 0.13353667 0.41080135 126 130 135 -0.83700001 -0.28709999 -0.46579999 0
0.12322756 0.13850372 0.43597004 117 123 128 -0.92650002 -0.1662 -0.33770001 0
0.22129816 0.10159189 0.27909064 204 203 206 -0.47639999 -0.2246 -0.85009998 0
0.21145895 0.10369552 0.2843191 213 213 215 -0.41389999 -0.28510001 -0.86449999 0
0.20213383 0.10582358 0.2904228 205 204 207 -0.45829999 0.056200001 -0.88700002 0
0.19619475 0.10827557 0.29811659 211 211 211 -0.5302 0.32350001 -0.78369999 0
0.18737806 0.11055469 0.30776554 189 188 191 -0.42469999 0.29789999 -0.8549 0
0.17698571 0.11295126 0.31618655 212 211 214 -0.52329999 0.51980001 -0.6753 0
0.1710048 0.11577842 0.32826409 182 100 114 -0.5758 0.56819999 -0.58789998 0
0.16487111 0.11877599 0.34121037 122 117 121 -0.63840002 0.4698 -0.60970002 0
0.15304272 0.12579678 0.37695476 107 112 113 -0.70590001 -0.1736 -0.68669999 0
0.23031737 0.099621721 0.2735759 152 147 149 0.1068 -0.24349999 -0.96399999 0
0.22273889 0.10188732 0.27662346 219 216 220 -0.56779999 -0.1138 -0.81519997 0
0.21408132 0.10393684 0.28339788 187 184 187 -0.34310001 -0.24169999 -0.9077 0
0.20487463 0.10607655 0.28986725 197 197 197 -0.4752 0.021199999 -0.87959999 0
0.19082023 0.11080324 0.30767426 146 147 156 -0.44580001 0.27169999 -0.85290003 0
0.18062001 0.11322735 0.31642631 196 195 200 -0.50260001 0.5072 -0.7001 0
0.17356731 0.11599743 0.32537395 246 242 243 -0.53390002 0.60219997 -0.59359998 0
0.14339207 0.12943737 0.38827717 151 153 157 -0.75590003 -0.3037 -0.57999998 0
0.13450725 0.13355419 0.40483946 113 119 122 -0.79320002 -0.3716 -0.4824 0
0.12619264 0.13831994 0.42790651 154 160 162 -0.89480001 -0.3075 -0.32359999 0
0.21646313 0.10419213 0.28233111 244 241 242 -0.33430001 -0.26589999 -0.90420002 0
0.20676643 0.10633148 0.28753361 212 211 216 -0.58590001 0.073600002 -0.8071 0
0.19861187 0.10851886 0.29645038 182 181 184 -0.65390003 0.36000001 -0.66540003 0
0.18334748 0.11348661 0.31484565 244 244 246 -0.59960002 0.47170001 -0.64649999 0
0.16768247 0.11902362 0.33895198 183 133 141 -0.63609999 0.4657 -0.61519998 0
0.16086648 0.12224148 0.35216361 255 255 255 -0.69739997 0.3328 -0.6347 0
0.1546597 0.12583384 0.36969772 110 113 110 -0.64789999 0.0029 -0.76179999 0
0.22437559 0.10217407 0.27444598 212 210 211 -0.47920001 0.051199999 -0.87620002 0
0.19978714 0.10877687 0.29271132 212 209 215 -0.66589999 0.34470001 -0.66159999 0
0.19251274 0.11107258 0.30466244 164 163 168 -0.58410001 0.27720001 -0.76289999 0
0.17618938 0.11625163 0.3232533 203 202 205 -0.58600003 0.58490002 -0.56080002 0
0.17012627 0.11924898 0.33584374 181 96 111 -0.66860002 0.45550001 -0.58780003 0
0.15726091 0.12597649 0.36534303 255 255 255 -0.4258 0.0383 -0.90399998 0
0.14540119 0.12941299 0.38105261 89 91 95 -0.73540002 -0.32980001 -0.59189999 0
0.13691776 0.13345319 0.39743564 31 39 45 -0.73830003 -0.55299997 -0.38609999 0
0.12815784 0.13792719 0.41659585 128 132 136 -0.8326 -0.34869999 -0.43040001 0
0.22649822 0.10245252 0.27335635 218 215 219 -0.189 0.080600001 -0.97869998 0
0.21848123 0.10444827 0.28065348 169 167 168 -0.41150001 -0.35870001 -0.83780003 0
0.20837261 0.10658345 0.28480944 223 223 226 -0.56349999 0.15189999 -0.81199998 0
0.19440196 0.11132299 0.30197558 143 142 147 -0.54110003 0.33930001 -0.76950002 0
0.1852307 0.11369433 0.31119955 206 205 210 -0.56569999 0.47369999 -0.67500001 0
0.17924565 0.11648671 0.32174358 183 182 185 -0.59109998 0.56029999 -0.58020002 0
0.17267112 0.11945259 0.3328338 167 154 166 -0.61269999 0.4452 -0.653 0
0.16350895 0.12240952 0.34861487 132 127 131 -0.64520001 0.2489 -0.72229999 0
0.14837749 0.12955749 0.37730637 113 118 118 -0.7216 -0.4409 -0.53380001 0
0.22839063 0.10273759 0.27182674 149 141 148 -0.15180001 0.069200002 -0.986 0
0.22101206 0.10469997 0.27995268 156 150 155 -0.42750001 -0.3619 -0.82840002 0
0.21078181 0.10682788 0.28373763 203 200 205 -0.4975 0.17309999 -0.85000002 0
0.2022863 0.10901287 0.29139447 205 204 209 -0.59289998 0.34439999 -0.72790003 0
0.19773394 0.11155994 0.30174413 218 215 223 -0.53390002 0.35249999 -0.76859999 0
0.18676776 0.11392128 0.30749968 208 210 214 -0.43599999 0.4425 -0.78359997 0
0.18199824 0.116735 0.32008061 208 208 212 -0.6056 0.47979999 -0.63480002 0
0.16617866 0.12262078 0.34566483 180 108 114 -0.66710001 0.21600001 -0.713 0
0.13948314 0.13344827 0.39133883 91 95 100 -0.68580002 -0.5916 -0.42399999 0
0.1316746 0.13802224 0.41265824 120 124 129 -0.81950003 -0.36970001 -0.43790001 0
0.22301355 0.10495447 0.27815837 118 113 117 -0.37349999 -0.30180001 -0.87709999 0
0.20479114 0.10924925 0.2902106 130 126 132 -0.54390001 0.34110001 -0.76670003 0
0.19010237 0.1141858 0.30736968 223 223 226 -0.39829999 0.49419999 -0.77280003 0
0.17570828 0.11968926 0.33115917 169 168 173 -0.49439999 0.4077 -0.76770002 0
0.16923566 0.12286253 0.34376776 158 84 93 -0.69199997 0.16329999 -0.70319998 0
0.15176696 0.12972414 0.37461576 22 27 26 -0.66689998 -0.57560003 -0.47310001 0
0.14259084 0.133543 0.38732409 92 93 99 -0.66530001 -0.53030002 -0.5255 0
0.1251397 0.14265405 0.42528629 159 163 164 -0.93150002 -0.21870001 -0.2906 0
0.21265092 0.10706193 0.28162956 125 122 125 -0.4174 0.1375 -0.89829999 0
0.20715711 0.10947962 0.28878236 158 160 161 -0.50580001 0.3301 -0.79699999 0
0.19943736 0.11178739 0.29878926 214 214 216 -0.62330002 0.35949999 -0.69450003 0
0.18347898 0.11695024 0.31613618 206 203 209 -0.579 0.4774 -0.66100001 0
0.1786961 0.11993472 0.32958552 179 178 183 -0.62410003 0.2473 -0.74119997 0
0.15414809 0.12974589 0.36909005 235 237 236 -0.41260001 -0.57539999 -0.70609999 0
0.145383 0.1335818 0.38240066 127 132 132 -0.64520001 -0.5352 -0.54519999 0
0.13433833 0.13790886 0.40589967 131 132 139 -0.8441 -0.42129999 -0.33160001 0
0.12103792 0.14851093 0.4508552 227 233 236 -0.9102 -0.25040001 -0.33000001 0
0.22498524 0.10519354 0.27621558 209 204 206 -0.24169999 -0.1053 -0.96460003 0
0.21550684 0.10728741 0.28117219 220 218 219 -0.32679999 0.071000002 -0.94239998 0
0.20110726 0.11202261 0.29604658 222 222 224 -0.64770001 0.39399999 -0.65210003 0
0.19231099 0.11442707 0.3053211 235 235 237 -0.55019999 0.4267 -0.7177 0
0.18582942 0.11717148 0.31372085 145 144 152 -0.5079 0.54460001 -0.6674 0
0.17167228 0.12303178 0.34035492 187 183 182 -0.76569998 0.088 -0.6372 0
0.159587 0.130318 0.37336254 255 255 255 -0.236 -0.5485 -0.80220002 0
0.1358557 0.13752621 0.3950626 130 132 134 -0.77149999 -0.52170002 -0.36410001 0
0.12747933 0.14230834 0.41589108 152 155 161 -0.85879999 -0.27070001 -0.43489999 0
0.22702183 0.10545705 0.27481186 216 213 214 -0.27869999 0.078900002 -0.95709997 0
0.2091576 0.10970637 0.28677118 172 171 176 -0.52109998 0.36520001 -0.77139997 0
0.20345044 0.11224843 0.29443094 217 216 221 -0.64679998 0.38589999 -0.65780002 0
0.19438994 0.1146581 0.3030445 225 224 227 -0.53079998 0.39579999 -0.74940002 0
0.18047525 0.12009457 0.32549089 190 189 194 -0.64859998 0.33360001 -0.68409997 0
0.17388292 0.12320091 0.33673197 177 177 179 -0.72500002 -0.035100002 -0.68779999 0
0.1481446 0.13360101 0.3776004 110 112 114 -0.70590001 -0.53070003 -0.4691 0
0.12283268 0.14789744 0.43817347 164 165 171 -0.97079998 -0.056499999 -0.2334 0
0.22963965 0.10571418 0.2743991 146 141 145 -0.3793 0.1741 -0.90869999 0
0.21147934 0.10994085 0.28551263 225 223 223 -0.57980001 0.40110001 -0.70920002 0
0.19779782 0.11488401 0.30286294 238 235 240 -0.52789998 0.39809999 -0.75019997 0
0.18761198 0.11736254 0.31033021 173 173 175 -0.42140001 0.60439998 -0.67610002 0
0.18251288 0.12028065 0.32215157 150 149 154 -0.66769999 0.33750001 -0.66350001 0
0.16646226 0.12644814 0.34764704 208 134 152 -0.58600003 -0.29359999 -0.75520003 0
