ply
format ascii 1.0
comment PCL generated
element vertex 583
property float x
property float y
property float z
property uchar red
property uchar green
property uchar blue
property float nx
property float ny
property float nz
property float curvature
element camera 0
property float view_px
property float view_py
property float view_pz
property float x_axisx
property float x_axisy
property float x_axisz
property float y_axisx
property float y_axisy
property float y_axisz
property float z_axisx
property float z_axisy
property float z_axisz
property float focal
property float scalex
property float scaley
property float centerx
property float centery
property int viewportx
property int viewporty
property float k1
property float k2
end_header
0.20594007 -0.020926092 0.27064267 139 59 56 -0.56779999 -0.082000002 -0.81910002 0
0.198727 -0.0205089 0.27551925 222 217 221 -0.32730001 -0.1705 -0.92940003 0
0.18760946 -0.019953009 0.27967224 196 194 202 -0.4102 -0.19069999 -0.89179999 0
0.17118977 -0.021621501 0.2953358 198 110 119 -0.39789999 -0.4619 -0.79269999 0
0.15098454 -0.021324638 0.30812636 141 140 143 -0.3565 -0.29750001 -0.88569999 0
0.13160273 -0.024258833 0.33021426 86 92 99 -0.2427 -0.34470001 -0.90679997 0
0.12117801 -0.023316985 0.33625725 60 63 69 -0.23999999 0.1222 -0.96310002 0
0.076391272 -0.014551589 0.32712817 244 212 189 0.2879 -0.3619 -0.88669997 0
0.060849581 -0.01074777 0.32463369 255 224 203 0.048099998 0.0537 -0.99739999 0
0.026976362 -0.004513192 0.32242814 255 235 221 0.13349999 0.2297 -0.9641 0
0.01206182 -0.0028449877 0.32571274 253 222 205 0.0156 0.017100001 -0.99970001 0
-0.023033323 0.0062710322 0.3139286 157 141 128 0.61989999 0.048099998 -0.78320003 0
0.20830283 -0.020093668 0.26936767 200 105 128 -0.59570003 -0.1023 -0.7967 0
0.19121206 -0.01992891 0.28005603 240 239 242 -0.32440001 -0.058800001 -0.94410002 0
0.18086264 -0.020254387 0.28635594 242 242 244 -0.31819999 -0.3098 -0.89600003 0
0.17393801 -0.020767868 0.29397517 141 64 76 -0.37290001 -0.48199999 -0.79290003 0
0.16124886 -0.019736758 0.29796866 255 255 255 -0.52640003 -0.097800002 -0.84460002 0
0.14255087 -0.021625562 0.31640273 88 90 94 -0.8136 -0.1106 -0.57080001 0
0.13499913 -0.02332961 0.32840347 70 81 82 -0.3678 -0.31009999 -0.87669998 0
0.080293596 -0.014802737 0.32848394 234 198 181 0.38870001 -0.417 -0.82160002 0
0.064508229 -0.010311123 0.3241246 255 232 212 0.093900003 -0.0252 -0.99529999 0
0.030660167 -0.0047512967 0.323778 255 220 206 0.2789 0.3168 -0.9066 0
0.015970575 -0.002153611 0.32431671 255 255 255 -0.024700001 0.0285 -0.9993 0
-0.0028351441 0.00016537559 0.32529971 199 177 173 -0.0035999999 0.2466 -0.9691 0
-0.016789092 0.0047386871 0.31998134 182 146 129 0.62580001 0.16760001 -0.76179999 0
-0.019945137 0.0051365267 0.31797484 156 127 112 0.67009997 0.14219999 -0.72850001 0
-0.036634583 0.0098438263 0.31121662 255 255 240 -0.1286 -0.0128 -0.99159998 0
-0.051103856 0.011907175 0.31307188 255 255 242 -0.0889 0.0255 -0.9957 0
-0.066463791 0.01327522 0.31722513 255 255 246 -0.2439 -0.0625 -0.96780002 0
-0.078805126 0.014798516 0.3219218 199 179 163 -0.2351 -0.2221 -0.94630003 0
0.21620369 -0.018807786 0.26149526 190 106 121 -0.42109999 0.0319 -0.90649998 0
0.20114793 -0.01962683 0.27410185 173 109 110 -0.366 -0.1161 -0.92330003 0
0.19381221 -0.019088002 0.27867195 215 215 217 -0.50730002 -0.113 -0.85430002 0
0.18397214 -0.019810073 0.28590509 255 255 255 -0.37040001 -0.2353 -0.89859998 0
0.16431569 -0.019044545 0.29683563 153 147 158 -0.33239999 -0.189 -0.92400002 0
0.15745901 -0.020118581 0.30637911 156 157 161 -0.40889999 -0.2114 -0.88779998 0
0.15391561 -0.020404067 0.3065055 112 116 119 -0.31209999 -0.33059999 -0.89069998 0
0.14417711 -0.018949382 0.3104234 183 182 185 -0.71280003 -0.046500001 -0.69989997 0
0.1377176 -0.021902965 0.32558304 138 142 143 -0.40880001 -0.1705 -0.89660001 0
0.10822408 -0.029241476 0.37014905 229 197 183 0.1383 -0.47319999 -0.87 0
0.089373648 -0.017335657 0.33642265 191 158 137 0.53750002 -0.52829999 -0.6573 0
0.084383681 -0.015384608 0.33071598 230 197 181 0.39500001 -0.47350001 -0.78719997 0
0.068391629 -0.010511963 0.32532308 254 219 197 0.1063 -0.12809999 -0.98610002 0
0.049435727 -0.0078637172 0.32523158 255 229 207 0.016000001 0.046700001 -0.99879998 0
0.034450594 -0.0052865376 0.32592183 255 221 204 0.2189 0.32839999 -0.9188 0
0.00091308512 0.00050015625 0.32496795 224 196 188 0.025800001 0.14139999 -0.9896 0
-0.032889042 0.010409731 0.31015635 255 241 223 0.0085000005 0.0178 -0.99980003 0
-0.047674634 0.012126638 0.31317806 255 219 200 0.003 0.088299997 -0.99610001 0
-0.062557921 0.013969713 0.31580922 255 251 232 -0.1787 -0.026799999 -0.9835 0
0.20982541 -0.018649394 0.26673767 232 218 209 -0.58929998 -0.1445 -0.7949 0
0.2034781 -0.018710095 0.2725873 118 12 38 -0.46709999 -0.1085 -0.8775 0
0.18573891 -0.01830356 0.28315714 255 255 255 -0.58319998 -0.1339 -0.80119997 0
0.176507 -0.019750683 0.29219937 255 255 255 -0.33039999 -0.45750001 -0.82560003 0
0.12308262 -0.020441614 0.32963246 78 82 86 -0.32319999 -0.12630001 -0.93790001 0
0.11245064 -0.02897577 0.37021729 236 202 188 -0.030999999 -0.44049999 -0.89719999 0
0.094116911 -0.0188896 0.34127101 194 161 143 0.61570001 -0.55339998 -0.56099999 0
0.053271923 -0.0078095761 0.32569632 255 231 208 0.096100003 0.0127 -0.99529999 0
0.038174365 -0.0050978218 0.32607317 250 210 190 0.0096000005 0.2304 -0.97299999 0
0.019465871 -0.0018268649 0.32416424 255 247 228 -0.045600001 0.1372 -0.98949999 0
0.0045546181 0.00043419906 0.32584873 236 201 193 -0.050000001 -0.0082999999 -0.99870002 0
-0.029671131 0.010352336 0.31111234 255 227 211 0.2748 0.063699998 -0.9594 0
-0.044190366 0.012353531 0.31322363 255 255 251 -0.054900002 0.0678 -0.99620003 0
-0.058688648 0.014593326 0.3145788 255 255 240 -0.1534 0.022 -0.98790002 0
-0.074634217 0.01556164 0.32020003 212 184 171 -0.255 -0.19760001 -0.9465 0
0.21197553 -0.017699966 0.26514542 210 141 142 -0.47909999 -0.1071 -0.87120003 0
0.19564453 -0.017741324 0.27625903 204 203 208 -0.50019997 -0.1037 -0.85970002 0
0.17891103 -0.018647464 0.29023492 202 199 202 -0.4032 -0.40880001 -0.81870002 0
0.16767025 -0.018597821 0.29619688 203 195 200 -0.23639999 -0.2841 -0.92919999 0
0.15919127 -0.018068315 0.30204657 125 128 127 -0.56889999 -0.1508 -0.80849999 0
0.14733793 -0.018162863 0.30899268 157 162 163 -0.57630002 0.031099999 -0.81669998 0
0.14056212 -0.020479746 0.32256624 141 145 148 -0.3804 0.0080000004 -0.92479998 0
0.12673922 -0.019897183 0.32879931 89 96 100 -0.1675 -0.14910001 -0.9745 0
0.11673944 -0.028612852 0.36993814 216 183 165 -0.071400002 -0.4535 -0.88840002 0
0.072149411 -0.01034148 0.32552597 255 217 194 0.1128 -0.2376 -0.9648 0
0.056987766 -0.0075760819 0.3257426 255 222 197 0.1051 0.0126 -0.99440002 0
0.041822173 -0.0049441424 0.3263748 238 198 173 -0.0845 0.073700003 -0.99370003 0
0.023218159 -0.0016770562 0.32437116 255 229 211 -0.030999999 0.1787 -0.98339999 0
0.0081730084 0.00054443948 0.32623526 234 197 189 -0.041299999 -0.14920001 -0.98790002 0
-0.026420921 0.010186308 0.31236178 246 216 201 0.50279999 0.1016 -0.85839999 0
-0.070589446 0.016122714 0.31911001 240 213 197 -0.27779999 -0.1091 -0.9544 0
0.21437377 -0.016977526 0.26406917 170 64 86 -0.3493 -0.089900002 -0.93269998 0
0.20539793 -0.017530276 0.27054799 177 81 98 -0.51520002 -0.1376 -0.8459 0
0.18815808 -0.017334733 0.2815142 210 209 214 -0.49509999 -0.096299998 -0.8635 0
0.16976416 -0.017030267 0.29298803 134 66 75 -0.41549999 -0.4598 -0.78479999 0
0.15007021 -0.016998196 0.30671275 182 184 188 -0.4894 -0.1158 -0.86430001 0
0.14272813 -0.018457972 0.31816393 119 121 125 -0.76959997 0.19850001 -0.60689998 0
0.13016306 -0.019025169 0.32710522 68 70 74 -0.31490001 -0.2543 -0.91439998 0
0.12082158 -0.028100012 0.36934045 229 198 179 -0.0265 -0.47850001 -0.87769997 0
0.075863034 -0.010111053 0.32559419 255 221 199 0.1733 -0.31119999 -0.93440002 0
0.060622454 -0.0071562645 0.32529449 255 228 207 0.053100001 -0.0098999999 -0.99849999 0
0.026812572 -0.001598904 0.32488742 255 227 212 0.1751 0.18449999 -0.96710002 0
0.011915834 0.00099941646 0.32556725 255 252 231 0.074199997 -0.1433 -0.98689997 0
-0.023303192 0.0098035373 0.31432354 199 176 165 0.61400002 0.072700001 -0.7859 0
-0.040417261 0.012808593 0.31247559 255 255 255 -0.1337 0.031399999 -0.99049997 0
-0.054845989 0.015130242 0.3135795 255 251 238 -0.1559 0.037900001 -0.98699999 0
0.21697579 -0.016380273 0.26320276 191 91 134 -0.36070001 -0.183 -0.91460001 0
0.208114 -0.016960461 0.2697897 220 124 143 -0.55909997 -0.104 -0.82249999 0
0.19835746 -0.017151855 0.27555519 121 118 124 -0.33579999 -0.087399997 -0.93790001 0
0.19076575 -0.016542725 0.28027466 202 199 202 -0.33329999 -0.1088 -0.93650001 0
0.1803897 -0.016697714 0.28623199 204 203 208 -0.34580001 -0.3301 -0.87830001 0
0.15359817 -0.016759563 0.30672652 172 173 177 -0.4109 -0.23549999 -0.88069999 0
0.13428287 -0.01896015 0.32737276 104 108 113 -0.38299999 -0.28839999 -0.87760001 0
0.079696722 -0.01010881 0.32627416 248 216 190 0.26449999 -0.3734 -0.88919997 0
0.064308599 -0.0067656212 0.32490206 239 205 178 -0.0037 -0.071900003 -0.99739999 0
0.045520894 -0.0046618399 0.32627439 249 209 189 -0.0898 -0.1068 -0.99019998 0
0.03042596 -0.0018887968 0.3264868 253 215 198 0.32800001 0.237 -0.9145 0
0.015717642 0.00098435045 0.32622835 255 255 251 0.125 -0.084399998 -0.98860002 0
-0.020147875 0.0091449078 0.31708056 147 122 108 0.70029998 0.079000004 -0.7094 0
-0.036964439 0.013134175 0.31224239 255 255 244 -0.14749999 0.017200001 -0.98890001 0
-0.051461007 0.015257742 0.31399181 255 250 230 -0.040600002 0.050000001 -0.99790001 0
-0.066467151 0.017029013 0.3169319 255 252 236 -0.1882 -0.0198 -0.98189998 0
0.20110141 -0.016544173 0.2747291 106 98 103 -0.40369999 -0.17659999 -0.89770001 0
0.19394867 -0.016130712 0.2797344 180 180 184 -0.44510001 -0.18449999 -0.87629998 0
0.18355304 -0.016309107 0.28590292 210 211 218 -0.31439999 -0.2649 -0.91159999 0
0.17240435 -0.016093832 0.29133502 210 124 137 -0.4025 -0.4181 -0.8143 0
0.14520027 -0.016754802 0.31436193 159 159 161 -0.88800001 0.2516 -0.38479999 0
0.12508376 -0.027836662 0.36929351 222 186 168 0.046999998 -0.4589 -0.8872 0
0.083655044 -0.010413515 0.32781667 239 204 184 0.32960001 -0.45429999 -0.82770002 0
0.068118408 -0.0068095638 0.32572448 224 183 165 -0.034699999 -0.1754 -0.98390001 0
0.049270056 -0.0044591129 0.32637957 242 207 185 -0.063100003 -0.2649 -0.96219999 0
0.034136254 -0.0019547206 0.32739425 255 219 202 0.271 0.2128 -0.93879998 0
0.019289937 0.0011199815 0.32659933 255 236 217 0.1066 -0.0145 -0.99419999 0
0.00054155715 0.0037923809 0.32651007 216 188 181 0.0305 0.0491 -0.99830002 0
-0.017155511 0.0083651124 0.32033473 182 144 127 0.69550002 0.0581 -0.71619999 0
-0.033257145 0.013690071 0.31119835 255 243 224 -0.0308 0.0085000005 -0.99949998 0
-0.048034504 0.015377772 0.31438747 255 237 221 -0.0162 0.078400001 -0.99680001 0
-0.062936351 0.017260935 0.31699541 255 255 239 -0.13339999 0.0568 -0.98940003 0
0.20985284 -0.015682166 0.2674334 174 82 102 -0.61510003 -0.1023 -0.78179997 0
0.20345762 -0.015661893 0.27327561 251 249 247 -0.48840001 -0.19220001 -0.85119998 0
0.18568404 -0.015087975 0.2836518 232 231 234 -0.4077 -0.31209999 -0.8581 0
0.17481956 -0.015081235 0.28963155 214 153 160 -0.14470001 -0.31200001 -0.93900001 0
0.15725508 -0.016590824 0.30677855 171 172 176 -0.37009999 -0.2737 -0.88779998 0
0.13710798 -0.017794129 0.32517043 29 34 44 -0.31420001 -0.2307 -0.92089999 0
0.1273507 -0.017259482 0.33229867 49 47 57 -0.4531 0.2825 -0.84549999 0
0.087771982 -0.010846299 0.32965571 224 188 170 0.32030001 -0.51999998 -0.79189998 0
0.052982718 -0.0039710691 0.32567468 255 225 203 0.079400003 -0.2714 -0.95920002 0
0.037888233 -0.0016839317 0.32729933 242 205 181 -0.0471 0.1538 -0.98699999 0
0.0042315181 0.0038269137 0.32708725 228 193 186 -0.093000002 -0.17820001 -0.97960001 0
-0.029933939 0.013753153 0.31176865 255 232 212 0.22849999 0.0209 -0.97329998 0
-0.04451235 0.015724266 0.31407279 255 255 239 -0.079700001 0.068999998 -0.99440002 0
-0.059409354 0.01754866 0.31688079 255 247 228 -0.1798 0.1154 -0.97689998 0
0.21196775 -0.014742882 0.26588032 179 96 99 -0.52280003 -0.1434 -0.84030002 0
0.19555582 -0.014605745 0.27681056 211 210 215 -0.45789999 -0.2198 -0.86140001 0
0.17707728 -0.01391514 0.28748628 239 236 239 -0.36770001 -0.3073 -0.87769997 0
0.1596458 -0.015182259 0.30391616 156 155 160 -0.40189999 -0.34020001 -0.8502 0
0.14745235 -0.015009816 0.31055382 151 151 155 -0.74180001 0.31189999 -0.59369999 0
0.14073494 -0.017276453 0.32436445 139 141 143 -0.20100001 -0.16599999 -0.96539998 0
0.097055018 -0.013630342 0.33874908 194 158 138 0.63660002 -0.55419999 -0.53619999 0
0.092265435 -0.012007974 0.3335261 206 167 155 0.47909999 -0.5546 -0.6803 0
0.071757466 -0.0062084715 0.32470131 245 209 182 0.0206 -0.2827 -0.95899999 0
0.056597941 -0.0036627175 0.3255589 244 214 199 0.1816 -0.2264 -0.95700002 0
0.041597795 -0.0014062156 0.32720101 249 214 196 -0.1992 -0.0142 -0.9799 0
0.023101559 0.0016314202 0.3257136 253 215 196 0.032699998 -0.0211 -0.99919999 0
0.0079239411 0.0044062836 0.32604718 255 234 218 0.032499999 -0.50950003 -0.8599 0
-0.026766431 0.013602989 0.31306157 254 223 204 0.47639999 0.0112 -0.87919998 0
0.20552137 -0.014633084 0.27154782 201 89 118 -0.40040001 -0.25299999 -0.88080001 0
0.18783131 -0.013971539 0.28169945 243 240 243 -0.38800001 -0.31729999 -0.8653 0
0.15037215 -0.014052838 0.30870292 160 162 164 -0.57620001 0.23899999 -0.7816 0
0.14407353 -0.016529692 0.32303193 68 69 78 -0.43700001 -0.0779 -0.89609998 0
0.13034515 -0.015822679 0.32905346 161 163 167 -0.40630001 0.061700001 -0.91170001 0
0.11585271 -0.02361496 0.36834598 216 183 165 -0.0138 -0.46020001 -0.88770002 0
0.1015958 -0.014664463 0.34241703 157 122 100 0.70539999 -0.42770001 -0.56529999 0
0.075518005 -0.0060160961 0.32485577 255 221 196 0.1193 -0.34529999 -0.93089998 0
0.060363088 -0.0035519009 0.32595563 227 194 173 0.1355 -0.24519999 -0.95990002 0
0.026750332 0.0018588465 0.32577223 249 209 191 0.093000002 -0.1741 -0.98030001 0
-0.023704264 0.0132764 0.31494275 216 189 177 0.58710003 -0.0017 -0.80949998 0
-0.040675141 0.01633418 0.31280109 255 255 247 -0.1259 0.058600001 -0.9903 0
-0.05543685 0.018294618 0.31518671 255 240 220 -0.1697 0.1184 -0.97839999 0
-0.070815653 0.019731684 0.31934658 205 177 166 -0.32789999 0.0539 -0.94319999 0
0.21438614 -0.014061094 0.26489544 200 101 119 -0.36849999 -0.20039999 -0.90780002 0
0.20751014 -0.013579117 0.2697497 140 74 89 -0.317 -0.16769999 -0.93349999 0
0.19783619 -0.01368311 0.27531457 240 239 242 -0.3673 -0.19660001 -0.9091 0
0.19060093 -0.013337704 0.28079703 247 246 249 -0.3486 -0.30989999 -0.88450003 0
0.1797059 -0.012987581 0.28574997 237 234 237 -0.3953 -0.2775 -0.87559998 0
0.13384585 -0.015071429 0.32755661 78 84 91 -0.40540001 -0.1971 -0.89270002 0
0.11975602 -0.022864807 0.36704424 202 164 145 -0.099799998 -0.44819999 -0.8883 0
0.079238303 -0.0058915671 0.32524928 252 215 191 0.1858 -0.40180001 -0.89670002 0
0.064200558 -0.0034249171 0.3262583 230 192 173 -0.020500001 -0.27669999 -0.96069998 0
0.045341872 -0.00077612727 0.3260164 255 231 210 -0.23469999 -0.1997 -0.95130002 0
0.030374924 0.0018154363 0.32666621 239 197 177 0.35460001 -0.1523 -0.92250001 0
0.015312223 0.0045441422 0.32705635 255 253 234 0.2333 -0.40020001 -0.88620001 0
0.011611489 0.0048283613 0.32548043 255 254 235 0.1275 -0.51709998 -0.84640002 0
3.8146583e-05 0.0066271429 0.32957664 219 190 182 -0.087300003 -0.52079999 -0.84920001 0
-0.020397602 0.012955793 0.31671822 189 166 151 0.68760002 -0.0103 -0.72600001 0
-0.037238777 0.016567161 0.31284222 255 253 234 -0.14210001 0.048799999 -0.98869997 0
-0.051778402 0.018767834 0.31441829 255 242 226 -0.045600001 0.1426 -0.98869997 0
-0.067114234 0.020186158 0.31868544 255 230 214 -0.2305 0.075300001 -0.9702 0
0.21717341 -0.013613509 0.26436394 224 190 192 -0.36770001 -0.28220001 -0.88609999 0
0.20056224 -0.013099612 0.27454752 236 220 219 -0.36790001 -0.2473 -0.89639997 0
0.18349075 -0.01310728 0.28655463 210 209 214 -0.35100001 -0.3707 -0.8599 0
0.15303631 -0.012887053 0.30632612 235 237 236 -0.60680002 0.082699999 -0.7906 0
0.1460344 -0.014449712 0.31835863 197 199 201 -0.80430001 -0.13420001 -0.57889998 0
0.12351809 -0.021952562 0.36528873 233 202 185 -0.0469 -0.42039999 -0.90609998 0
0.082950629 -0.0058228578 0.3258301 255 224 199 0.20209999 -0.46200001 -0.8635 0
0.049046725 -0.00026249199 0.32519493 255 230 216 -0.1653 -0.34279999 -0.92470002 0
0.033947464 0.0014510989 0.32862428 236 193 173 0.31709999 -0.1059 -0.9425 0
0.019006537 0.0047722058 0.32707438 255 228 206 0.14489999 -0.42930001 -0.8915 0
-0.017319383 0.01201006 0.32052821 185 149 134 0.6979 -0.058600001 -0.71380001 0
-0.033586677 0.017124882 0.31178483 255 243 224 -0.068000004 0.030200001 -0.99720001 0
-0.048218481 0.019034768 0.31432104 255 236 219 -0.036400001 0.13410001 -0.9903 0
-0.063145638 0.020760791 0.31750157 255 237 222 -0.1286 0.1034 -0.98629999 0
0.20926255 -0.012270435 0.26713538 255 251 251 -0.42030001 -0.1247 -0.89880002 0
0.20279315 -0.012236055 0.27324769 215 134 143 -0.34810001 -0.4215 -0.83740002 0
0.1930953 -0.012467701 0.27927804 210 207 212 -0.41549999 -0.35260001 -0.83840001 0
0.17426528 -0.011357169 0.28907594 193 105 117 -0.122 -0.18700001 -0.97479999 0
0.15527311 -0.01141452 0.30325595 144 146 148 -0.52689999 -0.1217 -0.84119999 0
0.13619913 -0.013258373 0.32349876 162 161 166 -0.1367 -0.1222 -0.98299998 0
0.12797435 -0.021968029 0.36608195 227 193 175 0.0043000001 -0.41069999 -0.91170001 0
0.086839877 -0.0057763993 0.32636544 253 218 194 0.23729999 -0.51520002 -0.82359999 0
0.067895807 -0.0030014741 0.32572442 255 235 215 -0.075199999 -0.30720001 -0.94870001 0
0.052654304 0.00011977585 0.32483849 244 219 202 0.0243 -0.4201 -0.90710002 0
0.037664052 0.0014664187 0.32934624 246 210 193 -0.057399999 -0.105 -0.9928 0
-0.014114222 0.011138175 0.32409433 181 143 126 0.52450001 -0.19840001 -0.82800001 0
-0.030131938 0.017343566 0.3118341 255 228 210 0.1674 0.036400001 -0.98519999 0
-0.044908859 0.019124364 0.31487849 255 247 231 -0.1067 0.087700002 -0.99040002 0
-0.059516747 0.021138839 0.31706509 255 251 233 -0.1556 0.1046 -0.98229998 0
0.21138659 -0.011385903 0.26571429 228 213 223 -0.5916 -0.16419999 -0.78930002 0
0.19546327 -0.011549818 0.27770308 192 189 195 -0.38280001 -0.39930001 -0.83310002 0
0.18628602 -0.012384645 0.28534231 255 255 255 -0.322 -0.42210001 -0.84740001 0
0.17772023 -0.011239645 0.28943387 174 89 104 -0.3276 -0.2471 -0.91189998 0
0.14762215 -0.012032206 0.31270942 121 122 126 -0.70499998 0.071199998 -0.70560002 0
0.14549465 -0.014517193 0.32789868 135 139 147 -0.40419999 -0.14480001 -0.90310001 0
0.14052492 -0.013509063 0.32465181 124 126 130 0.0273 -0.1573 -0.98720002 0
0.13232805 -0.021762243 0.36612296 222 189 170 -0.16949999 -0.33250001 -0.92769998 0
0.090674601 -0.0056928541 0.32684144 253 220 195 0.25819999 -0.53259999 -0.80599999 0
0.071331307 -0.0021011611 0.32389262 255 229 207 -0.0024000001 -0.34 -0.9404 0
0.056349121 0.00028753534 0.32510465 243 211 195 0.20990001 -0.43619999 -0.875 0
0.041384883 0.0021953946 0.32784921 255 237 221 -0.23999999 -0.21160001 -0.94739997 0
0.022712866 0.0051581291 0.32661596 245 208 186 0.077399999 -0.3608 -0.92940003 0
0.0075451219 0.0086670509 0.32467604 255 227 209 0.13680001 -0.71759999 -0.68290001 0
-0.026983675 0.017163495 0.3132641 252 220 208 0.42719999 0.0266 -0.90369999 0
0.188113 -0.011034335 0.28280544 248 248 250 -0.33899999 -0.43349999 -0.83499998 0
0.15878616 -0.011138094 0.30307639 157 156 161 -0.4738 -0.35409999 -0.80629998 0
0.15037394 -0.011028093 0.31083065 117 121 122 -0.6207 0.2807 -0.73210001 0
0.11473436 -0.018195998 0.36536339 199 164 144 -0.1089 -0.44780001 -0.88749999 0
0.075066075 -0.0018996043 0.32401985 255 226 205 0.0557 -0.3461 -0.93650001 0
0.060039792 5.2046271e-05 0.32666555 184 141 126 0.1874 -0.447 -0.87470001 0
0.026515516 0.005480329 0.32628044 233 191 171 0.047800001 -0.57819998 -0.81449997 0
0.0040493156 0.0088647315 0.32320395 230 199 193 0.0207 -0.7511 -0.65979999 0
-0.023762779 0.016865257 0.31504533 225 193 181 0.54579997 0.0082 -0.83789998 0
-0.041167215 0.019694442 0.31374753 255 255 241 -0.139 0.067100003 -0.98799998 0
-0.055747408 0.021736447 0.31584826 255 247 231 -0.1675 0.1178 -0.9788 0
0.21352419 -0.010502739 0.26421228 212 200 202 -0.48159999 -0.2617 -0.83639997 0
0.2076738 -0.010761197 0.27100587 234 228 232 -0.19140001 -0.30970001 -0.9314 0
0.19800436 -0.010780946 0.27643731 211 210 213 -0.3125 -0.38940001 -0.8664 0
0.19009414 -0.0098447856 0.28063464 217 214 219 -0.3739 -0.4156 -0.82920003 0
0.17980659 -0.0099758031 0.28695488 156 141 153 -0.38780001 -0.38859999 -0.83579999 0
0.16128446 -0.010023925 0.30088764 99 98 105 -0.56 -0.43979999 -0.70209998 0
0.15317184 -0.0099125346 0.30843619 101 102 106 -0.727 0.2333 -0.64569998 0
0.13382633 -0.018544411 0.35824436 240 209 192 -0.1529 -0.317 -0.93599999 0
0.11884196 -0.017845398 0.3651816 176 140 125 -0.057100002 -0.42910001 -0.90149999 0
0.10481395 -0.0098323552 0.34096164 161 120 102 0.74360001 -0.39629999 -0.53860003 0
0.10018808 -0.0085871918 0.33650774 195 158 136 0.71579999 -0.48590001 -0.50160003 0
0.094967559 -0.0064787585 0.32979026 195 162 146 0.5395 -0.50629997 -0.6728 0
0.078754172 -0.0015541441 0.32372016 255 228 206 0.081500001 -0.38339999 -0.92000002 0
0.04504836 0.0030432264 0.32600072 255 247 230 -0.2931 -0.29980001 -0.90789998 0
0.011433314 0.0094139129 0.32293439 255 245 226 0.171 -0.70130002 -0.69209999 0
-0.003473287 0.01097285 0.32690778 213 191 175 9.9999997e-05 -0.8143 -0.58039999 0
-0.020520961 0.016439958 0.3172394 212 185 169 0.61940002 -0.018300001 -0.78479999 0
-0.037630569 0.019933134 0.31371039 255 247 230 -0.15000001 0.071199998 -0.98610002 0
-0.052272569 0.021962624 0.31593737 255 241 223 -0.071699999 0.1436 -0.98699999 0
-0.067158543 0.023906318 0.31845602 201 175 165 -0.27410001 0.1256 -0.95349997 0
0.21604943 -0.0099674892 0.26359817 220 155 168 -0.42719999 -0.28049999 -0.85949999 0
0.20051391 -0.010018105 0.27518657 224 221 224 -0.28639999 -0.35159999 -0.89130002 0
0.18181077 -0.0086554708 0.28429493 148 145 153 -0.33469999 -0.3994 -0.85350001 0
0.14673714 -0.011792609 0.32145524 89 90 97 -0.74229997 -0.3612 -0.56440002 0
0.12287655 -0.017275026 0.36428976 227 193 175 0.013 -0.4165 -0.90899998 0
0.063765168 0.00060025183 0.32570803 248 215 194 0.0153 -0.4903 -0.8714 0
0.048728161 0.0038493588 0.32423398 255 232 216 -0.26109999 -0.38609999 -0.8847 0
0.01501427 0.0092530977 0.32420588 255 247 230 0.21359999 -0.7094 -0.6717 0
-0.01738747 0.015811615 0.32015425 184 150 136 0.65109998 -0.109 -0.7511 0
-0.03390779 0.020505477 0.31253538 255 236 220 -0.085500002 0.087700002 -0.99250001 0
-0.04852549 0.022345362 0.31537822 255 249 232 -0.049699999 0.1436 -0.98839998 0
-0.063659728 0.024027029 0.31889287 255 229 213 -0.15719999 0.084399998 -0.98400003 0
0.21721944 -0.0086352397 0.26132411 0 0 0 -0.41080001 -0.33860001 -0.84649998 0
0.20991394 -0.0098006418 0.26914695 192 155 170 -0.2413 -0.2572 -0.9357 0
0.19215968 -0.0087670274 0.27872756 232 229 232 -0.39500001 -0.46149999 -0.79430002 0
0.17420787 -0.0081819613 0.2899836 127 85 90 -0.1573 -0.2438 -0.95700002 0
0.1552044 -0.0081821112 0.30451968 163 163 165 -0.75700003 0.094700001 -0.64649999 0
0.082338057 -0.0011643367 0.32336408 255 230 205 0.088 -0.42480001 -0.90100002 0
0.067400932 0.0012656137 0.32442984 255 245 224 -0.0048000002 -0.45320001 -0.89139998 0
0.037431147 0.0050438065 0.33013722 245 208 197 0.1433 -0.48179999 -0.86449999 0
0.018715348 0.0089780651 0.32581615 255 224 201 0.1991 -0.69309998 -0.69279999 0
0.00044390373 0.012573821 0.32243252 213 186 168 0.0526 -0.6196 -0.78320003 0
-0.01420952 0.015227061 0.32294431 190 155 142 0.3003 -0.24680001 -0.92129999 0
-0.030228848 0.02096897 0.31170419 255 237 220 0.1196 0.15629999 -0.98040003 0
-0.045115322 0.02257406 0.31546268 255 234 219 -0.1156 0.095700003 -0.98869997 0
-0.06012382 0.024302075 0.31881565 255 243 227 -0.16410001 0.040600002 -0.98559999 0
0.21222374 -0.0090633705 0.26805872 184 93 92 -0.58109999 -0.2242 -0.7823 0
0.20228596 -0.008884876 0.27327433 223 218 224 -0.30680001 -0.40220001 -0.86269999 0
0.1946969 -0.0080012828 0.27744356 222 218 224 -0.32910001 -0.47479999 -0.81629997 0
0.1838491 -0.0074104764 0.28179801 255 255 255 -0.28310001 -0.35890001 -0.88940001 0
0.17766955 -0.008033203 0.29021171 216 142 151 -0.2502 -0.41060001 -0.8768 0
0.15801519 -0.0073668417 0.30308145 133 135 137 -0.74040002 -0.0103 -0.67210001 0
0.14784798 -0.0088788765 0.31432936 164 166 167 -0.63090003 -0.1954 -0.75089997 0
0.13955364 -0.0091158524 0.32338166 173 175 177 0.077500001 0.27720001 -0.95770001 0
0.12720305 -0.017148456 0.36467063 238 207 186 -0.0176 -0.38960001 -0.92079997 0
0.086000726 -0.00093847176 0.32347727 255 223 199 0.1433 -0.47690001 -0.86720002 0
0.070920832 0.0018730306 0.32340339 255 243 221 0.063000001 -0.38690001 -0.92000002 0
0.052195631 0.0046481118 0.32260892 254 227 207 -0.064099997 -0.42570001 -0.90259999 0
0.041019067 0.0058587617 0.32841513 255 223 209 -0.074199997 -0.47479999 -0.87690002 0
-0.072139777 0.026144551 0.32289791 169 151 139 -0.31920001 0.082099997 -0.94410002 0
0.1996578 -0.0046663606 0.26410833 180 176 182 -0.2418 -0.38479999 -0.8908 0
0.18679589 -0.0069467039 0.2812849 159 159 164 -0.3448 -0.3721 -0.8617 0
0.1509362 -0.0080882637 0.31283388 183 185 187 -0.45199999 -0.086599998 -0.88779998 0
0.13098599 -0.016375775 0.36324453 243 212 191 -0.098200001 -0.35749999 -0.92869997 0
0.089876771 -0.00091694278 0.32410389 255 234 212 0.21799999 -0.48930001 -0.84439999 0
0.074518941 0.0023134281 0.32285523 255 233 212 0.052999999 -0.32609999 -0.94389999 0
0.055871546 0.0048345053 0.32281348 255 238 215 0.16069999 -0.48159999 -0.86159998 0
0.0077279489 0.013751569 0.32017025 221 207 193 0.1073 -0.58209997 -0.80599999 0
0.0044051004 0.015004862 0.31532013 255 255 255 0.071500003 -0.51370001 -0.85500002 0
-0.027097547 0.020929849 0.31274343 255 231 214 0.3594 0.17290001 -0.917 0
-0.041461661 0.022971913 0.31487882 255 250 235 -0.15180001 0.059300002 -0.98659998 0
-0.05617376 0.025064478 0.31695873 255 253 237 -0.1418 0.036699999 -0.9892 0
0.21304533 -0.007330969 0.26457071 233 221 225 -0.61589998 -0.25479999 -0.74540001 0
0.19682351 -0.00695568 0.27547893 201 198 201 -0.26390001 -0.47459999 -0.83969998 0
0.15408421 -0.0073925587 0.31157622 183 182 185 -0.57090002 -0.1962 -0.79720002 0
0.13480607 -0.015728412 0.3622188 249 218 194 -0.1162 -0.3231 -0.93919998 0
0.11836711 -0.013384473 0.36471793 194 158 138 0.155 -0.42019999 -0.89410001 0
0.11277433 -0.011491612 0.35821658 173 133 115 0.80229998 0.1064 -0.58740002 0
0.093571573 -0.00079647731 0.3245745 240 211 184 0.33050001 -0.47830001 -0.81370002 0
0.044655222 0.006643841 0.32672518 255 249 234 -0.27430001 -0.4382 -0.85600001 0
-0.0060042422 0.018336399 0.3139089 215 218 203 -0.44729999 -0.20110001 -0.87150002 0
-0.023806937 0.020789115 0.31403708 228 194 180 0.47150001 0.1162 -0.87419999 0
-0.037742678 0.023400597 0.3141489 255 246 232 -0.15880001 0.0438 -0.98629999 0
-0.052747648 0.025206745 0.31734213 255 237 220 -0.034299999 0.077799998 -0.9964 0
-0.067871362 0.02689887 0.3208918 182 157 143 -0.331 0.062799998 -0.94150001 0
0.21477546 -0.006321141 0.26291806 160 118 139 -0.45100001 -0.2201 -0.86489999 0
0.2095347 -0.0066606044 0.26970881 255 255 255 -0.1802 -0.3872 -0.90420002 0
0.20600492 -0.0066239294 0.26905757 220 217 223 -0.1027 -0.34990001 -0.93110001 0
0.19884653 -0.0058948547 0.27349454 205 202 208 -0.2251 -0.3863 -0.89450002 0
0.18929853 -0.0061761239 0.28002846 251 251 253 -0.43169999 -0.41150001 -0.80269998 0
0.1788553 -0.0061443141 0.28615534 204 114 133 -0.4623 -0.3906 -0.796 0
0.16011937 -0.005791673 0.29944509 194 196 198 -0.72939998 -0.096100003 -0.67729998 0
0.14509147 -0.0066657793 0.3179622 81 84 92 -0.75220001 -0.1613 -0.63880002 0
0.13897385 -0.015258619 0.3614544 255 234 213 -0.22589999 -0.289 -0.9303 0
0.10376631 -0.0046237423 0.33740193 171 131 113 0.79809999 -0.3197 -0.51069999 0
0.097879894 -0.0016021897 0.3276968 178 143 125 0.66109997 -0.37509999 -0.6498 0
0.078183673 0.0027532696 0.32223445 255 221 198 0.0274 -0.31079999 -0.9501 0
0.063184425 0.0050849202 0.32365623 255 239 230 0.032600001 -0.56999999 -0.82099998 0
0.011541279 0.014256086 0.31916842 255 219 202 0.0099999998 -0.69690001 -0.71710002 0
-0.017355351 0.019847123 0.3188957 199 165 151 0.57300001 -0.086000003 -0.815 0
-0.020599395 0.020299563 0.31651989 207 174 163 0.54500002 0.0174 -0.83819997 0
-0.034293871 0.023752697 0.31379655 255 241 227 -0.068300001 0.091899998 -0.99339998 0
-0.049062584 0.025596587 0.31678012 255 244 228 -0.0255 0.087300003 -0.99589998 0
0.21746297 -0.0058512026 0.26229447 180 159 159 -0.36579999 -0.22130001 -0.90399998 0
0.19122468 -0.0049883449 0.27772966 255 255 255 -0.43000001 -0.41859999 -0.80000001 0
0.18130276 -0.0052033388 0.28437358 225 215 221 -0.38890001 -0.25420001 -0.88550001 0
0.16236207 -0.0043350882 0.29606029 163 164 168 -0.57380003 0.0394 -0.81809998 0
0.15613548 -0.0056878007 0.30759004 184 182 185 -0.67150003 -0.19769999 -0.71420002 0
0.12211712 -0.01255885 0.36309761 206 172 156 0.1025 -0.39359999 -0.91350001 0
0.081884354 0.003010758 0.32219547 255 223 199 0.0275 -0.34299999 -0.93889999 0
0.066873282 0.0056227762 0.32270396 255 217 197 0.1095 -0.50800002 -0.85439998 0
0.048277766 0.0079879863 0.32315758 255 249 233 -0.3071 -0.4161 -0.85589999 0
0.029924557 0.010924439 0.32167751 255 255 249 -0.078199998 -0.57749999 -0.81260002 0
0.01504829 0.014624592 0.31877518 255 233 214 -0.0221 -0.7392 -0.67320001 0
-0.0027841472 0.017850028 0.31633392 208 186 171 0.0792 -0.061700001 -0.995 0
-0.014175267 0.019344317 0.32152569 197 163 147 0.27939999 -0.1198 -0.95270002 0
-0.030657869 0.024186525 0.31305876 255 235 221 0.13150001 0.193 -0.97229999 0
-0.045630962 0.025864689 0.31673929 255 246 230 -0.1286 0.068000004 -0.98940003 0
-0.060401998 0.027784072 0.31944928 254 227 211 -0.1517 0.00060000003 -0.98839998 0
-0.063759752 0.027716238 0.31874725 219 194 182 -0.19159999 0.0515 -0.98009998 0
0.21155149 -0.0056692869 0.26784167 134 50 74 -0.48100001 -0.40310001 -0.77859998 0
0.20179699 -0.0055680312 0.27342084 201 197 203 -0.42840001 -0.32269999 -0.84399998 0
0.18365218 -0.004245183 0.28258485 250 250 250 -0.3258 -0.1074 -0.9393 0
0.16657893 -0.0047323797 0.29759288 162 161 164 -0.2766 -0.089199997 -0.95679998 0
0.15799773 -0.0040325657 0.30387795 167 169 171 -0.6358 -0.038699999 -0.77079999 0
0.14744461 -0.0051961979 0.31465292 110 114 117 -0.63709998 -0.2318 -0.73509997 0
0.14247236 -0.014103617 0.35869947 251 219 196 -0.4224 -0.29460001 -0.85720003 0
0.12610026 -0.012067124 0.36246747 229 196 177 -0.0242 -0.34110001 -0.93970001 0
0.08542648 0.0034925479 0.32151565 255 238 213 0.054499999 -0.3847 -0.92140001 0
0.07055565 0.0058394754 0.32283384 255 232 207 0.1831 -0.4192 -0.88929999 0
0.051783834 0.0088169975 0.32134318 255 232 212 -0.094300002 -0.40149999 -0.91100001 0
0.036952298 0.011057459 0.32303357 226 180 168 0.79790002 -0.27340001 -0.53719997 0
0.032958385 0.013993585 0.31279898 255 251 233 0.5819 -0.51319999 -0.63090003 0
-0.010778713 0.019469261 0.32198125 206 172 158 -0.2264 -0.1514 -0.96219999 0
-0.076033868 0.02949219 0.32322112 127 117 109 -0.25310001 0.1432 -0.95679998 0
0.2034649 -0.0042849248 0.27082995 179 175 181 -0.4513 -0.33700001 -0.82630002 0
0.193277 -0.0039542071 0.27583116 206 203 209 -0.32089999 -0.391 -0.86260003 0
0.18591003 -0.003210085 0.28050387 213 213 215 -0.43970001 -0.1167 -0.89050001 0
0.16867748 -0.0033292088 0.29451537 255 255 255 -0.37270001 -0.22490001 -0.90030003 0
0.15090913 -0.0047411323 0.31397909 95 96 105 -0.34999999 -0.48019999 -0.80430001 0
0.14440998 -0.0064656832 0.32735741 102 105 111 -0.53829998 0.58560002 -0.60600001 0
0.13004549 -0.011497633 0.3615633 246 213 190 -0.056299999 -0.352 -0.93430001 0
0.089048862 0.0038468402 0.32119209 255 236 212 0.134 -0.40529999 -0.90429997 0
0.055514794 0.0090542519 0.32132307 255 246 224 0.084700003 -0.42070001 -0.90319997 0
0.040763505 0.010271752 0.3263939 231 199 189 0.12549999 -0.57179999 -0.81080002 0
0.018582312 0.01480082 0.31896028 255 220 198 -0.031099999 -0.76709998 -0.6408 0
-0.027475266 0.02407039 0.31436926 249 216 197 0.3123 0.25080001 -0.9163 0
-0.041731272 0.026381785 0.31560728 255 248 234 -0.1609 0.0612 -0.98509997 0
-0.056523968 0.028400915 0.31803447 255 243 228 -0.098499998 0.0098999999 -0.99510002 0
-0.07243187 0.02968267 0.32343885 171 155 142 -0.3344 0.1366 -0.9325 0
0.21273473 -0.0042235651 0.26499084 158 151 156 -0.55199999 -0.37810001 -0.7432 0
0.19552381 -0.0030798817 0.27431363 236 233 236 -0.30399999 -0.3441 -0.8883 0
0.18867332 -0.0026263334 0.27967083 208 208 212 -0.60189998 -0.2022 -0.7726 0
0.17752844 -0.0020190098 0.28460011 213 144 149 -0.44330001 -0.31130001 -0.84060001 0
0.15965998 -0.002134965 0.29935881 158 158 158 -0.64889997 0.1945 -0.73559999 0
0.15436727 -0.0043008276 0.31336951 185 186 190 -0.45210001 -0.52579999 -0.72060001 0
0.13414828 -0.011149744 0.36131886 255 235 211 -0.080399998 -0.36140001 -0.92900002 0
0.092698924 0.0038111075 0.32222608 251 219 194 0.31040001 -0.4217 -0.85189998 0
0.074209996 0.0061117341 0.3227835 255 221 198 0.1205 -0.34009999 -0.93260002 0
0.044381537 0.010860345 0.32529017 254 230 220 -0.1796 -0.52520001 -0.83179998 0
0.022177285 0.015741576 0.31660712 255 232 210 -0.1001 -0.78659999 -0.60930002 0
0.0076407716 0.018395806 0.31695357 133 152 148 -0.1035 -0.4655 -0.87900001 0
-0.0064994232 0.021316698 0.31620702 218 184 166 -0.49959999 -0.083300002 -0.86220002 0
-0.024144586 0.024068877 0.3152338 234 200 186 0.37720001 0.2368 -0.89529997 0
-0.038051371 0.02685152 0.3147316 255 255 237 -0.141 0.070699997 -0.98750001 0
-0.052918322 0.028715016 0.31775519 255 249 233 -0.0093999999 0.078900002 -0.99680001 0
-0.068115145 0.030486416 0.32120743 189 169 153 -0.37979999 0.086400002 -0.921 0
-0.084841974 0.031681892 0.32733664 177 166 163 -0.42629999 0.074000001 -0.9016 0
0.21403453 -0.0029163288 0.26248834 203 201 201 -0.4682 -0.35960001 -0.80720001 0
0.20516054 -0.003077901 0.26844603 216 213 218 -0.24349999 -0.36359999 -0.89920002 0
0.14558955 -0.0036984477 0.32030001 102 104 106 -0.48339999 0.70450002 -0.51950002 0
0.13806798 -0.010589817 0.36042297 255 236 215 -0.22490001 -0.37180001 -0.90069997 0
0.11630552 -0.0069314381 0.35814941 176 136 117 0.72310001 -0.0143 -0.69050002 0
0.096839592 0.0034655461 0.32397753 231 199 185 0.4883 -0.37020001 -0.79030001 0
0.077779286 0.0067140027 0.32165638 255 230 210 0.033300001 -0.28600001 -0.95770001 0
0.011363436 0.019104792 0.31525099 255 253 233 -0.162 -0.52640003 -0.83459997 0
-0.020993736 0.023703951 0.31743529 213 178 167 0.47209999 0.1763 -0.86369997 0
-0.049338438 0.029049657 0.31742305 255 239 223 -0.036499999 0.1036 -0.9939 0
-0.064191453 0.031102264 0.31977522 221 198 188 -0.28459999 0.1001 -0.95340002 0
0.20862935 -0.0031089264 0.26913068 233 231 232 -0.16069999 -0.41859999 -0.89389998 0
0.18025723 -0.0013628977 0.28350714 202 118 128 -0.33579999 -0.038899999 -0.9411 0
0.16214901 -0.0010317685 0.2969436 170 171 175 -0.59439999 0.32820001 -0.7342 0
0.15581502 -0.0021168233 0.30795291 150 149 154 -0.48289999 -0.5011 -0.71810001 0
0.14240627 -0.0051496769 0.3342981 54 48 80 -0.87919998 -0.050700001 -0.47369999 0
0.12136864 -0.007859393 0.36182955 179 139 119 0.2182 -0.31999999 -0.92199999 0
0.10922363 -0.0030227501 0.34525383 160 122 103 0.89630002 -0.1169 -0.4278 0
0.10263431 0.00071002595 0.33307961 173 137 117 0.79449999 -0.28619999 -0.53560001 0
0.081390806 0.0070774141 0.32130975 255 225 202 -0.0241 -0.28819999 -0.95730001 0
0.062691718 0.0097388299 0.3207773 255 218 212 0.032299999 -0.51380002 -0.85729998 0
0.047946092 0.01212286 0.32191291 255 243 227 -0.26809999 -0.46290001 -0.84490001 0
0.025845334 0.01701357 0.31304508 255 255 242 -0.1134 -0.71039999 -0.69459999 0
0.00040400322 0.021538766 0.31709683 216 184 170 0.1086 0.043900002 -0.99309999 0
-0.0025818918 0.02251295 0.3127234 112 113 106 -0.2271 0.1462 -0.96280003 0
-0.017601281 0.023522135 0.31889868 202 165 154 0.51050001 0.096000001 -0.8545 0
-0.034504093 0.027300837 0.31396654 255 240 224 -0.0309 0.1074 -0.99370003 0
-0.076541916 0.032729845 0.32503253 157 145 140 -0.30469999 0.1367 -0.94260001 0
0.21057656 -0.0021184571 0.26727027 227 224 230 -0.33989999 -0.48789999 -0.80400002 0
0.20118305 -0.0021019592 0.27301627 226 223 227 -0.3486 -0.43270001 -0.83139998 0
0.1928311 -0.00055374706 0.27566063 234 232 235 -0.41060001 -0.1983 -0.88999999 0
0.18983178 -0.0009524402 0.27606541 248 248 250 -0.56120002 -0.1895 -0.8057 0
0.18320414 -0.00087867962 0.28285444 194 127 134 -0.2624 0.029200001 -0.96450001 0
0.16570713 -0.00083927886 0.2969597 140 139 142 -0.51249999 0.243 -0.82359999 0
0.15812536 -0.00084620703 0.30517465 176 175 178 -0.375 -0.30779999 -0.87440002 0
0.14140943 -0.009421085 0.35767692 255 247 228 -0.43900001 -0.31619999 -0.84100002 0
0.12552756 -0.0076082046 0.36190826 216 183 165 -0.0416 -0.28060001 -0.95889997 0
0.085014194 0.0074351057 0.32097024 255 232 211 -0.039700001 -0.31549999 -0.94809997 0
0.066212229 0.010309896 0.31975621 255 226 206 0.22920001 -0.4271 -0.87459999 0
0.051448073 0.012876481 0.32026726 255 255 237 -0.058200002 -0.36059999 -0.93089998 0
0.036781311 0.015279711 0.32133672 176 121 112 0.76569998 -0.30829999 -0.56449997 0
0.029403592 0.017685182 0.31154042 255 255 248 0.13940001 -0.60759997 -0.78189999 0
0.014998158 0.019902347 0.31326634 255 251 228 -0.1964 -0.56489998 -0.80140001 0
-0.014304184 0.023241466 0.32078937 211 176 163 0.35440001 0.0614 -0.93309999 0
-0.027788516 0.027225537 0.31598383 254 220 204 0.3057 0.1864 -0.93370003 0
-0.030941367 0.027465835 0.31416687 255 239 223 0.1569 0.1574 -0.97500002 0
-0.045977868 0.029341716 0.31733495 255 242 225 -0.1626 0.083700001 -0.9831 0
-0.060452096 0.031488486 0.31918001 251 224 210 -0.18960001 0.1202 -0.9745 0
-0.072946198 0.032968897 0.32506031 182 163 153 -0.2543 0.16249999 -0.95340002 0
0.20298238 -0.00097518507 0.27081427 232 231 234 -0.35839999 -0.46090001 -0.81190002 0
0.18614061 -0.00029969978 0.28182107 232 229 232 -0.4409 -0.0029 -0.8976 0
0.16897236 -0.00042990159 0.29639006 173 173 175 -0.61769998 0.1004 -0.77990001 0
0.14423372 -0.0030866126 0.32922158 15 18 33 -0.4874 0.131 -0.86330003 0
0.14334898 -0.0069164205 0.35090581 255 247 231 -0.57859999 -0.2868 -0.76349998 0
0.12953195 -0.0071226186 0.36121684 227 193 175 -0.070500001 -0.30489999 -0.94980001 0
0.07001356 0.010232883 0.32079592 237 201 181 0.29719999 -0.35010001 -0.8883 0
0.055183195 0.012982206 0.32069722 244 193 174 0.039000001 -0.3371 -0.94069999 0
0.040564362 0.014552792 0.32459602 158 106 101 0.47510001 -0.35969999 -0.80309999 0
0.032723881 0.018317474 0.31039223 255 234 218 0.50300002 -0.46669999 -0.7274 0
0.018634766 0.02067006 0.31136239 255 255 235 -0.21529999 -0.57160002 -0.79180002 0
0.0039803572 0.021966897 0.31639197 255 235 218 -0.17479999 -0.18700001 -0.96670002 0
-0.010841746 0.023322148 0.32138547 239 204 191 -0.028200001 0.0068999999 -0.99959999 0
-0.041986778 0.029890502 0.31600803 255 249 232 -0.1736 0.091700003 -0.98049998 0
-0.056513522 0.032105554 0.31767529 255 246 230 -0.098399997 0.1517 -0.9835 0
-0.085564591 0.034964025 0.32926762 114 107 107 -0.40349999 0.3057 -0.8624 0
0.21274669 -0.0013195116 0.26589599 212 207 208 -0.4061 -0.4975 -0.7665 0
0.19498566 0.00038184674 0.27387589 227 225 228 -0.3775 -0.20810001 -0.9023 0
0.17800489 0.00075907429 0.28630877 187 167 179 -0.44600001 0.086199999 -0.89090002 0
0.16052099 0.00038154956 0.30236462 116 115 122 -0.41749999 -0.0173 -0.90850002 0
0.14711747 -0.00200884 0.32686001 80 85 99 0.087300003 0.28240001 -0.95529997 0
0.088475682 0.0079879966 0.32004604 255 231 207 0.084200002 -0.3328 -0.93919998 0
0.073727816 0.010293819 0.32144061 235 197 178 0.2121 -0.2771 -0.93709999 0
0.022124952 0.021292249 0.31001964 255 255 244 -0.1832 -0.57480001 -0.79750001 0
0.0075766128 0.022768307 0.31438351 255 255 240 -0.3353 -0.2744 -0.90130001 0
-0.0070794295 0.023975676 0.31982031 254 225 205 -0.40869999 0.1453 -0.90100002 0
-0.02448741 0.027328201 0.31654644 239 202 190 0.3662 0.2097 -0.9066 0
-0.038318131 0.030242257 0.31551683 255 255 235 -0.12989999 0.1365 -0.98210001 0
-0.052951664 0.032428138 0.31739169 255 249 234 -0.030099999 0.1998 -0.97939998 0
-0.068661667 0.033795595 0.32265994 189 166 153 -0.35620001 0.1251 -0.926 0
0.2139108 8.6378983e-05 0.26299182 213 211 212 -0.44999999 -0.4702 -0.75919998 0
0.20495108 1.9875761e-05 0.26890004 218 217 222 -0.30950001 -0.4483 -0.83859998 0
0.18840344 0.00063344877 0.27998558 192 189 195 -0.71509999 -0.032099999 -0.6983 0
0.1702417 0.0014744829 0.29189798 255 255 255 -0.6681 0.0177 -0.7439 0
0.16325617 0.0012730183 0.30048442 100 102 101 -0.52850002 0.1617 -0.83340001 0
0.15246645 0.00076163129 0.30961302 125 127 129 -0.2114 -0.33660001 -0.91759998 0
0.14984401 -0.00083048502 0.32410422 24 32 40 0.1547 0.39320001 -0.90630001 0
0.1333973 -0.0065628383 0.3603434 255 228 204 -0.0911 -0.31760001 -0.94379997 0
0.11554828 -0.0021396417 0.35623947 158 119 96 0.75940001 -0.047899999 -0.64889997 0
0.09204337 0.0081207342 0.32055265 246 211 187 0.2485 -0.28780001 -0.9249 0
0.077386558 0.010560036 0.32139975 255 215 194 0.059799999 -0.23819999 -0.96939999 0
0.058864146 0.013622358 0.3192561 199 141 147 -0.050099999 -0.36899999 -0.92809999 0
0.04407613 0.015065426 0.32379162 185 156 141 -0.1034 -0.45969999 -0.88200003 0
-0.021201706 0.02737686 0.31731495 225 190 179 0.43470001 0.2599 -0.86229998 0
-0.034708645 0.030756706 0.31448305 255 246 230 -0.0231 0.1647 -0.98610002 0
-0.049450278 0.032613292 0.31760594 255 245 230 -0.0568 0.20460001 -0.97719997 0
0.20726816 0.00078227901 0.26749671 198 196 199 -0.2658 -0.41119999 -0.87190002 0
0.18935235 0.0024414475 0.2759541 89 85 93 -0.65630001 -0.084200002 -0.74970001 0
0.18049292 0.0015392683 0.28495038 172 88 96 -0.29100001 0.108 -0.95060003 0
0.17239626 0.0025326556 0.28980577 237 234 237 -0.61830002 0.1383 -0.7737 0
0.14262979 -0.0017423936 0.33592647 99 92 122 -0.79680002 -0.17640001 -0.57800001 0
0.13741677 -0.0061428021 0.35986888 255 239 217 -0.2001 -0.31060001 -0.92919999 0
0.12099182 -0.0035700649 0.36163694 181 138 121 0.38339999 -0.14229999 -0.91259998 0
0.10675596 0.0038968758 0.33629552 169 134 114 0.94 0.118 -0.31999999 0
0.095889993 0.008168227 0.32114738 209 173 153 0.4914 -0.20720001 -0.8459 0
0.080990352 0.010913724 0.3210794 255 240 221 -0.059700001 -0.2394 -0.9691 0
0.062275529 0.014082517 0.31868058 255 236 234 -0.036400001 -0.35569999 -0.9339 0
0.04762147 0.016055264 0.32122952 254 228 219 -0.23360001 -0.40599999 -0.88349998 0
0.02562088 0.022466568 0.30673596 255 255 255 -0.1613 -0.45550001 -0.87550002 0
0.011229284 0.023490077 0.31258446 255 255 238 -0.34490001 -0.29589999 -0.8908 0
-0.0032032016 0.025327275 0.31570423 248 248 239 -0.29879999 0.26620001 -0.91640002 0
-0.017763734 0.02733898 0.31832793 223 189 178 0.4445 0.3021 -0.84329998 0
-0.064508595 0.034553725 0.32051873 241 219 211 -0.33649999 0.152 -0.92930001 0
0.18313263 0.0022769445 0.28356239 210 122 147 -0.20630001 0.1724 -0.96319997 0
0.16562447 0.0024476328 0.29776281 199 201 202 -0.60420001 -0.066699997 -0.79400003 0
0.15402345 0.0026965707 0.30484363 169 166 172 -0.33570001 -0.27059999 -0.90219998 0
0.14097606 -0.005216518 0.35776815 255 255 235 -0.3186 -0.27900001 -0.9059 0
0.12501043 -0.0031444167 0.36115098 211 177 159 -0.0449 -0.27739999 -0.95969999 0
0.10019076 0.007355032 0.32460013 172 140 124 0.74800003 -0.1425 -0.64819998 0
0.065733053 0.014640976 0.31769413 255 230 221 0.2536 -0.27110001 -0.9285 0
0.0511625 0.016950786 0.31897131 255 255 252 -0.075599998 -0.35870001 -0.93040001 0
0.029082371 0.023058534 0.30545938 255 255 238 0.16150001 -0.27469999 -0.9479 0
0.014836704 0.02427762 0.31055537 255 255 255 -0.31330001 -0.30829999 -0.89819998 0
0.00016136505 0.025077011 0.317496 232 189 174 -0.17739999 0.3224 -0.92979997 0
-0.014475275 0.027160099 0.31992581 231 199 187 0.33109999 0.32730001 -0.88499999 0
-0.031223031 0.030904321 0.31477419 255 235 217 0.1286 0.17209999 -0.97659999 0
-0.046165559 0.032721132 0.31820655 255 236 222 -0.16689999 0.15809999 -0.97320002 0
-0.060728531 0.034991257 0.31972891 255 233 220 -0.2404 0.1717 -0.95539999 0
0.20882128 0.0019564566 0.26515386 237 234 237 -0.3303 -0.44389999 -0.833 0
0.19292928 0.0024519055 0.2764484 118 115 120 -0.46259999 -0.1216 -0.87819999 0
0.18628728 0.0026033865 0.28331894 186 105 114 -0.43849999 0.1753 -0.88150001 0
0.17470324 0.0034849872 0.28792354 255 255 255 -0.5284 0.17990001 -0.82969999 0
0.1578317 0.0027420996 0.30529642 53 54 65 -0.26620001 0.069899999 -0.96139997 0
0.14439915 0.00031618832 0.33069903 51 59 93 -0.1635 -0.1697 -0.97180003 0
0.14426075 -0.0039937133 0.35463047 255 255 236 -0.47099999 -0.14480001 -0.87019998 0
0.084545255 0.011408973 0.32025373 255 233 212 -0.1007 -0.25529999 -0.96160001 0
0.06951192 0.014404112 0.31936571 206 165 152 0.39140001 -0.163 -0.90570003 0
0.05489862 0.016828941 0.32023436 205 143 134 0.062700003 -0.27180001 -0.96030003 0
0.032508597 0.023074912 0.30623463 255 233 217 0.60420001 -0.0473 -0.79540002 0
0.0037927807 0.025653483 0.31621373 255 255 255 -0.3662 0.1525 -0.91790003 0
-0.011145817 0.027095057 0.32112923 233 201 189 0.0493 0.4253 -0.90369999 0
-0.028101858 0.030647645 0.31673574 253 219 203 0.2757 0.17460001 -0.94529998 0
-0.042337999 0.033254243 0.31697324 255 249 235 -0.1786 0.1462 -0.97299999 0
-0.056985926 0.035425186 0.31894276 255 235 219 -0.082000002 0.18719999 -0.97890002 0
-0.073476888 0.036402475 0.32618096 185 167 157 -0.259 0.13410001 -0.95649999 0
0.21193999 0.0021673169 0.26518703 220 217 223 -0.39030001 -0.48120001 -0.78500003 0
0.2016789 0.0028115534 0.26959187 210 209 212 -0.38139999 -0.4553 -0.80449998 0
0.19510193 0.0033531021 0.27475303 230 227 232 -0.4614 -0.1943 -0.86559999 0
0.17749293 0.0042324862 0.28632674 183 180 184 -0.51289999 0.049699999 -0.85699999 0
0.16137227 0.003019335 0.30509499 180 180 182 -0.34279999 -0.0614 -0.93739998 0
0.14844976 0.00033851678 0.33138064 31 35 63 0.1583 -0.0076000001 -0.9874 0
0.12889016 -0.0025506704 0.36010775 209 172 157 -0.094899997 -0.3037 -0.94800001 0
0.087967366 0.011994928 0.31919795 255 237 212 0.0348 -0.2348 -0.97140002 0
0.073292881 0.01434106 0.32041556 233 192 178 0.28709999 -0.1245 -0.94980001 0
0.03998597 0.019414747 0.32081425 178 138 131 0.54259998 -0.2728 -0.79449999 0
0.036168106 0.021082109 0.31403413 220 184 171 0.79079998 -0.0261 -0.61150002 0
0.018364202 0.024865353 0.30924475 255 255 255 -0.287 -0.2956 -0.91119999 0
0.0074091004 0.026389331 0.3143473 255 255 254 -0.4499 0.0691 -0.89039999 0
-0.0075717121 0.027625818 0.32004288 255 228 209 -0.2235 0.47670001 -0.8502 0
-0.024740979 0.030816931 0.31706113 238 206 194 0.3626 0.18790001 -0.91280001 0
-0.03866639 0.033666451 0.3162457 255 243 226 -0.1344 0.1727 -0.97570002 0
-0.053681236 0.035397358 0.32006085 255 239 223 -0.024700001 0.1978 -0.9799 0
-0.069468662 0.036924798 0.32499492 196 170 161 -0.35929999 0.1084 -0.92690003 0
-0.086380459 0.038167048 0.33155864 110 105 109 -0.43669999 0.36629999 -0.82169998 0
0.2039787 0.0035596013 0.26829731 162 161 166 -0.3301 -0.417 -0.84689999 0
0.18812911 0.0038016047 0.28078058 175 170 174 -0.7773 -0.0012000001 -0.62919998 0
0.1709899 0.0041715344 0.29405898 255 255 255 -0.46169999 -0.183 -0.86799997 0
0.16415757 0.0038695405 0.30329448 130 130 134 -0.4973 -0.1732 -0.85009998 0
0.15275313 0.00016950553 0.33260685 42 49 78 0.1472 0.037999999 -0.98839998 0
0.13248712 -0.0017898557 0.35863411 237 206 185 -0.079499997 -0.2877 -0.9544 0
0.09140718 0.012353311 0.31897369 248 215 192 0.24879999 -0.1356 -0.95899999 0
0.076996535 0.014477637 0.32081202 255 215 196 0.050999999 -0.1547 -0.98659998 0
0.058531526 0.017498393 0.31867623 189 119 129 -0.070200004 -0.30149999 -0.95090002 0
0.043676671 0.019465834 0.321484 163 126 116 0.1538 -0.31400001 -0.93690002 0
