# .PCD v0.7 - Point Cloud Data file format
VERSION 0.7
FIELDS x y z
SIZE 4 4 4
TYPE F F F
COUNT 1 1 1
WIDTH 1593
HEIGHT 1
VIEWPOINT 0 0 0 1 0 0 0
POINTS 1593
DATA ascii
5.6844316 -52.521507 333.97235
7.7837501 -45.061535 325.96667
7.6535268 -47.986961 325.78885
5.2789998 -48.698547 327.96439
4.7146831 -48.73645 332.88977
3.6994224 -49.772705 333.35373
4.8825622 -41.354336 324.54269
6.0345969 -42.77388 325.89999
4.6675348 -43.875965 327.24115
2.3029816 -44.655533 329.07047
5.0837774 -33.826534 318.40399
4.4188356 -38.293121 323.17123
5.4337559 -37.954819 326.79819
2.9966497 -42.902168 327.79147
3.0801022 -27.224356 305.49438
2.1295722 -30.912626 307.79221
4.609076 -33.215961 317.95361
3.046011 -35.518307 327.53619
5.9576473 -22.678358 300.39795
3.492959 -24.128014 303.1019
2.8908823 -26.866056 305.98154
4.1343751 -32.605392 317.50323
5.5600553 -18.701107 297.66074
5.5541835 -19.446257 298.04184
5.01648 -21.802364 299.90182
4.4246845 -23.424143 302.70264
5.0980048 -24.630159 305.73218
1.872166 -11.009399 291.72379
3.410331 -12.840843 293.60416
4.9815378 -16.641171 296.70071
4.5941286 -18.610008 297.70953
4.9237356 -20.638256 300.24887
5.35641 -22.720274 302.30334
3.9677351 -8.3122606 289.86362
3.8947711 -10.233966 291.44724
4.285512 -12.582853 293.51428
4.6309142 -15.066103 295.69836
3.3807697 -16.497715 296.68124
5.5051494 -2.3569803 285.13968
5.0008812 -5.1603775 287.68164
4.3771815 -7.3779454 289.22018
4.6710734 -9.7222137 291.12866
4.7362022 -12.21708 293.319
5.3165555 1.0786626 283.16541
5.0240598 -0.7874065 284.02765
4.8529735 -1.7599567 284.73221
4.5230532 -4.0644999 286.88861
4.2354198 -6.3108239 288.51773
5.5403748 6.1466665 280.22034
5.0993152 3.9280255 281.65585
4.6480956 1.4839847 282.95984
4.200798 -1.162933 284.32477
7.426765 9.7095356 278.84641
5.4062939 7.7258854 279.62512
5.0257797 7.1766162 279.78049
4.2649169 5.4810605 280.60831
3.9526975 3.4442065 281.95032
7.0985003 14.2976 277.51141
5.789557 11.674201 278.71533
4.8617077 11.369758 278.91766
4.0163984 10.619652 279.18768
5.2469454 19.071074 277.7384
6.3789907 16.930393 278.15707
4.7453823 16.197947 278.48502
4.0123415 15.783861 278.63104
6.6726041 22.337761 276.71228
5.6313462 21.724678 277.02368
4.5900888 21.111595 277.33511
4.5258908 19.359077 277.58612
5.7111869 25.408262 277.08197
5.1328669 25.736828 277.17206
4.5607762 26.071617 277.27283
3.8600476 26.226053 277.37799
5.5071306 31.045494 277.27597
5.0337596 31.06119 277.32123
4.5398746 31.048958 277.41284
4.4339776 31.474716 277.45163
5.1786871 33.69418 277.73972
4.8911982 34.754986 277.99426
4.6600132 35.85001 278.19907
4.27069 36.834156 278.43515
8.4485779 44.264442 277.36398
5.5586281 41.421036 278.65829
4.7997389 41.167145 278.78983
4.0053124 40.795673 278.95901
7.2093625 45.50069 277.43982
6.1695228 46.245392 277.72672
4.8342514 46.108681 278.11758
3.5132732 45.529354 278.61533
6.8071094 49.937214 277.884
6.4789147 49.932671 277.86984
5.0207148 50.790661 278.52933
3.3852487 52.010624 279.52316
2.6363926 52.430969 280.27856
7.9739313 53.998974 278.42233
7.2495236 54.16198 278.70364
5.5058179 55.458023 279.83282
3.9886312 56.371326 280.55344
2.4553137 57.19854 281.26047
6.6943598 59.19923 280.23779
5.927382 59.72377 280.76215
4.4646425 61.182873 281.78595
3.4772861 62.707188 282.56793
6.5818172 62.546238 281.55963
5.8119235 63.301163 282.32251
4.9017634 65.276726 283.59015
3.9256306 67.332718 285.15106
3.9053369 68.300407 285.73944
6.4283147 66.618706 284.02191
5.1285186 69.730492 286.12808
4.4790645 71.199089 286.71198
3.8806496 72.807373 287.41974
4.7358346 75.515373 288.85101
5.9939537 72.773491 287.01279
4.5975537 73.024284 287.43661
4.5490894 75.141914 288.67371
4.5886669 77.30043 289.81036
3.9014235 79.961243 291.55331
4.4713326 83.723434 295.12933
4.6096649 76.68293 289.57617
4.9135513 78.865128 290.75418
4.5470691 80.98941 292.20242
4.5132875 83.49633 294.87906
4.1500254 85.826698 297.90332
4.0493116 87.152054 299.53619
5.1927147 82.01757 292.85153
4.5552421 83.269234 294.62875
4.5255785 85.772385 297.35333
4.3994155 87.752655 299.99756
5.1156855 90.717209 302.4563
1.3250666 87.920647 307.15094
4.5772233 85.530632 297.11725
4.7495193 88.353249 300.45892
4.4994454 90.677917 302.59763
4.8184915 91.081596 307.40198
2.1039178 92.473183 308.34698
4.9013267 92.947052 304.74692
4.9645653 95.829689 307.73987
6.0700126 98.023254 317.03
3.5802624 99.872505 312.10562
4.2060261 106.30432 316.75851
7.5586576 -65.192123 330.46375
9.5273018 -63.925667 332.08597
11.495945 -62.65921 333.70816
6.8205428 -60.666965 331.73019
8.7891865 -59.400509 333.35242
9.5113525 -58.778641 333.40686
12.878571 -49.948936 326.22598
9.6875381 -53.517395 333.58392
9.5124884 -53.786282 333.60214
12.278069 -45.662037 324.58389
10.895287 -47.304108 325.80267
9.8556509 -41.543926 324.23389
9.6528444 -43.03743 324.73932
8.9120016 -44.659283 325.37939
14.749202 -29.309704 304.76987
9.5524702 -38.593388 323.3967
8.9045086 -40.690292 323.69949
8.1938381 -42.690533 324.87891
10.68501 -23.615099 303.66495
14.359284 -27.212313 297.41736
9.0193243 -28.118128 309.23212
12.219249 -28.971668 308.46371
9.1871719 -34.466042 316.96552
8.7379227 -35.173138 321.82098
9.5995626 -34.20435 322.80191
9.3515387 -20.679558 300.99811
9.4005098 -22.931791 303.13214
11.872964 -25.668777 302.24185
9.4099884 -27.534864 308.78702
6.5401831 -33.632278 321.11389
10.52245 -18.892216 297.27332
10.135041 -20.861053 298.28214
9.4568977 -20.473263 300.80963
9.5102186 -22.903448 303.10651
9.3866434 -24.125242 307.06638
9.8006535 -26.951601 308.34195
10.192061 -10.512836 291.75424
10.927805 -12.91898 293.68015
9.9270039 -15.383759 296.0347
9.401742 -17.707008 298.38773
9.5622559 -20.266968 300.62119
9.6199274 -22.875103 303.08087
9.5267973 -6.6870751 288.65253
10.044107 -7.7845826 289.40836
9.8302498 -10.127303 291.44388
9.7135801 -12.591941 293.56735
9.4055338 -15.063365 295.8002
9.9166269 -17.484758 298.23315
8.4293108 -2.2170415 285.40054
9.5297766 -5.33885 287.80988
9.668458 -7.2929077 289.02295
9.4684381 -9.7417717 291.13351
9.0796289 -12.254228 293.3429
8.5965853 1.7584507 282.73221
8.9365902 -0.30480754 283.86203
9.0154238 -1.622541 284.95169
9.5451841 -4.0319304 286.90149
9.5345888 -6.2378454 288.37177
8.9717913 5.5543928 280.47272
9.5432673 4.1991925 281.23938
9.4526329 1.5394019 282.93875
9.9837351 -0.92736197 284.56985
12.165176 9.3812714 277.78256
9.7688618 9.2156162 278.45801
9.559844 7.3576999 279.39536
9.6283722 5.3142467 280.64462
10.003106 3.3658173 282.0119
10.938133 12.644546 277.41739
10.285603 11.917121 277.6163
9.7092304 11.299331 277.79462
9.0046606 9.6987886 278.37753
11.572583 18.565418 276.30591
10.827555 17.313198 276.6868
9.5793409 16.08651 277.30869
8.233386 15.477802 277.79767
10.75869 20.161474 275.93466
10.786261 21.598351 275.99402
9.3721008 21.015892 276.45786
8.1677074 20.551584 276.81683
10.008565 24.879559 276.41479
9.7585335 25.509146 276.50833
9.4758835 26.130636 276.69751
8.8948393 26.628107 276.79315
11.590985 31.046335 276.41608
10.683444 31.339407 276.62286
9.4767656 31.072266 276.8606
8.2645979 30.952244 277.17743
12.184248 34.694073 276.18408
10.870249 35.379795 276.67084
9.5562496 36.065514 277.15756
7.7821355 37.08284 277.92133
13.067541 42.338776 275.75122
11.952218 41.910992 276.38858
9.7137651 41.1656 277.56598
8.1311893 40.398224 278.28931
10.961154 45.877811 276.52533
10.690409 45.828194 276.55896
9.4832487 46.088467 276.88522
7.7880802 44.658081 277.49347
11.252357 50.10535 277.06265
10.590649 50.667362 277.19168
9.6049957 51.049755 277.42624
8.3860579 51.757442 277.87164
12.565266 54.245846 277.07498
11.217908 55.05978 277.63278
9.8986549 55.672047 278.29996
8.6271572 56.876884 279.07312
7.5731258 57.780758 279.67853
10.981799 57.845318 278.85339
10.133976 60.041531 279.85928
9.3844767 61.770264 280.84552
8.6741562 63.722603 281.94818
8.9745731 65.64901 282.96622
10.543525 61.355492 280.47272
10.091204 63.468616 281.71567
9.5849333 65.649994 282.92932
9.5416908 67.73951 284.04486
7.8625722 68.991638 285.11871
9.5126362 67.369766 283.84213
9.5982065 69.278679 284.97366
9.5166445 71.518745 286.36667
9.4975262 73.953529 287.81567
9.4691696 76.271873 289.38055
9.7304211 70.647446 285.82074
9.8055353 72.973549 287.185
9.4145069 75.036293 288.56891
9.5656776 77.449394 290.06229
10.168961 79.906799 292.11282
9.598752 83.139015 294.86005
8.9642382 76.068527 289.25372
9.4716883 78.540253 290.8035
9.4644623 80.667152 292.60904
9.5524969 83.194237 294.91367
10.026774 85.725357 297.64658
10.389318 87.894768 300.28766
9.0149431 80.856956 292.67276
9.5062428 83.249466 294.96729
9.4860134 85.638649 297.4953
9.4515829 88.090454 300.34851
9.1016788 90.310234 302.78595
7.6236062 90.467758 305.06821
9.5086384 85.274017 297.17706
9.666976 87.746178 299.93744
9.6047859 90.369949 302.79431
9.5526934 92.876923 305.31696
8.2053223 94.130104 307.20374
9.9039879 93.066498 305.65738
9.7157402 95.656898 307.74866
8.8973455 97.372932 308.69196
10.164285 100.03635 309.55417
15.24064 -57.071407 333.96796
14.540223 -58.972786 333.37
14.511184 -58.777504 333.37781
14.164378 -54.885109 333.49136
14.91389 -46.11504 325.5246
15.389606 -47.90461 324.41989
14.006823 -49.54668 325.63867
14.846499 -41.611317 324.0311
14.643693 -43.10482 324.53653
13.588776 -43.046013 328.92001
15.309278 -44.643044 330.56015
17.029781 -46.24007 332.20029
18.094868 -35.808296 300.5426
13.142469 -38.55759 324.76413
15.153747 -39.085072 325.87616
14.346998 -39.003464 331.35913
17.84758 -41.99918 330.60327
20.700296 -24.083782 293.66476
20.343754 -24.652533 298.57297
15.853001 -32.768044 301.50809
15.426616 -34.156635 325.34866
17.545723 -19.94364 296.66412
19.396276 -22.30928 291.29898
18.119955 -23.755821 297.06567
15.450116 -28.216589 301.43753
14.715602 -28.76231 306.99792
22.108946 -20.754341 289.49658
19.986687 -21.641722 291.01752
18.584551 -19.043262 295.48087
16.308533 -19.432329 297.50964
13.783251 -24.606775 299.66809
14.154701 -24.406868 302.11566
15.275766 -23.350685 306.55899
13.578203 -24.756577 312.48776
21.567636 -15.980679 288.60922
19.445377 -16.868059 290.13016
16.314724 -14.26709 293.39731
15.561433 -16.383087 295.29391
14.640784 -18.648924 297.40735
14.705741 -18.764132 301.47836
11.933935 -22.254347 307.34467
15.66356 -12.499918 286.71936
18.675304 -9.0702076 288.89819
15.281618 -10.839852 291.26611
14.805447 -13.209711 293.0441
13.903234 -15.475833 295.10812
12.924544 -17.689352 297.19363
17.360367 -7.9953494 286.42206
16.535465 -8.5038195 286.93948
14.609303 -7.3907514 289.1655
14.381703 -9.7183561 290.73181
13.727367 -12.23672 292.57169
13.310813 0.11742826 281.5506
13.312479 1.1547382 283.52094
14.503441 -1.9340733 285.78027
14.528194 -3.9793971 286.96466
14.402786 -6.5194287 288.53424
14.643478 3.5030062 280.36618
14.581938 2.1557446 280.76114
14.377011 1.8353158 283.37781
14.550564 -0.13604791 284.81546
14.191852 10.361305 277.9476
14.327437 8.6573715 278.62326
14.80649 7.4794183 279.35818
14.612391 5.2440343 281.15652
14.696757 4.0597486 282.29456
14.142388 13.244685 276.95837
14.33054 12.20013 277.19485
14.55178 11.21591 277.56027
14.652035 9.5781002 278.27066
15.434865 18.472778 275.72626
14.955337 17.199778 276.12875
14.500165 15.927932 276.43777
13.684639 14.627444 276.82883
13.823751 21.17248 275.69174
14.510001 20.785425 275.78033
14.638585 21.369858 275.76944
15.021932 22.427204 276.03671
16.599901 27.118383 275.90176
15.131087 26.690598 276.16766
14.511482 26.068403 276.20508
14.389856 26.014517 276.20862
15.12089 31.604942 275.83429
14.787783 31.30641 275.87463
14.454676 31.007879 275.91498
14.121568 30.709347 275.95532
16.429594 37.30608 274.72128
16.157469 36.542213 275.13861
14.389399 36.106865 275.97882
13.748144 36.236897 276.06595
17.027586 42.02037 274.31937
15.510893 41.447365 274.91638
13.935715 40.864845 275.61169
11.426289 41.086418 276.67676
15.917202 43.734043 275.67407
14.349488 45.003902 276.04202
14.564291 46.262981 276.39294
13.434716 45.951878 276.74051
17.170969 51.234528 275.94135
15.286717 50.868626 276.52722
14.465007 51.096584 276.67712
13.78058 51.580112 276.84232
14.118691 53.388245 276.80164
14.316094 54.67065 277.1647
14.554385 55.928436 277.55298
14.982228 58.14843 278.65894
15.569509 60.128292 279.86569
13.744312 57.446323 278.07077
14.579363 59.609577 279.43579
14.611744 61.827389 280.73129
14.783196 64.263 282.20682
15.446656 66.210251 283.53653
14.040006 61.405525 280.46268
14.25251 63.28754 281.59451
14.4858 65.481453 282.98846
14.822544 67.705467 284.36835
15.441969 70.281235 286.14465
13.747866 67.207306 283.98019
14.081273 68.990921 285.02179
14.583634 71.313271 286.74438
15.295752 73.571159 288.45047
16.534624 75.95623 290.67624
13.222938 70.022957 285.62152
13.431821 72.480568 287.30835
14.125354 74.746758 289.01251
14.893018 76.955849 290.92471
15.493457 79.010818 292.45831
13.657947 82.312592 294.75
13.541384 76.004707 289.63596
13.371037 77.879005 291.1796
14.317787 80.421715 293.10977
14.293565 82.782234 295.07376
13.521767 85.430542 297.87872
13.816882 87.860123 299.99332
13.139451 81.344818 293.68793
14.929183 83.251869 295.39752
14.671528 85.480057 297.6532
14.330155 87.996902 300.07242
14.179689 89.126518 302.54694
13.912629 91.432945 304.12009
15.821289 85.529572 297.42764
15.110029 88.91082 300.50375
14.520261 91.124489 302.00287
14.36103 92.56823 304.84763
13.131919 94.634819 306.32852
15.482948 92.511078 302.71744
14.803246 93.728935 305.58966
14.499483 96.162155 306.9404
13.444519 97.872169 307.80817
15.867047 97.689484 307.55225
14.902588 100.46787 308.52762
13.876047 102.1606 309.50089
19.538918 -63.964012 333.14569
19.71748 -58.439121 333.8754
24.729572 -44.069656 328.85767
16.889952 -46.469109 332.23755
21.598215 -41.993534 329.77182
19.473997 -43.502285 332.341
19.036877 -39.139187 330.1608
20.278494 -44.257023 333.71875
25.470732 -25.121044 292.69232
22.070173 -30.773041 301.82123
24.117552 -19.298132 292.01794
23.297075 -21.020391 296.13367
22.998701 -23.785006 297.43604
19.134647 -15.61242 287.87967
19.250296 -18.026701 289.74103
23.887419 -17.676882 287.84692
20.755692 -20.277781 295.96826
20.468431 -22.749176 296.79184
19.184828 -24.477114 301.98712
17.401352 -26.567324 307.29126
19.223604 -12.469512 285.46539
23.15078 -17.409369 288.00787
21.028521 -18.296747 289.52881
20.416412 -17.858095 293.90964
18.204411 -20.728245 297.28909
18.687077 -19.982256 302.33411
22.714956 -11.535751 286.58917
21.291224 -12.60344 287.33331
20.487211 -13.523086 288.64145
19.369017 -14.106642 291.77368
18.269455 -16.149429 294.01752
16.117334 -18.566004 302.62283
21.079899 -6.9762893 285.26941
20.513624 -7.6884913 285.44089
19.947348 -8.4006939 285.61234
19.919981 -8.4685955 287.71442
18.300304 -10.365628 290.04733
17.918581 -12.543271 291.62018
19.469395 3.9830551 281.06949
21.505587 -1.0984429 283.92062
20.245615 -3.4967718 285.01218
18.918913 -4.1710296 285.53247
18.227196 -6.5102291 287.74982
18.470852 4.5883317 280.30972
19.506702 4.3242764 280.76978
19.780685 1.5902888 282.88037
18.620913 -0.082039714 284.31854
18.888 10.992178 277.88962
18.745571 8.5160208 278.83148
19.182171 6.9877496 279.41315
20.039297 5.2176628 280.19785
18.645432 2.4164884 282.56104
17.674637 13.663149 277.05652
18.519554 12.487514 277.5184
19.290024 11.300372 277.94202
20.49692 10.117881 278.60495
17.132645 17.238407 276.44003
18.094683 16.726763 276.70978
19.483803 16.09304 277.24051
20.84325 15.669429 277.68567
16.890022 21.338356 275.98813
18.251844 21.204088 276.39587
19.614065 21.023184 276.6723
20.83535 20.297327 277.02817
19.173065 27.945566 275.21542
19.455109 26.919451 275.49835
19.56197 25.760302 275.78589
20.391712 24.469894 276.13403
20.534948 31.317686 274.55206
20.225187 31.452835 274.65387
19.119062 30.98889 275.0611
18.136269 30.77763 275.27209
17.153475 30.56637 275.48312
19.311935 35.220055 274.28568
19.462776 35.806126 274.36002
20.023626 36.537392 274.42245
21.355324 37.781757 274.86758
22.903049 33.305408 282.83954
18.894255 39.424488 274.66293
19.293268 40.457771 274.92172
19.832092 41.48296 275.24088
20.444471 41.771221 275.48862
24.165781 37.266701 281.25204
21.502874 46.769966 275.16064
20.360529 46.368637 275.47342
19.556961 45.894783 275.89429
18.084702 46.171314 275.77689
19.220966 50.010502 275.73599
19.398045 50.616779 275.81711
19.665878 51.380852 275.94882
19.973841 53.890408 276.89395
20.124496 52.705589 276.33804
19.843412 54.307281 276.93921
19.435768 55.650566 277.83502
19.690105 57.879406 279.21082
19.124977 59.391838 280.12796
18.225466 57.467392 278.78555
18.957872 59.450325 279.97922
19.636541 61.509689 280.98749
19.807507 64.200951 282.48645
19.408539 66.802002 284.24847
18.731806 61.70311 281.09357
19.67277 63.693607 282.07971
19.464514 65.302872 283.21564
19.497984 67.678337 284.88785
19.863905 70.086388 286.54959
19.639093 66.172745 283.7847
19.330076 68.62545 285.45804
19.525957 70.996208 287.18918
19.448326 73.222626 288.87784
18.493156 75.930405 290.69684
18.992128 69.535278 286.09766
18.206911 71.515167 287.66153
19.986443 74.566071 289.76266
19.38681 76.75882 291.18134
18.790987 78.94265 292.78906
19.766312 79.970566 293.30667
20.967665 76.296936 290.57108
20.69096 77.655571 291.66626
19.714897 80.345276 293.45413
19.529308 82.34333 294.44196
18.716635 85.987373 297.39276
19.54228 82.503197 294.51874
19.501165 83.783562 295.23526
19.554688 85.945518 297.20288
19.379616 88.187569 299.5191
19.618984 90.815659 301.56921
19.444754 84.679497 295.88547
20.39274 85.903671 297.013
19.70392 88.718063 299.93732
19.701572 96.190582 305.22397
18.773502 100.57081 305.40598
19.223831 100.87154 305.46533
19.674162 101.17227 305.52469
28.330748 -45.375797 327.03247
26.505533 -47.080078 329.65088
28.615505 -40.19492 305.78394
29.434242 -39.447479 310.52469
25.19939 -43.299679 327.94659
27.073666 -36.602497 311.27213
24.653545 -23.131544 298.70047
25.531826 -33.010071 316.76035
25.125021 -20.607903 294.58435
25.437172 -28.327663 291.5347
24.130386 -15.523461 287.99533
24.246035 -17.937744 289.85669
24.929352 -18.354471 292.10425
24.752666 -20.834576 294.86475
25.275017 -23.434252 296.63187
26.022001 -16.391762 286.91589
24.334991 -14.794836 287.44238
24.45064 -17.209118 289.30374
24.556997 -18.581146 292.38464
23.51922 -21.049591 295.98444
21.657433 -23.183821 301.77859
25.843279 -11.695425 285.73514
25.148342 -12.876172 286.14398
24.539598 -14.06621 286.88947
23.362774 -15.092975 290.28088
21.601515 -16.855518 292.57742
24.448862 -3.4785075 283.75122
25.093369 -7.5904298 284.98828
24.750473 -8.4049139 285.14969
24.546095 -9.1866913 285.35803
23.210384 -11.156053 292.54297
27.556007 -1.6454833 282.34451
26.25988 -2.6215363 282.9426
25.059082 -3.2092686 283.76666
24.136347 -4.6220918 284.4231
22.171747 5.086411 280.83292
24.761238 0.63016742 282.3147
24.591181 1.1702557 282.34692
23.66148 -0.29948536 283.05093
22.808573 8.51859 279.66147
23.470278 7.2647958 280.37903
24.768061 5.7977209 281.33459
25.838734 6.099596 282.12323
27.071327 6.120162 282.4483
20.862614 12.865926 278.07788
22.635847 12.408883 278.71207
23.909819 11.514898 279.25558
25.159067 10.498641 279.88412
25.247023 11.4651 284.66431
26.5767 12.186032 285.17377
21.785549 17.820436 277.68509
22.971832 17.138369 278.08459
24.154194 16.334988 278.5336
25.52684 15.591653 279.13593
27.056881 15.08954 279.67715
25.307573 16.31736 287.23022
21.939781 23.808512 276.60049
23.231853 22.189074 277.31543
24.277109 21.201998 277.83551
25.80912 20.733376 278.40552
29.922525 20.596983 281.98865
25.269135 21.305477 287.47064
22.710119 28.722597 274.9884
23.575535 27.435141 275.85074
24.63788 25.92865 276.66196
25.908798 24.284004 277.63086
30.157396 25.576031 281.76694
24.967251 31.91972 274.28073
24.029526 31.807972 274.26093
24.939318 30.123575 274.92868
25.865566 28.63632 275.91614
25.945147 30.290358 285.48514
23.52058 34.427269 274.51544
24.157721 35.466297 274.83267
24.796009 36.664768 275.19821
26.023996 37.604614 282.37357
27.025379 34.688122 284.26794
22.825644 39.691387 275.6077
23.763803 40.453331 275.91925
24.719685 41.127048 276.55933
25.700823 40.116924 280.60815
28.105612 39.085884 283.05072
23.131811 46.528744 276.15082
23.587534 46.115036 276.32864
24.643167 46.050217 276.75824
27.097013 45.096432 278.07635
26.406273 43.784348 281.53052
22.388361 50.846996 276.12228
23.312565 50.382912 276.46335
24.558668 51.105846 276.97208
25.910583 52.663204 277.73007
28.611254 53.599953 279.09402
22.116571 52.629524 276.74075
23.167196 54.128971 277.53845
24.302078 55.450611 278.39023
24.809374 57.083492 279.08929
24.029272 59.35323 279.87164
24.307697 59.383045 279.71744
25.055304 60.158318 279.88934
24.236721 61.561741 280.53079
23.253069 64.771416 282.12442
26.188221 63.37096 280.72351
25.825315 63.784103 280.72934
24.660887 65.850342 282.43893
23.403021 68.113716 284.47925
22.989685 70.295998 286.25916
28.205177 65.878036 281.09201
26.846048 67.802391 282.75555
25.559875 69.913963 284.41586
24.34934 71.401085 286.60202
23.523563 73.226944 288.18481
22.578735 75.23912 289.54092
27.747398 70.85511 284.02698
26.583069 72.930466 286.73175
25.160629 74.84034 288.7037
24.072252 77.132767 290.46228
23.334274 79.458351 292.25336
26.041929 72.797585 285.35596
27.733812 76.639877 288.80072
25.635487 78.55114 290.94327
24.669817 80.60302 292.75494
24.074013 83.034462 294.57819
23.954107 85.762787 296.81375
25.479994 85.754311 291.15271
25.845995 81.535126 293.16394
25.067804 83.795166 294.99146
24.529888 86.100571 297.05112
23.61175 88.477951 299.11118
24.660604 90.694962 291.14594
27.173019 88.102104 297.56888
25.597019 89.595909 299.32672
24.279535 91.522247 304.63727
26.314629 93.470787 301.37369
24.86714 95.490677 305.29929
24.370092 96.363274 305.50986
25.454746 99.459099 305.96133
24.957699 100.3317 306.17188
24.460651 101.20429 306.38245
30.759287 -53.426067 337.51019
30.18078 -53.660061 337.58932
30.153271 -48.671188 337.35535
29.574762 -48.905182 337.43448
29.522486 -43.9599 336.83771
29.314365 -44.728203 336.9678
29.415823 -32.225529 313.6698
27.814075 -21.004162 295.03308
29.769852 -32.364845 313.84415
26.460812 -16.668333 289.49554
28.349369 -18.108431 291.8569
28.871908 -20.877802 295.13583
30.916813 -16.570484 286.22095
27.002655 -14.125537 287.25558
28.54454 -16.294352 289.9765
29.429132 -18.413366 292.49506
29.955387 -20.863661 295.47565
31.312544 -25.57885 303.46304
29.162642 -10.858109 285.94547
28.952946 -11.276676 286.31668
29.297298 -13.372807 287.841
30.220999 -15.752613 290.05685
30.914362 -18.372566 292.86813
30.944494 -5.1961598 284.02118
29.463766 -6.578155 284.49152
29.506023 -8.0150709 284.94617
29.741472 -9.8748608 285.54984
29.988737 -12.813834 287.64444
29.462402 0.64231312 281.86572
29.491894 -1.272665 282.75888
29.400959 -3.4555185 283.36603
29.500557 -4.8864365 283.94919
29.96797 0.22524184 282.05292
28.46681 0.92970324 282.36111
29.391268 1.0106279 282.53485
30.564444 1.6445698 282.95074
32.464893 4.0941243 284.14377
26.889257 9.1873207 280.70749
28.1408 7.7151141 281.62122
29.212578 5.6897736 283.49017
30.523291 7.1622725 284.59442
32.271618 8.706337 285.91281
27.127487 11.93565 280.07785
28.708275 11.034207 280.33105
29.898338 11.09714 280.63336
29.853296 11.251628 285.99399
31.182974 11.972559 286.50345
27.021711 17.658577 279.25778
28.315674 16.411352 280.02768
29.842445 16.148283 280.77594
29.405596 16.038509 287.87167
30.183239 16.278923 288.00787
26.343142 25.235527 277.38138
27.196348 21.708246 278.79639
27.685083 20.970184 279.28192
29.804316 21.053574 281.82028
31.995415 20.828043 283.96204
30.144802 21.267038 288.24829
27.482325 29.053158 275.97723
27.380203 28.169731 276.59274
29.372332 26.33869 277.70206
29.758429 25.959108 282.08743
31.960836 23.96557 283.22031
32.634548 21.369442 286.58606
26.365805 31.117573 274.96945
27.729235 31.559029 275.56076
29.738865 30.989859 276.67218
31.951933 29.482368 278.49713
31.433369 25.570393 282.14133
25.842581 34.405663 274.8002
27.716009 35.254589 275.87906
29.505142 36.0144 277.1691
27.904457 36.985558 283.91141
30.087763 35.768353 286.45123
29.557352 36.263634 292.20255
26.864662 37.315964 276.34903
27.893112 37.305546 277.57428
27.747868 43.035297 280.06564
29.063013 41.448193 283.0177
30.840479 40.046509 284.4566
29.108047 37.876755 289.90872
26.215723 46.861378 277.24951
26.841694 47.60677 277.32315
28.74419 46.525818 278.61398
30.515238 45.000217 280.4313
30.09959 46.749935 285.30981
31.385376 48.274422 286.30225
25.529512 49.936684 276.92166
27.254276 50.428333 277.67999
28.764189 50.638496 278.2916
30.774944 51.846001 279.64532
29.610472 51.170013 286.83429
29.68327 50.66309 290.74286
27.464701 53.698353 278.60031
28.33806 55.391338 279.60861
30.166508 56.075287 280.54254
32.876259 54.745586 283.00595
29.841452 55.227398 289.34158
29.210634 61.149662 279.98126
29.414001 61.10429 279.98996
29.646397 61.000603 279.93307
33.540501 60.967449 283.95807
34.332611 59.528069 285.72202
29.212484 66.149254 279.93591
29.659237 64.335365 280.92526
29.706144 66.133408 281.61777
31.338709 66.656754 282.29822
26.515482 70.878357 285.28329
31.244137 68.666405 282.23495
30.467554 69.760605 282.62552
29.690969 70.854805 283.01611
29.16721 73.083023 285.07172
27.331806 74.706017 287.64587
30.528553 72.108589 283.86984
30.063717 73.164444 284.98972
29.674938 75.880608 287.37546
28.210052 77.805969 289.41095
27.773155 80.331749 291.57031
31.731092 75.131607 286.30276
30.671526 77.695198 288.07327
30.665306 79.551102 289.34094
29.084316 81.57386 291.2171
28.389946 83.551735 293.93243
27.486761 85.705032 295.81424
30.42618 85.77269 290.63712
29.910583 85.948761 290.6972
30.455894 84.85054 294.21225
29.031183 86.744499 295.91656
27.776279 88.647499 297.84122
29.703329 89.4338 301.76859
29.655712 90.709602 290.9903
31.41511 88.956284 295.99234
29.838566 90.733086 297.71292
29.516043 90.750206 302.59485
29.630785 93.006981 304.02536
30.756308 94.287628 300.02734
29.443501 94.323387 304.85162
28.788399 96.754807 304.6181
28.821461 97.326424 305.22336
31.738493 99.071472 304.36292
29.906115 100.42226 305.67484
29.409067 101.29485 305.88541
28.91202 102.16744 306.09595
35.691277 -53.453575 336.9317
34.612316 -53.468197 347.56506
32.440575 -26.444994 304.25208
34.375385 -30.54031 310.06989
32.518539 -19.670843 294.7059
33.031353 -23.307129 300.12491
33.811901 -26.346071 304.54883
34.620937 -30.819101 310.3978
32.70517 -15.579256 290.51187
32.637848 -17.818834 292.84842
34.53064 -23.915541 302.08273
35.183224 -26.24715 304.84558
33.209385 -11.202646 286.69839
34.242832 -13.049138 288.24466
34.184937 -15.411798 290.53436
34.026508 -17.779984 293.25882
35.353184 -22.272558 301.24377
36.069115 -23.886293 302.57562
34.322308 -9.2858925 285.67786
33.954838 -10.551234 286.27829
34.483143 -12.918114 288.1312
34.681515 -15.424366 290.59708
36.015079 -17.267149 293.61484
36.444733 -21.729771 300.13571
33.427414 -6.5514364 284.44949
34.251492 -7.9468198 285.24341
34.808041 -9.4413052 285.90533
34.723454 -12.787088 288.01773
40.559353 -13.7241 296.16895
33.641495 -2.0106244 283.02148
34.307262 -3.4386497 283.58047
35.466873 -4.850668 284.28821
35.494953 -6.205267 284.82837
34.022469 -0.3937493 283.2872
34.408943 0.72087932 283.58304
35.229309 2.2652121 284.5762
36.067539 3.7376616 285.19345
33.9482 1.3807839 296.3801
29.96262 2.9828141 282.85263
31.642422 4.1204243 283.89178
33.498253 5.0136776 284.87534
34.876362 6.4880652 286.03275
35.95985 7.8814116 286.74365
34.912014 5.8811841 297.52875
32.216732 10.955333 281.21878
33.406796 11.018265 281.52112
33.354893 9.9921865 286.69061
34.455776 11.009006 287.35785
35.661259 12.087188 287.95148
34.971348 10.812717 297.80475
32.327618 15.576064 281.33673
33.451248 15.831733 281.61813
34.574879 16.087402 281.89957
34.072697 15.780587 288.29468
35.538544 16.504454 288.99994
39.027428 17.068731 290.9389
29.173693 26.286015 278.32016
28.167797 20.70706 279.67349
30.625732 20.850231 281.73984
32.656563 21.268078 284.44949
34.046871 21.24197 288.14789
35.891754 20.618565 289.08014
37.596142 18.375101 290.73669
29.939381 30.54187 276.71368
30.579866 28.68462 277.92538
33.370029 28.595608 279.50128
34.470875 26.462337 282.40686
35.261421 24.052378 284.98853
36.857838 22.548426 287.96091
38.323891 22.733047 289.23059
29.295313 31.984245 276.29086
31.427746 31.615183 277.53925
33.770348 31.337744 278.70187
35.239014 30.195639 279.66656
35.318352 26.191401 282.8811
30.041859 34.618572 276.80951
31.909348 35.225384 277.76218
33.663616 35.879005 278.7464
35.155914 37.194935 280.27655
34.802044 38.108139 288.45175
34.497746 35.814327 291.89825
31.847532 40.151917 278.41043
33.291931 38.853683 280.66061
34.894123 40.058525 283.44327
34.352741 39.721264 286.15796
37.701023 45.238647 287.82257
40.517334 45.308758 290.79285
32.384846 46.06171 279.30765
33.749607 46.071938 279.71304
33.889969 44.458378 285.63263
34.687057 46.260818 286.59558
37.141537 47.922173 289.33743
39.158974 49.348438 292.21912
33.783901 51.65374 279.11783
34.306229 51.251991 279.20624
34.702213 51.457844 280.59689
34.46072 51.052227 287.11664
36.339272 51.55587 290.13797
38.754452 52.194992 292.54611
31.004816 58.172585 280.9108
34.03511 54.962231 281.42047
33.678108 56.418308 283.11713
35.003555 56.034306 286.40915
34.784019 55.385582 289.85034
35.292778 53.984299 290.34344
31.394279 62.94133 279.93555
33.036732 61.966076 280.82272
34.834843 61.236671 281.25146
35.265549 60.84119 286.10645
35.691479 59.875591 287.52429
32.867252 62.568748 280.77948
33.665157 64.249908 281.61005
33.709656 66.070854 283.41403
35.929611 66.20385 284.7616
34.204166 64.106354 286.8334
31.450941 71.137764 282.48056
32.812492 71.111275 282.88403
33.426575 70.803818 283.79022
34.539864 71.295799 285.61951
34.5639 72.027405 285.72906
35.449711 72.422829 283.33203
34.798328 75.459152 286.22348
34.486271 76.185936 286.3519
34.888538 78.611092 288.19092
35.581097 80.993629 289.75366
34.132778 80.738464 286.26132
35.538368 78.090714 287.37213
34.360859 79.854446 288.95319
35.097065 81.867867 289.80853
32.596539 83.651665 292.5979
31.171827 85.545624 294.30222
34.772182 85.788078 299.62656
33.894299 84.603935 290.42468
34.263016 85.455193 290.60318
34.631733 86.306442 290.78168
33.415287 87.563255 294.49185
31.990576 89.457214 296.19617
34.699638 89.361252 301.88333
33.498341 87.348503 314.85788
34.650822 90.724251 290.83469
34.495193 91.190071 290.88339
34.080654 91.587265 296.13638
34.512356 90.677666 302.70959
34.627098 92.934433 304.14011
35.870537 89.43428 314.9465
34.362167 91.2873 316.71088
34.554554 96.507614 306.39685
34.357483 101.38541 305.38834
35.247257 -51.811714 338.50043
36.496418 -53.884338 341.62799
36.629963 -49.105919 336.4278
37.87912 -51.178547 339.55536
37.634338 -51.338757 345.24139
39.542038 -53.868954 347.13397
39.110931 -56.327263 349.4895
39.261822 -48.472752 337.48273
39.950405 -49.736507 342.06647
38.027161 -48.140285 346.9595
45.47942 -34.613888 301.82504
44.457035 -36.1045 307.93155
44.212559 -36.492619 312.88913
40.062592 -44.197399 347.11795
39.557869 -32.292164 311.21631
43.273438 -33.066879 306.9184
41.976868 -35.041924 312.50101
37.985023 -25.239138 304.24542
38.078899 -28.139933 307.69925
39.542301 -31.392593 310.56378
39.652489 -33.763489 312.06915
39.766361 -33.612621 317.06201
38.932537 -23.305761 285.04163
38.763119 -21.720318 289.46716
37.929165 -22.818016 301.91287
39.199677 -26.150532 305.4725
39.493164 -28.157406 307.80457
39.628555 -30.621527 310.14957
37.36557 -31.793385 317.21289
38.663578 -15.149063 290.71808
36.544346 -16.333452 292.67752
39.230686 -21.095884 291.05261
39.232983 -21.252337 299.79379
39.31662 -23.099638 302.72839
39.731102 -25.573437 305.05359
39.757488 -28.270765 307.93802
36.923859 -10.299167 286.28708
37.647633 -12.691467 288.73184
36.827152 -16.766476 287.48419
38.55761 -16.446011 293.90424
39.403946 -18.741934 297.2551
39.785892 -21.177626 299.78137
40.319805 -22.315624 302.38748
37.293167 -9.6999407 286.6041
37.573772 -10.765321 287.29938
38.819019 -12.772075 288.97943
39.684994 -14.043541 292.05374
41.704185 -15.661972 295.73376
43.231659 -16.885773 299.78912
38.830566 -6.6903768 285.32306
39.224571 -7.9427752 285.69556
39.571712 -8.9850645 286.97269
39.824764 -11.235195 293.90146
37.259937 -4.5596113 283.88535
37.672897 -3.2277968 285.0546
39.834785 -4.034986 286.59299
39.718105 -4.4105186 289.58878
40.074982 -5.3504753 289.79987
35.31493 -0.9462586 283.4509
37.465141 0.085605256 285.20135
39.93037 1.7669621 285.29327
39.915985 1.1282486 288.90219
37.265564 3.386698 292.3269
36.747665 3.2283828 285.45502
38.103153 4.6152096 286.37726
40.268642 5.6963239 292.9538
38.052643 6.8450003 295.31277
38.24456 10.784703 282.48611
38.242432 9.8139286 288.01816
39.236397 10.787562 288.4411
40.772026 10.328844 294.1337
38.757767 11.546119 295.79047
38.183678 15.770851 282.74179
36.400181 14.316113 288.95615
38.18877 15.321994 290.02814
39.951069 16.187098 291.42371
42.178043 16.768867 292.94797
38.311066 29.831442 279.17603
38.648479 27.413708 282.21521
38.614807 25.387005 284.94107
38.257713 22.420807 288.00113
39.874245 20.990829 291.34479
40.515163 18.781574 292.56927
39.152481 29.18924 280.82947
39.34499 27.613884 281.39783
39.401928 27.014856 282.83667
39.834431 25.183256 286.36234
41.631977 23.866539 290.55463
40.939938 22.788778 290.62045
38.412937 31.261686 280.08228
39.098526 31.149103 280.18076
39.784115 31.036518 280.27924
40.458 26.363054 284.06119
38.044506 34.36562 280.08148
38.904961 35.355583 280.45322
39.652859 36.389896 280.7052
39.368053 40.23011 282.97894
40.962372 43.067379 286.92535
36.743534 36.078133 280.13312
39.362747 38.450932 281.64249
39.567455 40.201275 282.94171
39.640656 42.616123 285.98926
40.322777 43.659279 288.3663
41.018921 45.933838 290.09705
39.207958 46.327579 280.13031
39.164474 42.648735 285.60565
39.196339 44.433365 288.28864
39.978474 47.065533 290.62961
40.592358 49.076149 291.88916
39.641411 51.321526 281.12769
35.974503 49.813393 289.05124
39.484856 51.057335 292.17621
41.569931 51.996044 293.64728
38.974308 54.825916 281.95126
35.998627 56.404305 287.08694
38.603378 57.120602 289.51468
39.964497 55.810986 291.27881
39.316284 56.249851 295.76849
37.699364 60.113831 282.08408
39.301609 62.071178 287.13858
39.54002 61.35405 287.73047
40.677238 60.052872 288.97989
40.827618 61.19521 298.24258
35.018085 64.572144 283.94727
38.370224 66.523384 285.87222
39.620178 66.01899 286.33154
40.272018 65.808777 290.04037
41.851566 65.233994 290.68979
36.537773 71.278908 285.02994
38.647949 70.759743 285.83911
39.739258 71.217552 286.15265
40.781059 71.922386 286.49213
42.060249 70.158058 290.11499
39.026901 71.738586 301.0683
39.131348 75.737251 286.29419
38.103085 75.064156 286.4458
39.51239 76.063408 287.13876
40.310562 78.08329 288.55771
41.225933 80.674614 290.68964
39.272446 76.997803 300.43585
39.123329 80.730446 286.4783
39.340336 80.914581 286.49457
39.140587 79.433167 289.29367
39.75544 81.786583 291.06924
37.540092 84.266533 291.05539
38.558151 85.19194 291.46802
37.795177 88.212334 313.34949
39.16972 90.239799 291.82315
40.167374 90.298111 313.43814
38.659004 92.151131 315.20251
41.031204 94.236908 315.29117
41.9538 -47.386196 337.84933
46.763126 -50.099567 306.66849
47.46051 -50.467693 311.54086
43.873104 -47.250507 338.55313
43.908978 -47.706257 342.09195
46.804638 -34.122341 311.59564
49.166313 -35.724216 308.78503
47.647869 -38.516148 312.45267
44.717346 -43.961342 337.23907
42.299122 -43.448643 340.11237
47.086353 -30.371675 308.02319
46.727783 -32.514149 309.9003
47.070332 -34.713924 307.625
45.492722 -37.25618 312.19257
45.342842 -37.516281 317.17447
47.238506 -26.022915 303.82858
47.960445 -28.177864 305.9725
46.137764 -29.699062 307.7948
45.269215 -31.772106 309.70175
44.601913 -33.807411 312.09164
43.187691 -36.256313 316.91437
48.535534 -23.382101 302.12378
47.173725 -25.266907 303.70566
45.338345 -26.434092 305.63458
44.617638 -28.662083 307.43472
43.573467 -30.827257 309.53616
42.412998 -32.240131 317.16638
36.407146 -17.447931 288.30057
40.525383 -18.311722 297.62973
45.012665 -21.045311 301.92633
44.649261 -23.22353 303.25446
44.507641 -25.485844 305.12985
43.942913 -27.609896 307.24057
41.354012 -13.799638 290.55136
38.810638 -14.362982 287.93854
40.72794 -15.873853 294.42969
44.592697 -16.824772 299.15225
44.478867 -19.478573 301.22958
44.070282 -21.693905 302.40436
42.106705 -10.012628 288.54462
43.692581 -12.658005 293.95978
44.551281 -14.291718 296.65775
44.448986 -16.848736 299.18063
44.191025 -7.8361406 286.08957
43.607925 -6.9098701 291.14526
44.563187 -8.9541655 292.00772
44.797279 -11.017522 294.20026
43.439396 -3.1649833 289.64761
44.139824 -3.6500936 289.79727
44.897739 -4.1892338 289.95703
47.537521 -6.1817365 292.05881
43.654415 0.96221364 289.35095
44.249287 1.0405047 289.42401
44.844158 1.1187958 289.49707
48.227673 0.76962662 290.71445
45.044746 3.236449 289.47379
44.744389 4.9031358 290.1348
43.909924 6.7120514 290.77194
42.279896 8.3721037 292.35693
40.836094 7.2957363 288.19733
45.160118 7.5962458 291.14047
44.914845 8.5967226 291.32764
44.581581 10.760435 292.62045
44.064392 12.487304 293.06287
51.886608 20.96627 280.75742
48.063942 23.527859 283.91525
47.96389 21.981951 282.28076
41.297234 15.23258 292.12646
43.907188 16.135229 293.64371
45.074501 16.21213 294.14291
52.49408 25.353973 277.49677
50.313808 24.182919 279.64316
48.288876 25.006899 282.0722
47.146454 24.698069 282.03928
45.668045 22.171543 288.85919
44.513184 20.995724 291.97195
44.806244 18.579784 293.26248
51.599346 29.8734 276.32571
48.335678 29.387634 278.84097
46.528507 27.814806 280.62659
44.612629 26.983597 282.77356
44.417877 25.067848 286.47296
44.86697 23.490139 290.07974
43.505177 21.756636 291.56345
53.02354 31.578178 275.51486
47.432922 30.684181 278.6864
45.618065 31.354013 279.55444
44.033871 30.899532 280.14078
44.124619 26.453321 283.5188
52.114937 35.19157 276.22992
48.262222 34.878475 278.63373
45.738773 35.417988 279.86069
44.216572 36.364105 280.48706
44.070187 40.304798 282.99246
43.134903 42.653564 287.40298
51.613071 38.517048 277.15204
49.481712 38.106789 278.38593
46.123634 39.120403 281.02756
44.623093 40.251701 282.87491
44.307705 42.136257 286.3244
44.797672 44.152744 289.07205
44.530796 45.231514 290.09824
48.284977 44.007675 281.83072
45.660275 42.523746 285.00641
44.363541 44.11475 288.99487
44.532402 46.725952 290.98776
44.644394 49.068233 292.29672
46.906487 43.401691 287.22421
44.202488 48.342072 291.97906
44.493206 50.56617 293.25876
44.70216 52.371979 294.00766
43.913506 54.689598 282.48206
41.672489 58.639114 289.81561
47.978012 57.479931 292.20917
45.777454 56.584377 293.931
44.185295 56.353985 294.97672
44.072235 63.057171 287.16287
44.291595 62.114223 287.35794
43.32534 61.519367 291.70224
44.536854 61.076286 292.06079
43.078674 60.945972 295.76755
43.401665 66.838219 286.71082
43.977142 66.451317 286.80893
44.55262 66.064415 286.90701
44.69854 66.017456 291.6199
44.717705 66.601585 292.74512
44.927807 67.196404 292.82602
42.680164 69.203873 286.37625
43.602169 70.136528 286.74786
44.561783 71.117096 286.87863
44.606152 70.973068 293.43701
44.770504 70.767136 297.55078
43.278553 72.716232 299.57635
45.467487 74.576233 287.05124
45.013187 75.305984 287.20367
44.558887 76.035744 287.35611
45.170109 77.808258 289.6723
44.77058 75.2369 298.57648
44.178543 77.32975 299.84381
43.586506 79.422592 301.11115
45.081577 80.196129 287.93344
43.73489 78.911896 290.08612
45.333534 86.780861 288.13303
43.454872 85.131577 290.655
44.392014 85.796143 296.5072
42.092014 89.076164 311.84113
44.08316 90.683151 286.48373
44.870155 91.753418 293.44272
44.464211 91.161942 311.92978
42.955841 93.014961 313.69415
41.447472 94.867973 315.4585
44.86684 94.887688 313.88733
44.237465 97.129341 315.4769
43.667 97.873711 317.87936
47.41272 97.488991 314.17056
44.403469 99.397148 316.02179
44.868435 100.38132 318.7045
50.407818 -67.827072 394.6199
47.952557 -48.088085 307.36588
48.649937 -48.456211 312.23825
49.347317 -48.824337 317.11063
49.266655 -43.781757 302.12537
49.964035 -44.149883 306.99774
50.661419 -44.518009 311.87012
51.358799 -44.886135 316.74249
52.139652 -31.32943 306.88831
50.647682 -32.465069 309.05316
51.83675 -35.254635 307.39203
52.062363 -26.53714 303.06357
51.523838 -28.122992 304.57062
50.728062 -30.440689 306.57559
49.83017 -32.199467 308.93799
49.403751 -34.127453 312.05905
54.944233 -21.437044 298.54584
51.815811 -23.44628 301.02121
50.783119 -25.271738 302.50754
50.460808 -27.366838 304.48535
49.426689 -29.277157 306.62225
48.725952 -31.623468 308.6185
52.380592 -20.391638 297.94244
52.440144 -20.526201 298.92758
50.728191 -21.948847 300.47177
49.51844 -23.941933 302.04089
48.435589 -25.725109 304.21945
52.051537 -15.307473 296.40015
50.947308 -16.892128 297.31284
50.12851 -17.910383 298.50586
48.644981 -19.910707 300.25345
46.916489 -21.401224 301.86557
45.010075 -9.1793089 292.30957
47.571175 -10.049318 293.74368
49.382816 -12.473695 295.29572
49.49382 -14.286396 296.4679
48.615891 -16.890593 298.53656
47.531933 -4.5684886 290.87912
46.690418 -6.7848802 291.82315
49.175926 -8.4638672 293.5289
49.663036 -10.181801 294.27747
45.872833 -2.632205 290.05835
47.727184 -3.2858067 291.01428
49.413528 -3.8536513 292.29303
50.190872 -5.0499659 293.01859
46.988297 1.2963402 290.12976
48.423721 1.1730535 290.58664
49.807938 1.1621875 291.57501
51.031624 1.5480347 292.45746
46.514042 4.1484122 290.1792
48.072208 5.1443229 290.99686
49.31295 5.9864163 292.38135
51.226616 6.7331614 293.55392
53.353508 21.234232 284.8949
50.18882 8.0406084 290.83359
47.709915 9.1977386 292.3201
49.104908 10.66165 293.28616
50.504028 11.080919 293.59714
54.364964 22.300594 278.35599
53.416168 22.528221 279.67365
52.227592 23.991703 281.38489
51.525829 21.132071 285.96014
51.659256 19.359787 286.65692
50.15163 16.31328 293.1398
48.158752 15.874578 294.35748
55.010361 28.131714 274.86246
53.570702 26.277777 276.50204
53.950851 24.014744 277.29199
51.869183 22.630968 279.83475
49.767815 21.413519 281.88568
49.45747 20.948357 287.0722
49.177681 20.102657 291.15994
48.700211 19.222641 292.83289
56.673283 29.04421 273.40121
52.77644 30.254959 274.6481
52.474617 27.722244 276.58096
50.572975 26.636551 278.43823
49.175365 25.323914 281.38467
48.08506 24.072702 287.09741
46.646442 23.297316 287.54523
55.201714 31.675339 273.56091
55.512371 31.430193 273.01926
53.016781 31.283125 275.53915
49.837006 31.188673 277.60526
48.13681 30.70635 278.54196
55.519634 33.344872 273.18192
55.091446 35.428082 273.78717
52.915169 35.523743 275.60388
49.9744 35.935764 277.85327
47.924797 36.866714 279.09155
46.96553 40.991451 282.72189
47.253376 43.44846 287.134
54.008095 38.033871 275.2067
52.639774 39.456951 276.61511
50.618458 40.478794 278.45233
49.126335 41.556248 281.59564
48.924931 43.043148 285.75876
49.269939 43.515522 288.64505
49.016479 45.86697 290.33484
53.309383 42.010315 276.78003
53.405647 44.057423 277.7338
51.566525 44.955746 279.6535
50.680626 44.726261 283.43555
49.703449 44.49369 289.3067
49.449989 46.845139 290.99649
49.526108 48.704716 292.14697
52.234917 47.896275 285.27548
51.403931 48.904057 290.99887
49.862206 50.746262 292.72006
49.150661 51.956272 293.44662
47.035156 60.135883 291.73187
48.075207 58.44598 292.71115
49.115257 56.756077 293.69046
50.813847 56.090973 294.07446
48.809151 61.279667 292.68002
49.379421 61.119976 292.81677
51.863949 60.399178 294.44318
52.15749 60.752895 295.21893
49.104961 65.568298 292.84192
49.47105 66.004372 292.90759
50.544785 66.297791 292.92599
54.216919 64.421852 295.42484
48.640335 69.993523 293.09549
49.343376 70.847763 293.35364
49.022156 71.744781 296.05884
47.530205 73.693878 298.08438
49.516312 76.104134 286.90182
48.548843 74.764557 294.75674
49.739506 75.513664 297.91443
49.084641 77.66169 299.25177
49.837009 79.955681 300.43628
48.513641 78.311249 290.92068
49.396191 79.338234 300.05551
49.566788 81.512184 301.33286
49.104176 82.9776 303.71347
51.448803 90.163979 310.3349
50.168125 91.309738 310.78818
48.690414 89.391495 293.66714
49.624443 91.833199 311.16876
48.999969 93.298309 312.98706
47.220272 93.405716 307.33154
49.766079 95.105049 313.86826
49.412117 97.20459 314.97208
49.439896 97.069267 314.95731
49.848454 99.41217 315.99319
49.508957 101.20305 316.7822
55.528133 -72.676514 394.28214
53.585651 -70.107323 394.73541
54.929234 -68.42598 395.96347
51.643173 -67.538139 395.18872
52.986752 -65.856789 396.41678
54.33033 -64.175438 397.64481
49.141983 -46.076607 308.06326
49.839363 -46.444733 312.93564
50.536747 -46.812855 317.80801
55.224983 -39.382908 313.70642
54.967487 -41.071289 314.38077
51.850845 -42.506527 312.5675
52.80093 -43.806366 314.05905
56.129528 -31.542389 306.25702
55.610756 -33.939907 308.27457
54.866985 -36.730297 312.69238
54.622543 -38.508667 313.12469
52.883694 -38.811901 314.20328
56.578041 -26.782263 301.58047
55.909981 -29.114353 303.47629
55.215858 -31.02721 306.02081
54.674961 -33.264729 307.89456
54.541386 -34.861431 311.02081
54.108559 -35.874374 312.1293
58.305374 -21.565453 297.32437
57.160076 -23.62546 299.18756
56.164932 -26.290581 301.397
54.808308 -27.751646 303.65454
54.258587 -30.083784 305.49414
53.256554 -33.22208 309.21765
56.994953 -19.980091 296.69012
56.904015 -20.642231 297.10242
55.338749 -22.451092 299.11758
54.228672 -24.636646 301.04587
53.835835 -27.145664 303.28284
57.316784 -12.829825 293.37854
57.179195 -15.951273 295.13159
55.858616 -17.433737 296.11227
54.539249 -18.912922 297.09186
53.461624 -20.930752 298.87878
59.20533 -11.148885 291.76672
57.371048 -12.237573 292.9628
55.459755 -12.539625 294.10944
54.100643 -14.505192 295.36679
53.030048 -15.949795 296.12985
57.876678 -7.680151 291.69861
57.003807 -8.3276005 292.13898
54.87706 -8.777936 293.2453
53.540134 -9.3380022 293.70837
57.201027 -3.1400681 291.11533
56.994366 -4.0019431 291.50238
54.784615 -3.8705652 292.62198
54.045742 -4.3193631 293.17102
57.865818 -0.90020925 291.24442
57.011108 -0.19043483 291.74564
54.71899 0.97204643 292.80884
53.5471 1.6373354 293.20312
58.915237 14.068475 288.28995
57.925961 5.867909 292.15891
56.81369 5.5431185 292.59885
55.063423 5.9533978 293.36154
53.72673 6.5846648 293.81271
56.163151 21.201151 280.50955
59.077061 18.910902 284.36871
57.936024 15.236956 288.00986
56.249069 13.077507 290.57831
54.560509 11.095404 292.12726
54.686825 10.448034 293.94788
58.961079 24.74316 275.57779
56.059055 22.837046 278.59695
55.304871 20.87216 281.07043
56.53091 19.310545 285.46075
55.288448 17.014462 288.31741
53.771217 15.751208 290.95703
51.833435 15.050858 292.44028
59.016277 28.055557 272.62051
59.233749 26.172544 274.06247
55.90612 24.834688 276.59756
54.93959 22.879658 278.81485
54.972481 22.130301 282.87149
54.014908 20.040598 286.18076
52.615211 18.157726 289.22867
50.402611 17.802635 292.21548
60.968933 26.223282 270.16574
57.8111 29.163273 273.07196
55.719997 27.60676 274.84805
54.277996 25.654745 276.57843
53.749649 23.778276 280.82486
53.137691 21.869024 284.14612
60.925129 31.222292 270.11069
57.701046 32.127277 272.16144
55.453678 31.460407 273.53729
53.120613 30.875313 275.39157
51.63641 31.223131 276.7254
60.881329 36.221302 270.05563
56.757664 34.90715 272.95682
55.454296 35.657112 273.78616
53.084141 36.315083 275.56616
51.099854 36.375381 277.11914
57.90551 37.5168 273.40488
57.124031 38.286938 273.73456
55.657738 39.866138 274.96722
54.027187 41.341511 276.33832
51.722775 42.628036 278.51657
53.615509 44.043724 285.08777
54.250534 43.695568 288.39157
53.99707 46.04702 290.08136
57.738678 42.624962 275.31375
56.272385 44.204163 276.54642
54.941822 44.269547 279.16208
54.393932 46.691143 281.36935
55.286812 45.668621 289.3222
53.821571 46.463665 289.95917
52.356327 47.258713 290.5961
54.103794 47.470943 279.64636
54.334076 49.40749 280.58215
57.537994 48.213108 286.72589
55.739922 49.927059 288.94427
54.108135 51.571007 291.1868
52.952061 54.199856 293.68246
54.22435 53.484749 282.51871
58.356087 51.24284 288.13123
56.975445 52.800457 290.15247
54.745129 54.916592 293.60501
54.362118 57.225952 295.21634
59.138027 53.87183 289.77393
50.540031 62.267681 293.16049
52.773865 61.601967 294.75671
54.866035 60.990009 296.12997
56.420452 60.580597 296.71527
52.969498 65.738029 293.48758
53.245972 66.141144 294.33136
55.082962 66.000359 295.8576
