# .PCD v0.7 - Point Cloud Data file format
VERSION 0.7
FIELDS x y z
SIZE 4 4 4
TYPE F F F
COUNT 1 1 1
WIDTH 1584
HEIGHT 1
VIEWPOINT 0 0 0 1 0 0 0
POINTS 1584
DATA ascii
188.21581 115.18245 426.31845
186.61089 114.09128 430.39441
185.16196 113.82011 432.5351
198.79596 118.97639 389.1507
197.2365 118.30596 391.43137
195.69678 119.01765 394.61951
194.07524 120.35252 399.42993
191.96092 120.934 403.51291
190.10632 121.0361 407.31641
188.33141 121.18988 411.56369
186.62366 119.34058 418.07486
187.05721 120.30518 422.0719
187.35231 121.17152 427.5864
200.13557 122.61889 389.03232
198.24078 122.98174 392.36215
196.76482 123.71732 395.54251
194.62598 125.0796 399.85135
192.54814 125.34965 403.5441
190.66942 125.80331 407.62985
189.12036 126.15027 411.93082
187.25539 126.80863 415.85098
185.32494 127.45226 419.26437
188.45195 125.63128 428.74951
199.54018 127.26283 392.74316
197.38008 129.1261 397.07376
195.21024 129.66576 400.69205
193.74521 129.81935 403.80807
191.87105 130.28569 408.1319
190.26155 130.87085 412.30463
188.67027 131.44067 416.46667
186.56181 132.3278 419.97534
187.87584 130.38292 429.65723
200.54385 134.84828 394.04086
197.95717 133.94481 398.0274
196.59093 134.6051 400.10269
195.02821 134.71501 404.15543
192.80692 136.2052 408.87531
191.53189 135.55322 412.82828
189.67746 136.04945 417.14621
187.79468 136.62869 421.11725
201.31004 140.74763 391.76663
198.99719 141.0282 397.0275
197.19789 140.17474 400.24582
194.83661 140.95207 405.31223
192.70085 140.77982 408.68225
191.35027 141.25079 412.58667
190.88675 140.64862 417.82419
188.9225 141.27121 421.73984
201.43094 145.74425 391.81479
199.46356 145.39227 396.49454
197.67574 144.57108 400.44672
195.33725 144.93694 404.7413
193.50008 145.29803 408.89795
190.52664 146.33905 412.04327
190.99411 146.02548 417.21005
190.54219 146.04166 422.16882
201.9339 148.97835 391.26599
198.7108 153.65085 397.31134
197.83864 151.38803 400.99005
195.91542 150.27515 405.18298
194.32564 150.79097 408.99487
192.60616 150.89388 413.30673
191.32906 152.78654 417.46454
199.74364 158.94038 392.90039
197.71234 158.37093 396.74185
198.46878 155.00058 400.7681
196.28732 153.94438 405.3653
194.58276 155.77557 409.09778
192.86328 155.87848 413.40964
191.14378 155.98138 417.72147
199.2897 157.99609 401.82706
197.46869 158.57126 405.94046
194.3588 158.86095 410.9718
192.19199 159.85626 414.22299
190.43547 -136.01909 298.9205
192.49663 -134.96423 300.47766
194.55777 -133.90936 302.03482
196.61891 -132.85451 303.59198
189.80396 -131.34229 299.97534
191.8651 -130.28743 301.5325
193.92625 -129.23257 303.08969
195.9874 -128.1777 304.64685
192.659 -123.23935 297.03607
193.56342 -123.56895 297.22882
191.23358 -125.61063 302.58737
193.52718 -124.41565 304.16571
195.39647 -123.49831 305.28217
192.72101 -118.26195 296.70648
193.62541 -118.59155 296.89923
194.52983 -118.92115 297.09198
192.66321 -119.87897 305.1994
194.72435 -118.82411 306.75656
206.89435 -113.46938 405.71646
203.94684 -117.98183 408.44736
201.64183 -118.21207 411.88754
196.48441 -119.91402 412.66803
192.78302 -113.28455 296.37686
193.68742 -113.61414 296.56961
194.59183 -113.94375 296.76236
205.91161 -112.78557 404.77695
203.6066 -113.01581 408.21713
201.30159 -113.24606 411.65729
198.3665 -115.87045 413.23825
192.84503 -108.30714 296.04727
193.74944 -108.63674 296.24002
194.65384 -108.96635 296.43277
206.43674 -102.74069 401.13742
205.57137 -107.81955 404.54672
203.26636 -108.0498 407.98688
201.3707 -112.39713 409.14847
200.24858 -111.82689 413.8085
196.19833 -109.40491 422.59824
194.87386 -109.02106 427.1835
193.54938 -108.63722 431.7688
205.03252 -98.469872 400.0686
202.97424 -99.538689 403.50195
196.7583 -101.28259 409.9498
195.57286 -102.68855 410.75626
194.38742 -104.09451 411.56274
194.86458 -103.92795 417.0748
197.42421 -104.76017 422.98206
196.09973 -104.37633 427.56735
194.77525 -103.99249 432.15265
203.4305 -95.012161 400.11267
202.64418 -95.557915 401.63263
198.94754 -97.040024 404.07495
197.31543 -97.73584 408.33621
195.68332 -98.431656 412.5975
194.95117 -98.929443 417.07431
197.96815 -99.037224 422.64435
197.32562 -99.731598 427.9512
196.00114 -99.347755 432.53647
206.02875 -88.426537 391.04742
204.63022 -88.808807 393.3645
202.51552 -89.809708 397.84393
201.23082 -91.019196 400.67175
198.84633 -93.555206 407.13052
196.38486 -93.764618 409.24667
195.21588 -94.074524 412.07678
194.15736 -94.082542 417.17651
195.21852 -93.629211 421.89429
195.06523 -93.624641 427.14258
206.19508 -85.52372 388.07565
204.28926 -86.079086 392.09531
201.638 -86.50705 397.14078
199.95778 -87.076157 400.17297
198.14337 -87.531845 403.91647
196.8425 -88.400063 407.49692
196.08015 -88.715645 412.08014
195.23366 -89.121986 417.24689
193.79768 -89.019012 421.77515
192.05151 -89.159081 426.07486
206.08411 -79.079704 384.92694
204.00911 -79.949562 388.51678
202.71709 -80.418907 391.05096
200.48163 -81.572342 396.03574
198.56323 -82.005898 399.29089
197.08614 -83.230934 403.14084
195.55824 -83.745895 407.28903
194.59245 -83.903252 412.09366
196.49847 -84.48687 417.54004
193.36661 -84.033524 421.60587
192.40016 -83.793945 425.34973
204.54773 -72.970169 382.86682
202.72914 -75.486145 387.64694
201.31674 -76.087585 390.46219
198.75208 -76.847389 395.38629
197.02737 -77.851616 398.58148
195.64203 -78.486931 402.50409
194.35451 -78.984482 407.05585
193.19417 -79.47348 411.55695
191.60281 -79.917999 414.06635
204.75632 -68.338737 378.38242
203.4715 -70.545212 381.1633
201.77095 -70.941101 385.42917
200.25598 -71.669052 389.53568
197.96735 -73.11132 394.64343
195.72803 -73.447571 397.927
193.90666 -74.184944 401.83456
192.60533 -74.875961 406.3931
193.30815 -74.755112 410.40231
191.25648 -76.150627 412.59695
203.01212 -65.451134 378.82513
202.07408 -66.073143 380.52444
200.383 -66.712013 384.75131
198.01758 -67.18573 389.19128
195.86751 -67.642395 393.09024
194.14789 -69.184303 396.83792
192.30867 -70.13868 400.95551
190.73546 -70.047157 406.30484
189.93886 -70.729889 410.75
201.64986 -56.393639 373.31189
199.93805 -58.204388 375.60962
201.41315 -59.530941 376.67157
199.61145 -60.68082 380.46835
198.08093 -61.962303 383.97845
195.8235 -63.130486 388.08401
193.92133 -64.409706 391.647
192.36279 -65.692276 395.60809
193.58992 -62.87405 401.47534
192.38319 -61.532463 405.70566
188.72992 -65.336472 409.62057
200.50279 -52.606998 371.50113
198.791 -54.417751 373.79886
199.23956 -55.298347 375.47375
197.8896 -56.779743 379.31848
196.35579 -58.022392 382.94186
194.25287 -59.062561 386.83542
192.12724 -60.049046 390.44171
190.16737 -61.14679 394.66949
195.69327 -60.212463 402.81693
194.48654 -58.870876 407.04724
199.35574 -48.820358 369.69037
197.64394 -50.631111 371.98813
198.20358 -51.95652 373.86707
196.3179 -53.015076 378.10095
194.41226 -54.034489 381.97925
192.80937 -55.528904 385.68234
190.90204 -55.770912 389.06985
198.23656 -40.568359 366.46448
201.46982 -49.113411 368.55307
198.97673 -49.044693 371.22556
195.70683 -47.993576 373.28943
194.06979 -49.470135 376.49094
192.43744 -51.104866 380.47299
190.96236 -52.250935 384.18793
198.34813 -35.316738 361.74725
197.33519 -37.601345 364.17987
198.86034 -40.026867 365.92682
195.73041 -42.288422 369.37735
194.05243 -44.614925 371.45868
192.69397 -46.574303 374.71063
197.44676 -32.34972 359.46265
196.43382 -34.634327 361.89526
197.27824 -36.051971 362.41003
195.0224 -38.509617 367.95697
193.62526 -39.678917 368.97592
196.75616 -31.004869 360.13626
195.96713 -32.040131 360.50186
195.1781 -33.07539 360.86746
194.79817 -33.644665 362.10892
193.62292 -34.992878 366.35681
192.88318 -36.513233 367.89581
196.55635 -24.018274 356.52988
195.74236 -25.990837 357.72739
194.99411 -27.746456 358.87381
193.77089 -29.914314 360.74881
193.00024 -32.268703 364.27673
196.08942 -21.057859 355.11761
195.24904 -22.085308 355.90787
194.50609 -23.986685 356.95236
193.57262 -26.368605 358.33734
196.05429 -16.10483 353.48468
195.42641 -16.906527 353.8222
194.96423 -18.093075 354.2854
194.13571 -19.684925 355.04483
192.93784 -21.559376 355.8616
195.23634 -10.467777 351.89554
195.20854 -12.408531 352.55859
194.64375 -13.673463 352.97751
194.0267 -14.876106 353.41217
194.25151 -2.9390438 348.44254
193.8345 -4.8270469 349.52087
194.66794 -7.0741701 350.5463
194.48418 -9.1325016 351.48682
194.12148 -10.70467 352.07718
193.09909 -0.47207519 347.60123
193.44058 -1.8636823 348.09351
194.22977 -3.3511944 348.74567
194.60307 -5.0929265 349.59915
191.98589 3.8464403 346.08176
193.63698 2.2145698 346.94312
194.45921 1.1729525 347.46756
195.31801 0.06101374 347.89969
192.82686 8.4473686 344.98068
193.7764 7.1283827 345.58102
194.76294 5.8043485 346.28604
195.19995 4.8175559 346.80237
193.29608 12.756737 343.89175
194.12569 11.630399 344.31976
195.0274 10.504014 344.89725
196.31351 8.7846994 345.71564
192.60733 17.773512 342.85132
193.8091 16.985777 343.18341
194.38089 16.268293 343.35785
194.95268 15.55081 343.53229
191.59486 22.50457 341.84308
192.94763 21.847591 342.34598
194.4178 21.153164 342.65353
195.36028 20.535027 342.92203
191.81157 26.574381 341.44147
193.14784 26.330526 341.84268
194.51015 26.080822 342.15521
195.61789 25.720591 342.45862
193.04811 30.113083 341.65622
193.91075 30.803425 342.04114
194.52562 31.074684 342.13315
195.1405 31.345943 342.22519
193.58705 34.144356 342.23364
194.03256 35.055241 342.44852
194.47807 35.966122 342.66339
195.2659 37.272785 343.11334
193.28712 39.331104 343.40433
194.14293 40.521492 343.95193
195.06165 41.832756 344.53189
195.57317 43.180737 345.05756
192.45343 43.757923 344.48502
193.91765 44.963512 345.33875
194.7505 46.440475 345.75336
195.29276 47.513206 346.25143
193.89072 47.534565 345.99631
194.23245 49.765377 346.80368
194.5239 51.039684 347.24506
194.77176 52.113811 347.50122
195.06493 53.150555 347.66241
194.83194 54.431969 348.02847
194.51118 55.408154 348.58609
194.57072 57.261295 349.40909
194.6844 59.880318 350.76541
195.2421 55.2019 348.33389
194.99524 57.246555 349.41669
194.7484 59.29121 350.49948
194.51302 61.393475 351.51031
194.67561 63.009476 352.4751
195.05557 65.810631 353.88513
194.3564 63.694996 352.75296
194.44064 65.244576 353.51883
194.65428 67.712959 354.84116
194.65364 70.398781 356.99036
194.67157 66.635384 354.29587
194.34814 68.595665 355.47018
194.5421 70.820435 357.36099
194.32172 73.302994 359.58432
193.95421 75.846725 361.98367
194.80577 68.597321 355.33969
194.71501 71.083511 357.59341
194.54243 73.706985 359.8179
194.53616 76.049248 362.10718
194.23984 78.672089 364.84335
194.0593 80.755516 367.41165
192.70039 83.767365 371.3324
195.40704 75.313049 352.70822
195.03238 77.783295 355.29507
195.11812 76.251762 362.23071
194.89583 78.567688 364.60852
194.55284 80.809883 367.30112
193.98935 83.358032 370.37332
191.8495 82.810783 374.69104
192.98424 86.726677 377.17886
189.39369 88.355957 382.76151
200.26697 80.502037 359.98563
200.40024 88.355103 357.17258
200.32924 88.327545 362.17142
199.38524 87.926147 368.4093
194.72716 85.261719 372.68631
193.31229 86.86602 375.99161
193.73447 88.989807 379.55185
190.86519 90.608826 383.73911
189.50874 92.284645 387.5047
198.78508 92.728226 352.14618
198.71408 92.700676 357.14502
198.94986 92.760307 363.28976
199.08727 91.137871 368.79709
196.41745 91.203041 373.50549
194.01709 91.043541 376.68582
194.42336 91.249512 381.95331
192.68597 93.401047 385.72177
191.31494 93.583954 390.68634
190.06969 96.679535 394.69315
194.24165 92.130569 396.86044
202.77739 89.535057 361.98706
201.27679 90.725891 366.09332
199.02957 96.137108 368.7753
196.55746 93.754448 373.84451
195.89391 96.595924 378.15512
196.07031 94.505768 384.3063
194.69121 95.954346 387.14517
194.56285 95.968727 397.61716
194.29559 96.935455 397.82718
201.25652 93.362419 367.9473
199.83868 94.989349 371.70938
196.05141 98.500587 377.655
195.47205 99.903946 378.69711
194.3011 101.57503 383.14127
195.06598 100.70516 397.94632
194.59267 100.15531 398.93564
191.31023 100.92182 425.68301
189.49211 100.83382 429.8967
197.59709 100.8776 378.3324
196.53986 102.6717 379.4491
197.30211 102.61142 379.45676
197.12318 104.94113 383.76056
194.50035 106.11784 387.03943
193.22746 108.14729 389.53708
191.91081 107.35214 394.66077
194.61847 104.75843 397.58426
192.92485 105.99998 421.38132
191.10674 105.91197 425.595
189.28864 105.82397 429.80869
205.57591 107.81664 375.29724
202.73921 107.75646 378.65408
200.46452 108.08978 381.55136
198.89722 108.8493 384.32501
196.74805 110.24756 388.81332
194.51463 111.08457 392.06253
192.8701 111.36422 396.11249
190.78029 113.446 400.1431
188.76144 113.21821 404.81882
192.72136 110.99013 421.2933
190.90324 110.90212 425.50699
189.08514 110.81412 429.72067
203.85959 112.30302 379.55206
202.07481 112.77644 382.32397
199.95551 114.56696 386.23932
197.70743 115.3576 389.5011
195.75041 115.76445 392.67889
193.93164 116.30092 396.80899
192.33792 117.18349 400.91013
190.19826 117.68533 405.38092
189.07178 118.53366 408.96472
203.50662 120.21839 383.29163
200.70401 119.61821 386.87924
198.70662 119.59381 389.61011
196.83524 120.24934 393.37823
195.09697 120.90294 397.32483
193.20892 121.28916 401.3909
191.08116 121.28221 405.03522
189.13353 121.58154 409.77097
204.38571 124.12019 383.04483
201.77328 123.80007 387.15063
199.74763 124.37657 390.49774
198.02596 124.81682 393.89703
195.94537 125.71926 397.98212
193.84113 126.21334 401.69995
191.83476 127.01234 405.71692
189.79523 126.91039 410.40076
188.72922 128.23415 413.98898
192.05 125.05204 430.91946
205.58873 131.41113 380.5155
204.69771 131.98384 384.34042
201.12938 128.56306 390.81189
198.83647 130.01402 394.98798
196.80273 130.51323 398.52222
194.77119 131.00656 402.17471
193.09189 131.35104 406.38849
191.31616 131.92181 410.86746
189.69171 132.45238 415.56281
188.58087 133.58203 417.86688
205.64444 136.57983 380.0271
204.11885 135.81987 384.86679
202.00398 135.24355 391.80203
199.76514 135.49355 395.38602
197.49873 135.32683 399.17178
195.77051 135.81953 402.60736
193.7235 136.15471 406.67004
191.98755 136.41524 411.04831
190.73749 136.82098 415.25381
205.48599 140.3194 381.45383
203.491 140.61407 385.98734
201.99733 140.86853 390.04922
200.07147 141.04877 394.97397
197.92546 141.16086 398.85556
196.11205 140.98328 402.80124
193.97214 141.09109 406.73474
191.75377 140.81332 411.297
190.86438 141.20914 416.74194
205.38466 144.88246 382.88803
203.83563 145.817 385.78128
202.11823 145.86514 390.09738
200.50691 145.41896 394.00305
198.52812 145.33852 398.73022
196.50117 145.87105 403.02798
194.20105 146.11652 406.8403
195.66216 149.40866 413.30878
191.04169 146.20279 416.75812
190.58977 146.21896 421.71689
205.77237 148.68448 383.51132
203.32458 147.89273 387.52554
202.55861 149.71906 389.78796
200.14925 152.65237 395.28003
198.7516 151.23538 399.06442
196.92392 150.7771 403.24042
195.32796 151.06372 407.28381
194.32005 150.87553 412.03079
193.80676 148.93697 416.28479
203.46042 153.03439 390.97836
199.15079 157.37247 394.71057
197.11949 156.80299 398.55203
197.50726 155.71922 403.30545
195.40707 155.80971 407.67349
193.27406 156.65596 411.06085
196.12102 161.52309 397.98257
198.72841 159.75261 404.11945
196.67409 160.09416 408.80499
194.50728 161.08948 412.05618
212.3481 -130.39952 404.97812
210.23036 -130.98164 408.67242
199.04295 -133.3627 407.06436
211.40396 -125.65905 404.396
209.28622 -126.24117 408.0903
201.52028 -131.19279 407.12674
210.45981 -120.91857 403.81387
208.34209 -121.50069 407.50818
203.9976 -129.02289 407.18909
208.92358 -114.77982 403.64014
206.84724 -115.6957 407.18896
204.77092 -116.61158 410.73776
197.78082 -118.03193 411.5459
210.63182 -110.49341 396.81158
207.61314 -110.35786 402.72427
205.53682 -111.27374 406.27307
202.8954 -113.5863 409.35229
199.66292 -113.98837 412.11615
211.76814 -106.64008 392.42285
209.98573 -106.97253 396.64404
207.1907 -105.98708 401.7728
204.86018 -108.39004 405.68185
202.55516 -108.62029 409.12204
201.545 -109.94481 412.68637
195.64383 -107.79518 425.85904
194.31935 -107.41134 430.44434
210.35382 -100.65262 392.68018
208.44925 -101.22808 396.69394
205.27008 -100.9429 401.4437
203.9817 -101.73048 404.40875
201.36554 -102.81084 408.85785
199.06963 -104.20743 411.54657
204.06609 -106.96137 416.73831
198.1942 -103.53429 421.65759
196.86972 -103.15045 426.24286
195.54524 -102.76661 430.82816
208.39723 -94.673264 391.39066
208.77937 -95.099327 392.07706
206.93166 -95.863228 396.07785
203.69342 -97.093811 400.83441
202.35847 -97.530128 403.55789
199.99989 -98.65818 407.50226
198.65486 -99.963318 408.97134
194.95284 -98.842857 417.10272
198.10635 -98.874435 421.841
197.30299 -98.847534 426.70825
196.77112 -98.121872 431.21201
207.95709 -92.335075 385.58093
207.95322 -88.983528 388.84106
206.58923 -90.348763 391.47086
204.6956 -91.307701 395.29166
202.69702 -92.292038 399.36279
201.00072 -93.313332 402.90121
198.81444 -94.144119 406.59299
195.45268 -93.012497 412.07608
194.59851 -92.515816 415.87869
196.89368 -95.940033 421.48349
196.20633 -96.465576 426.32898
207.09662 -89.385117 383.50781
209.79364 -86.243866 382.60657
207.81021 -86.761589 386.53766
204.88333 -86.364342 391.25195
203.15564 -87.087532 394.33273
201.36325 -88.29998 398.38135
199.48857 -88.939384 402.05545
197.78244 -89.596161 406.18488
196.16769 -89.371353 412.06915
195.84306 -87.862343 416.20703
194.44753 -89.095978 420.31473
208.81682 -79.098701 381.45755
208.15337 -80.838158 382.90033
205.73672 -80.836594 386.57477
203.93001 -81.946632 389.83075
202.59871 -83.02874 393.65381
200.27344 -83.629601 397.56964
198.25882 -84.345177 401.50784
196.40536 -84.768829 405.77338
195.51199 -84.45887 412.06769
197.10507 -83.224861 416.50449
208.95377 -71.888771 376.28699
208.06604 -73.655022 378.26257
206.84605 -75.912994 381.56058
204.67587 -76.766113 385.57196
202.60089 -77.635971 389.1618
200.90605 -78.380592 392.71524
198.94775 -79.209831 396.61786
196.90056 -79.838547 400.85617
195.32384 -80.573624 405.45514
194.40744 -81.033058 410.08655
207.29507 -65.668732 372.98981
207.7829 -68.600304 375.18396
205.65619 -69.574997 377.95993
204.94069 -70.968712 380.41223
203.09492 -71.93264 384.06015
201.27399 -73.100838 388.17184
199.61125 -73.895874 392.11084
197.55508 -74.389084 395.59879
195.3855 -75.812752 400.25995
208.25069 -64.27655 371.42465
206.42873 -64.473831 373.85324
205.23582 -66.587616 376.61557
203.31401 -66.857094 379.40894
201.68405 -68.109436 383.06024
199.99774 -68.730667 387.29208
198.29218 -69.551781 391.51672
196.52925 -70.757774 394.83887
193.98938 -71.319229 398.94388
209.35884 -58.686043 367.61288
207.1559 -59.859947 370.25076
206.9949 -61.824261 371.63809
205.20844 -62.583092 375.22559
202.32272 -63.066364 378.91757
199.94962 -63.664375 382.31055
198.48279 -64.778046 386.25128
196.55569 -65.43306 390.73285
208.6256 -52.727852 364.09183
208.74762 -51.659245 363.55188
204.41843 -53.754055 369.78934
202.70662 -55.564808 372.08707
201.33864 -56.313995 374.17557
200.19173 -58.501591 377.51678
198.20657 -59.65469 381.36591
196.48604 -60.464188 384.9874
194.79454 -61.82832 388.37912
207.56451 -48.450684 362.68973
208.22069 -50.593895 363.92999
202.5714 -51.580547 369.69278
201.55957 -51.778168 370.27631
199.84776 -53.588921 372.57407
198.50914 -54.575878 376.33688
196.36087 -55.533913 380.25684
194.71645 -56.064747 384.59506
208.31403 -46.17651 361.68213
207.13748 -46.621597 363.11795
205.11359 -47.096432 366.05969
200.89984 -48.363918 369.5379
198.52367 -49.336159 371.22134
197.06079 -51.103485 374.81094
194.76035 -51.347191 379.3385
210.78354 -40.414471 355.8356
202.94849 -36.218105 360.73431
201.97302 -39.721401 363.71951
201.57413 -41.152184 365.10019
199.99371 -43.485081 367.8692
198.22301 -45.163994 369.82529
195.46278 -47.141079 372.87296
210.0154 -37.000153 355.37717
202.00467 -35.599758 361.12073
201.03418 -35.535698 360.88232
200.0195 -38.084202 363.40182
198.85335 -39.62429 366.24701
197.95357 -40.793629 367.88922
207.19862 -29.792913 354.24094
205.72754 -28.690954 355.36069
202.96292 -30.266989 358.2193
200.45987 -32.676033 360.46887
199.33011 -34.194481 361.33551
196.47922 -37.062138 365.48071
195.46834 -37.271023 367.24805
206.49136 -25.173878 353.11865
204.4079 -26.296146 354.81262
200.7952 -25.82235 356.58908
199.89278 -28.038076 358.36368
198.69391 -30.171005 360.85507
211.00786 -18.915569 344.96704
208.9407 -19.817474 348.54565
200.89819 -21.167444 354.44534
200.10904 -22.759499 355.18677
199.45834 -24.362988 356.29614
198.9843 -26.76206 357.98972
208.56065 -14.076002 346.50388
207.62903 -15.389756 347.64377
200.36955 -17.517658 353.25488
199.75966 -18.396931 353.71136
199.24188 -20.294159 354.2955
207.43224 -9.6817331 345.32556
207.60289 -15.745497 344.3226
200.12253 -12.513861 352.05893
199.58142 -13.805872 352.48822
199.0403 -15.097883 352.91748
208.72867 -12.438734 338.63272
208.00854 -12.163359 343.51086
199.6927 -7.5815229 350.56094
199.42021 -9.1554384 351.19858
198.83093 -10.377278 351.5986
210.35609 -8.0610619 338.90811
198.77086 -2.1260829 348.92865
199.2851 -3.3384445 349.30365
199.6301 -4.7075863 349.71381
198.95067 2.361223 348.01138
199.21246 1.783955 348.09308
199.47426 1.206687 348.17477
199.73604 0.62941903 348.25647
197.09628 9.2151394 345.77963
198.25471 7.7234426 346.64166
199.53236 6.085598 347.10199
200.12538 4.9584017 347.39185
198.92963 12.911291 344.73038
198.88928 12.174702 345.05377
199.55333 10.623805 345.68491
199.6203 9.1499453 346.16669
199.01836 17.641512 343.60422
199.38878 16.51535 343.90317
199.75287 15.003841 344.05219
198.84471 20.987194 343.34454
199.38689 21.058601 343.40509
199.92906 21.130009 343.46561
196.48083 26.486214 342.70547
198.31035 26.485716 342.95862
199.30183 26.154848 343.18762
200.0397 25.949438 343.39651
197.64114 30.644012 342.6785
198.50432 30.841963 342.84061
199.33321 31.110378 343.03159
200.33301 30.947136 343.24603
197.69577 34.327347 342.99423
198.49393 35.087933 343.25046
199.2921 35.848522 343.50671
199.96043 37.09877 343.89508
198.53439 38.802284 344.22992
199.34586 40.344742 344.85269
199.65935 41.574066 345.19818
199.97313 42.803555 345.54413
199.61203 44.349941 345.95078
199.56897 45.287853 346.13376
199.52591 46.225769 346.31677
199.81927 47.319561 346.56409
199.23563 48.914764 346.86438
199.38019 49.967365 347.10138
199.50616 50.96793 347.44934
199.8322 52.317944 347.87061
198.93074 54.015663 348.27777
199.27193 55.403313 348.88589
199.73801 57.210972 349.68369
199.60873 59.279556 350.63452
198.87643 57.455742 349.72568
199.37411 59.269707 350.70303
199.5379 61.296722 351.6362
199.65858 63.428387 352.80435
199.94366 66.019302 354.21555
199.44568 65.26059 353.68173
199.63913 67.357536 355.04083
198.62729 70.061653 356.68167
200.022 68.783424 355.78964
199.54573 70.990601 357.19263
199.41229 73.386742 359.34644
198.77087 75.814774 361.4978
202.63052 73.239883 353.54797
202.67155 72.150566 352.09366
199.88911 73.861656 359.68674
199.52266 76.224197 361.90662
199.37775 78.806396 364.6911
197.82965 80.873375 366.88943
205.05278 76.020851 353.608
200.34888 75.696579 352.33359
199.97421 78.166817 354.92041
200.91174 79.736885 358.9787
199.11948 81.479599 361.50677
199.43945 81.340385 366.79266
198.51587 83.41069 369.13004
195.76431 81.829201 372.27945
197.85277 85.27446 376.26593
200.73239 78.1679 354.8038
203.96753 81.765572 358.19336
202.17526 83.508278 360.72144
200.98483 86.641403 362.10043
201.02592 87.014923 367.00824
199.01062 85.872925 371.86292
196.13907 86.754478 372.7565
198.50316 88.649719 378.51556
198.02245 90.951103 380.42059
202.00562 84.544312 360.54819
201.13684 86.839638 362.57202
200.83578 88.690552 364.51926
200.25717 90.502884 367.50818
198.52211 90.908157 371.04068
200.05409 89.775322 378.88013
199.26028 91.956833 380.8761
198.17581 93.63974 382.22943
193.52679 95.755508 389.48163
201.80687 90.069412 364.86734
203.75723 92.725342 364.59271
201.95006 94.184967 368.8381
199.93356 95.617828 372.4267
199.96886 96.276169 377.23376
199.75156 95.664574 382.85852
198.72067 97.610992 384.17584
198.0181 97.1362 394.60672
199.28067 96.989395 397.55991
203.60686 94.591347 368.42743
203.19621 96.922882 370.66061
201.68806 98.633331 374.18521
199.78737 100.81603 377.35608
198.32498 103.1692 379.09491
197.52893 100.01166 383.46869
198.86047 101.54755 395.98047
196.89461 102.92127 397.7746
209.47061 102.92165 368.11487
206.08319 103.2711 372.94153
203.94527 104.21741 375.54242
201.37723 105.26492 378.96805
199.27049 106.20988 381.87891
197.30298 107.49053 386.00067
195.43347 107.92976 389.33011
199.70287 105.95889 397.35419
199.61679 104.78423 397.67209
211.28941 111.81096 365.26675
207.52962 108.71624 373.02957
205.26196 109.3859 376.34155
202.7522 109.77481 379.65707
200.72404 110.56352 382.84216
198.74525 111.25751 386.59149
196.79999 112.31239 390.24573
194.20976 111.99477 393.98978
211.14607 116.53815 365.54626
209.54283 118.30087 370.73367
207.99849 117.95789 375.16946
204.09088 114.08258 380.24796
201.97163 115.14077 383.77228
199.65326 116.04421 387.16925
197.14296 116.93764 390.72586
194.98305 117.59839 395.19986
193.19502 117.86413 399.25729
209.47289 119.95984 369.56647
207.08904 120.22795 372.77026
207.05968 122.7494 374.82651
205.14822 120.54002 380.96576
202.8571 120.46335 384.35187
200.38979 120.80817 387.68857
198.3315 121.50488 391.3476
196.21927 122.10461 395.61957
194.34453 121.90617 399.38898
209.82872 124.91982 369.83456
208.63448 124.23914 370.99731
206.87825 124.59393 375.24081
206.09241 125.97732 379.1579
203.67697 125.25442 384.58694
201.49954 125.28962 388.46246
199.45926 126.10432 392.03842
197.50319 126.60951 395.68542
195.3837 127.13084 399.41742
193.19577 128.27284 403.88287
210.77289 128.56448 369.41171
209.26898 129.65649 371.44888
207.43303 129.9245 375.62445
206.03355 131.2738 379.09869
205.10194 131.27713 383.15213
202.73418 130.22408 388.71796
200.59882 130.75539 392.70715
198.34065 131.31825 396.22812
195.6972 132.02895 400.62589
194.16383 132.6817 404.87006
192.24727 132.4594 408.59683
190.44873 133.65715 414.23596
208.05978 134.09116 375.05533
206.84935 134.19876 376.75018
205.89622 136.26965 379.05597
204.7448 136.31328 383.4606
203.4593 136.30832 388.05411
201.22527 135.88881 393.14719
198.9384 136.15286 396.71429
196.67409 136.34589 400.80109
194.76021 136.53134 404.67831
192.76849 136.72061 408.6774
209.80368 139.06099 374.29712
207.72055 138.97502 377.30664
206.00986 139.35837 380.46899
204.47641 140.7355 384.05231
202.93138 141.36394 388.06277
201.03989 141.35658 392.83817
199.09224 141.08011 396.84628
197.013 141.37466 401.03494
195.36055 141.54616 404.32834
192.15726 140.37585 410.00729
208.151 144.38551 378.13528
206.08479 145.04449 381.96762
204.47386 145.53354 384.72272
202.80551 145.98605 388.37997
201.02716 145.91299 392.55856
199.2612 146.12338 396.96228
197.48375 146.29301 401.08649
195.61191 146.66835 404.91296
200.2029 148.05426 412.8078
199.70189 146.57678 417.26126
208.77838 150.20592 379.03986
206.38916 150.43123 382.24048
205.02501 149.08809 385.48059
203.33156 149.78279 388.73691
201.20964 151.03345 392.68558
199.5564 151.08444 397.09021
197.75288 151.12186 401.2854
195.98827 151.35219 405.2428
198.8485 149.06004 411.33032
204.63547 154.3383 389.30676
200.58923 156.37399 392.67926
198.55794 155.80453 396.52075
198.28848 156.2278 401.56271
196.98575 156.88225 405.83667
195.58936 157.88918 408.89404
197.55946 160.52461 395.95126
199.98813 160.93396 402.29843
198.1671 161.50912 406.41183
196.82257 162.32269 409.88937
216.37584 -135.30424 400.14105
214.63156 -140.88245 407.76828
212.55237 -140.47887 411.59647
216.16928 -133.24776 394.66574
211.48225 -136.82385 394.53705
210.12025 -136.25517 399.05484
211.11133 -131.14307 406.9292
208.97026 -132.04756 410.34991
215.96645 -128.25952 394.53348
213.08856 -132.49454 395.10571
211.72656 -131.92586 399.62354
210.85146 -127.18531 405.97256
204.35175 -128.71547 407.07214
215.84752 -120.43206 392.39777
214.06116 -120.98307 396.55771
212.02504 -121.86272 401.69614
209.9073 -122.44483 405.39044
206.82907 -126.54556 407.13449
215.10867 -114.62504 390.68964
214.46646 -115.34502 391.70816
212.73587 -115.96822 395.90131
211.90315 -117.2991 399.3847
209.57193 -117.28094 404.79498
207.64134 -117.90973 408.75357
213.69508 -111.15696 390.84744
213.38745 -111.18675 390.85413
211.71768 -111.70258 395.14182
211.04294 -112.18694 398.68878
206.71092 -112.49401 404.84763
205.48972 -113.50005 407.74557
200.95934 -112.10628 410.99402
215.00792 -106.52759 387.6412
212.68886 -107.40094 390.64047
210.90646 -107.73338 394.86166
208.73029 -107.32851 400.16235
206.40475 -108.58021 403.7037
203.94011 -108.8745 406.75369
203.06941 -107.94122 412.18591
216.14177 -101.26839 383.24353
214.1514 -101.72339 387.18622
210.98143 -102.77179 391.93292
210.02072 -102.50242 394.26108
207.4525 -102.58472 399.29837
205.63597 -103.49934 402.75323
203.77988 -104.29106 406.64996
205.37318 -104.48566 412.01395
205.62967 -104.65761 416.99481
217.77995 -96.910652 379.73093
216.08522 -97.063179 382.8259
214.13141 -97.377586 386.85355
209.95787 -96.887512 391.48035
208.65997 -97.675148 394.21393
206.11377 -98.266502 398.54129
204.06348 -99.153351 401.83072
202.12019 -100.09564 405.78754
200.79012 -101.19154 408.43961
210.48271 -94.286339 381.06879
208.18434 -94.145676 382.59531
209.88379 -91.438774 388.51721
208.42068 -91.641869 390.19998
207.10226 -92.859856 393.46625
204.93344 -93.694778 397.42471
202.63934 -94.707474 401.01324
200.57628 -95.505219 404.95181
199.23924 -96.913567 407.25497
210.57579 -89.292038 381.20944
208.27742 -89.151375 382.73596
209.12988 -87.722229 384.55423
207.16216 -87.665184 389.12854
205.11465 -88.627487 392.43909
203.13873 -89.510895 396.25864
201.16884 -90.380112 400.27121
199.1344 -91.024544 404.4791
213.05453 -75.880203 375.69827
210.11836 -80.629944 380.81186
209.56383 -82.486633 381.85175
208.16924 -82.972984 384.03653
205.79344 -83.355789 387.8663
203.89366 -84.108414 391.74799
201.77834 -84.774734 395.42258
199.71667 -85.412865 399.18445
212.56209 -72.356415 373.4006
211.62184 -72.768761 374.32123
210.01915 -74.82621 377.4404
208.29498 -76.967529 380.87817
206.62633 -78.060738 383.36032
204.46953 -78.953613 387.03088
202.45073 -79.81337 391.0657
201.00671 -80.876282 394.68137
198.15865 -81.141243 399.12103
211.07767 -66.963158 371.27826
209.54964 -69.284492 373.70645
208.53381 -70.935104 375.98831
206.61681 -72.442642 379.07904
205.14761 -73.556747 382.43219
203.10992 -74.569611 385.99963
200.82346 -75.38501 390.35205
199.12865 -76.053383 394.56406
212.96231 -62.088039 366.73569
210.25337 -64.458038 369.91284
208.07169 -65.159309 372.05215
207.51006 -67.493973 374.29614
205.23537 -68.429855 377.68607
203.49838 -69.487068 381.43875
201.5741 -70.574615 385.42932
199.48085 -70.615067 389.8812
213.64914 -57.40118 363.36374
212.13867 -58.985035 365.40002
210.10143 -60.954739 368.04782
207.89848 -62.128639 370.68567
206.54132 -63.448292 373.19107
204.03734 -63.984352 376.75629
201.89653 -64.730835 380.33734
199.97046 -66.046753 384.72409
210.85347 -53.372818 362.86255
210.23888 -53.506893 363.2648
209.72232 -54.831871 365.72336
207.11914 -57.832104 369.46652
204.91676 -58.778698 372.39371
203.15431 -59.516441 376.2356
201.05949 -59.806923 379.16812
198.52867 -62.635117 383.70908
213.51955 -46.077187 356.04904
211.00694 -49.511753 360.63159
208.94879 -50.913822 362.91202
208.59071 -52.018177 363.96899
206.4071 -53.496307 368.67261
204.16362 -54.552788 369.83133
202.069 -56.736095 374.36411
212.45744 -44.005413 354.27563
212.93227 -43.449879 354.91284
211.70831 -45.536217 357.56372
208.75081 -47.603306 361.69067
207.02023 -48.108406 363.85202
204.91083 -48.643597 367.38531
202.63902 -49.73608 368.77417
214.09822 -41.575306 352.05783
212.84802 -41.329689 353.55026
210.5627 -42.042194 356.77112
208.28748 -42.592838 359.96313
206.05096 -43.462891 363.28281
203.81174 -44.631641 366.28815
202.44781 -45.809677 367.7023
213.52737 -36.715363 351.46219
211.62689 -37.632568 353.63956
209.6203 -37.989365 356.10519
206.98283 -37.817909 359.39478
204.49789 -38.942642 362.02411
202.44833 -40.554291 364.16653
201.21628 -42.066689 366.37567
214.66652 -29.988388 348.87305
212.34372 -30.890066 351.16919
210.01207 -31.904451 353.84232
207.6913 -32.759064 355.97675
205.44458 -33.106178 358.16034
203.74883 -34.630585 360.27933
213.89192 -25.289076 347.97137
210.17836 -25.881134 351.03519
208.09489 -27.003401 352.72916
206.2032 -27.686893 354.51535
204.27434 -29.140371 356.7312
202.75717 -31.565628 359.49078
204.29723 -20.633774 335.77676
209.60199 -20.306213 349.36951
207.38765 -22.384367 351.6069
205.28055 -23.534561 353.15714
203.67599 -24.580383 354.65674
211.45853 -15.204416 344.30881
209.62271 -16.701422 345.5766
207.55554 -17.603327 349.15521
204.89967 -18.799856 352.41202
202.53709 -19.743383 354.04736
205.36246 -9.0851183 343.72971
210.33012 -10.810147 343.13049
208.13504 -11.988462 345.83835
206.24388 -13.175607 348.2533
204.02403 -14.000642 351.40631
202.60532 -15.362981 351.89822
208.51491 -7.7334242 343.74252
209.47284 -10.811307 337.9126
208.75272 -10.535933 342.79074
205.1398 -8.511363 350.01636
204.16765 -9.1692305 350.30905
211.86057 -5.3561659 342.5654
206.84599 -3.2316284 343.85345
210.12988 -5.3709841 345.28613
204.76469 -3.4326055 349.16385
204.24402 -4.531424 349.47949
212.17751 -0.41818884 343.01907
209.85919 0.035475574 344.70074
205.6115 2.4735315 347.59256
204.66823 1.351722 347.99869
203.54784 0.0083390903 348.89807
206.4099 8.125845 345.93405
205.44513 7.0732746 346.3819
204.48036 6.0207038 346.82974
203.59352 4.7975669 347.23132
203.78986 13.550048 345.12735
204.43753 11.906527 345.40833
204.35863 10.735364 345.63156
203.79611 9.6287403 345.96155
203.85588 17.79108 343.98032
204.31349 16.632704 344.31265
204.66516 15.660576 344.66516
203.39368 21.024275 343.96805
204.23114 21.074171 344.01678
204.98999 21.083313 344.13474
202.82211 26.685339 343.75577
203.68616 26.360249 343.82312
204.30276 26.15452 343.90912
204.91937 25.948792 343.99509
202.12471 31.470966 343.60251
203.55957 31.128017 343.86557
204.26181 31.091782 343.96649
205.0674 31.314003 344.16159
202.56148 34.199371 343.79239
202.72691 35.357117 344.08316
203.92343 35.834648 344.44064
204.8284 36.395805 344.68643
204.16818 39.304153 344.95663
204.38788 40.373127 345.20743
204.54085 41.359848 345.37766
204.6172 42.323025 345.55725
204.48753 43.299885 345.80615
204.59924 44.537834 345.992
204.563 45.376431 346.13715
204.52676 46.215027 346.28226
204.57767 47.473736 346.70706
206.46313 46.481506 337.26569
204.4417 48.296143 346.88889
204.48462 49.608044 347.2612
204.51277 50.796734 347.67474
204.85469 52.740662 348.45953
207.31996 49.44146 339.56879
206.35266 51.744568 341.96869
203.50473 53.420231 348.5704
204.16844 55.136108 349.37769
204.79987 56.770077 350.08124
205.31824 58.271992 350.7301
204.17432 59.403728 351.15536
204.54198 61.147385 351.93442
204.45468 63.564899 353.03214
205.11998 65.920181 354.45569
204.39964 64.980736 353.80328
204.67297 67.234451 355.25635
203.36746 68.860252 357.18484
203.28409 72.64003 352.06995
204.52243 71.02079 357.20297
203.77512 74.016655 359.10214
203.66269 76.102257 361.04932
208.5083 72.435753 350.38162
206.82446 73.97831 351.86414
205.14064 75.520866 353.34668
204.17609 75.650162 356.07581
204.43399 76.647881 361.39282
203.1364 79.262772 363.66068
202.55501 81.646698 366.05295
209.24672 76.759285 351.92416
207.5629 78.301834 353.40671
204.91605 78.550339 354.54575
204.48276 81.217262 356.92569
204.13385 81.26635 362.03372
203.6145 82.040024 365.77069
201.88889 83.848381 368.31628
206.56725 79.277863 354.85623
206.10364 81.69088 356.82706
205.7951 84.936874 360.01181
204.30704 86.385147 361.60495
201.54294 84.439102 365.82559
201.00302 83.741913 371.55963
204.14334 87.050453 375.72995
203.2428 89.300102 377.61502
202.34227 91.549751 379.50012
214.33847 89.111717 356.0593
207.82848 85.865265 359.57309
206.05455 87.631981 361.43799
204.93582 89.869675 363.59238
204.00247 92.082123 365.7818
202.48593 94.336464 368.8862
199.56602 93.574936 377.56183
199.95291 93.380417 382.52402
202.88724 94.184601 381.19855
214.29677 92.083549 358.26843
207.7834 91.566071 363.87366
206.35094 93.554237 365.87845
205.16928 95.389793 368.05695
203.52783 97.196541 370.97134
201.22777 94.57473 375.8866
204.46298 96.209435 381.82764
203.4321 98.155853 383.14496
213.7993 101.55882 359.66425
212.03828 102.17483 362.11789
211.00139 101.2263 365.07025
206.99176 99.577614 369.54733
204.7903 100.91579 372.33307
202.6698 101.84219 375.79742
200.5761 102.70127 379.35968
214.47356 105.7215 359.0896
212.12038 105.80584 362.42953
211.31433 105.14153 364.9339
209.00272 104.65819 369.79263
206.30956 105.31647 373.66754
203.97096 106.31464 376.6355
201.85806 107.11861 379.19177
199.24359 109.42892 384.52426
213.1871 109.79916 360.51453
212.74597 110.62258 361.89136
211.64911 111.52159 364.00766
210.3719 111.33459 368.75253
207.23495 109.64024 374.59747
205.03017 110.83031 377.57153
202.79608 111.87819 380.81711
200.59673 112.59 384.3403
198.77524 113.67891 388.21909
215.12819 115.49055 358.28781
212.95175 115.61118 362.01196
211.54189 115.55131 364.8877
210.19299 116.30218 368.76773
208.77116 117.01909 373.62512
206.26714 115.66167 378.4444
203.80324 116.29282 381.5332
201.53448 116.96156 384.84286
199.29579 117.70691 388.00854
212.39261 117.85624 363.21674
210.19611 118.75653 366.50085
208.92525 120.58378 370.38641
207.83237 121.81059 373.28214
206.71385 121.14162 378.32742
204.46396 121.08439 382.02908
202.252 121.49935 385.51581
200.06258 122.48405 388.88538
213.54507 122.38387 364.117
211.34857 123.28416 367.40115
209.41663 124.98575 370.26379
207.80113 125.41755 373.48459
206.46652 126.13628 377.5423
204.96152 126.01337 382.26932
203.1631 126.50195 386.25339
201.2771 127.40507 389.8678
199.14499 128.13167 394.02603
214.17609 127.23026 366.22058
212.01651 128.31009 368.81915
209.70459 129.1651 371.73627
208.34462 130.52133 373.78848
206.44586 130.97209 377.88873
205.28763 131.10483 382.22247
204.04762 131.03917 386.95337
202.06178 131.40372 390.47125
199.94391 131.82857 394.10593
212.26402 133.16808 370.49973
210.46881 134.69479 372.63101
208.04449 135.25961 375.36261
206.64636 135.75894 378.14148
205.08299 136.10266 382.22281
203.76627 136.03281 386.88589
202.27615 136.16431 390.96487
200.25664 136.52464 394.3371
213.50279 141.6618 369.97266
211.0289 141.50075 372.79501
209.31245 140.05443 375.39706
207.29173 140.34538 378.5217
205.18268 141.03281 382.33643
203.34955 140.9782 386.73343
202.1329 140.96188 391.35153
200.3138 140.95232 394.32248
214.47536 144.12546 369.06631
212.18213 144.57576 372.45419
209.8889 145.02606 375.84204
207.9176 145.75861 379.62595
205.62946 145.84427 382.70459
203.53989 146.2623 386.58728
201.58926 146.57611 391.08237
199.83362 146.38928 395.38342
210.60599 150.50508 376.65063
208.21677 150.73039 379.85126
206.72542 150.28343 383.43564
204.68048 151.02426 387.16827
202.83498 151.65656 391.33475
200.19176 151.19261 395.50052
215.7412 -154.2196 395.15979
215.0681 -155.2715 399.82556
214.39502 -156.32339 404.4913
209.73189 -157.4469 385.63818
210.06621 -154.97083 388.22388
212.94989 -153.58183 398.77365
212.27679 -154.63374 403.43939
209.38902 -154.9863 388.11426
209.72334 -152.51024 390.69995
209.73912 -154.0798 397.27161
207.83121 -152.62302 400.46994
209.47678 -140.09236 373.62643
209.48216 -140.94366 378.47702
209.48755 -141.79495 383.32761
209.04616 -152.52571 390.5903
213.18971 -151.71451 395.53009
211.2818 -150.25772 398.72839
209.37389 -148.80093 401.92673
210.01044 -149.20972 407.20428
209.07887 -148.64906 411.95547
209.50749 -139.94276 372.77512
209.51288 -140.79405 377.6257
209.51828 -141.64536 382.47629
208.70329 -150.06511 393.06638
214.73239 -147.89243 396.98688
212.82448 -146.43564 400.18518
215.22626 -145.02736 405.28549
212.10957 -145.4731 407.76495
211.17801 -144.91243 412.51614
209.53822 -139.79315 371.92383
209.54361 -140.64445 376.77441
209.549 -141.49574 381.625
219.29655 -135.93944 389.60306
218.18153 -136.28008 394.31454
217.06651 -136.6207 399.02603
215.94235 -140.16635 405.68909
214.20872 -141.73648 408.32562
213.27716 -141.17581 413.07681
209.57973 -141.34613 380.77371
217.28876 -132.05627 392.8519
216.52856 -131.39856 394.6088
215.09357 -131.9162 399.08942
213.20863 -132.36931 404.78812
211.06757 -133.27379 408.20883
220.96947 -126.57155 386.72897
217.46674 -128.46236 392.25104
215.18433 -128.59464 395.76251
212.87943 -130.31956 398.26154
212.27255 -128.29944 403.90335
210.29895 -128.71158 407.54913
221.01828 -121.96741 383.74225
220.2408 -121.39742 385.50284
216.10652 -122.20357 392.73166
215.26265 -122.15475 394.77136
213.79282 -122.56951 398.68878
211.56178 -123.6563 403.25616
209.39505 -123.93375 407.00079
220.5416 -116.05103 381.78561
218.86028 -116.81013 386.31564
215.14677 -116.64113 391.64871
214.02406 -117.30485 394.17072
212.71159 -117.97858 398.05038
211.02707 -118.55318 402.7034
209.06239 -119.07537 406.823
221.64171 -112.90131 379.69321
219.61069 -111.89656 383.21396
217.67296 -112.55721 386.52853
213.82004 -112.62827 391.18079
212.80354 -112.91175 393.47205
211.6274 -113.36387 397.5954
209.93246 -113.80963 402.29187
207.6261 -114.87489 405.51648
220.20006 -105.04251 379.24039
218.07927 -105.81384 382.81616
215.95848 -106.58516 386.39194
213.25209 -107.92924 390.24014
211.82718 -108.49424 393.07925
210.33815 -108.70576 397.26776
208.49042 -109.342 401.41891
206.32251 -109.60528 404.10944
218.83707 -100.43536 377.40109
218.66187 -100.64195 380.01511
216.93069 -101.23157 382.04483
215.4045 -102.57992 385.19583
212.85429 -103.32964 389.57803
210.94026 -103.55805 392.63693
209.24962 -104.00415 396.96115
207.45323 -104.7117 400.54807
204.97145 -105.00222 404.89435
219.98203 -98.465088 374.42151
219.13307 -95.715324 376.71463
216.966 -97.79348 381.37164
215.2054 -98.009354 384.89975
211.87923 -98.237488 389.46228
209.98199 -98.786438 392.30936
208.25728 -99.419518 396.14948
206.25011 -100.42585 399.57895
219.83582 -93.471481 374.31873
217.48651 -93.574257 377.66742
211.44011 -92.501549 382.20776
214.57364 -93.111015 384.58536
210.83269 -93.201965 388.58188
208.68547 -94.272461 391.61853
206.68381 -95.130051 395.75046
205.04961 -96.333565 399.03305
218.07161 -88.665321 375.84189
214.05496 -89.198959 378.91107
211.75659 -89.058296 380.43759
210.17464 -88.801254 382.7247
209.70274 -88.829971 387.258
207.43956 -90.006493 389.98941
205.33878 -91.373489 394.65524
219.30969 -78.470406 370.45746
216.33873 -77.499382 373.96237
213.233 -83.02636 379.39658
211.67273 -83.512871 380.33948
209.64734 -83.889488 382.18549
207.57707 -84.792465 385.98141
205.79132 -85.785637 389.52747
220.0419 -73.062119 366.08508
217.94681 -74.23037 369.28918
214.71956 -74.027397 372.32425
212.98367 -75.665535 375.56805
210.84718 -77.736122 378.68539
208.90709 -79.247223 381.44458
206.28346 -80.20089 385.08365
204.28326 -81.280586 388.78894
218.67902 -68.822083 364.91684
217.46332 -69.885277 367.02621
213.14937 -70.964783 372.17731
211.22147 -72.54126 374.45837
209.5992 -73.872551 377.14169
207.39964 -75.238815 380.53043
205.03728 -75.83493 384.03592
218.69275 -62.951271 362.26614
216.27895 -63.452797 364.80682
214.35007 -65.016594 367.59665
211.70016 -66.642464 370.58456
209.98776 -68.443565 372.81317
208.08147 -70.042076 375.70062
206.07307 -71.346268 379.07642
216.94519 -58.669712 361.16486
215.433 -60.408844 363.32452
212.98532 -61.123051 366.03284
210.73416 -62.984627 368.72244
208.81305 -64.386421 371.36951
206.53476 -66.235641 374.23404
217.84991 -50.606449 355.99136
216.04698 -56.077564 360.7081
213.79883 -55.870625 362.35858
211.85138 -56.721706 364.59122
209.89565 -58.759987 367.4194
207.65848 -59.71312 369.41833
204.63434 -60.510601 374.85733
216.31535 -54.913769 352.53513
216.26212 -47.193958 354.28952
214.55997 -48.895809 357.46509
212.02618 -51.733013 361.3316
210.30911 -53.185368 362.91867
208.49084 -54.411034 366.59085
206.43903 -54.929729 370.3353
214.80057 -43.621288 352.41275
215.2565 -44.371555 353.27115
213.32623 -45.906197 356.18216
211.47916 -47.259312 359.01657
209.24223 -49.121677 361.6651
207.64732 -50.311314 365.53793
205.29463 -50.302433 369.6911
217.34946 -39.072407 349.10941
215.29947 -40.344292 350.95377
213.24948 -41.616173 352.79813
212.35326 -42.550228 354.80707
210.52109 -43.455803 357.83249
208.20828 -44.351051 360.9921
205.57227 -45.157318 364.53259
204.13223 -47.90118 367.66904
217.24055 -35.78054 348.16373
215.73888 -37.574886 349.77927
213.77292 -37.881863 351.50116
211.53096 -38.558941 353.92529
209.46204 -38.94112 357.03345
207.11482 -39.657436 360.21542
205.11111 -41.047825 362.48349
217.6711 -30.762987 346.55026
215.34828 -31.664665 348.84637
213.45782 -33.346252 351.00323
210.93469 -33.594414 353.47791
208.65221 -34.094444 356.32492
207.14297 -35.776821 358.52792
216.89648 -26.063675 345.64859
214.57368 -26.965355 347.9447
212.30981 -28.291677 350.12241
209.87523 -28.655975 352.68521
208.00917 -30.106289 354.37009
205.64653 -32.399837 357.4585
209.39702 -22.027363 331.32767
209.27516 -20.325504 335.65491
214.00325 -23.541561 347.49542
211.55598 -23.749928 349.52911
209.04509 -24.153522 351.31601
207.24261 -25.740026 352.88275
209.70529 -21.332535 333.02951
209.58344 -19.630676 337.35675
210.83263 -17.414223 346.92551
210.19794 -18.447672 348.03372
208.35057 -19.857401 349.92694
206.0977 -20.335691 351.86234
210.01357 -20.637707 334.73138
210.03853 -10.973431 344.18057
211.03293 -13.116876 343.64325
209.29877 -14.111471 346.63751
205.96263 -14.148848 349.5517
204.82593 -14.64808 350.87363
212.99789 -7.8877621 342.22794
211.48332 -8.3398933 342.79102
209.61063 -8.4679451 343.17102
208.17448 -8.5905542 346.4043
207.50606 -8.7584839 348.55069
215.24089 -5.0392165 340.2471
212.92258 -4.5855522 341.92877
211.22945 -4.3862519 343.39053
209.21196 -3.8609109 346.89828
207.55008 -4.5886669 348.59097
214.80724 -2.8628168 340.89166
212.88681 -1.4280547 342.68219
211.75308 -0.53211814 344.46292
209.29242 0.95340812 346.57104
207.57034 0.053738516 347.53964
211.35812 8.3342752 339.53079
214.68274 5.5342941 342.29025
209.90263 6.5126081 345.8259
209.42047 5.9458885 345.93921
207.85803 4.3685985 346.28247
209.41417 11.952096 345.38724
209.4847 11.431945 345.44296
209.39317 10.893805 345.34891
209.09557 16.707651 344.94351
209.37079 16.3111 344.99054
209.64601 15.914547 345.0376
208.95021 21.320629 344.6767
209.37082 21.232101 344.63013
209.68539 20.932264 344.66818
211.85379 26.978176 344.0192
210.92249 26.616915 344.22745
209.92329 26.148046 344.17371
209.51077 25.828133 344.34906
214.21185 31.14085 342.89368
212.38995 31.116302 343.68195
210.04041 30.931206 344.31262
209.39264 31.286324 344.35602
214.9212 34.995319 342.79318
212.93066 35.395195 343.83447
210.20695 35.955013 344.60806
208.91023 36.099453 344.79999
215.12227 39.954929 343.19305
210.87355 39.977398 344.8309
210.05016 40.653137 345.06918
209.36053 41.383301 345.22787
208.99025 42.720104 345.46353
210.24646 44.378368 333.99527
210.80696 43.811462 345.73117
209.51802 45.087921 346.05396
209.5354 46.259747 346.34567
209.87662 47.97369 346.84311
211.10327 47.338322 336.29837
210.13597 49.64143 338.69827
209.16867 51.944538 341.09821
209.50024 50.769245 347.97513
209.44174 52.557781 348.5224
211.9601 50.298279 338.60147
210.9928 52.601387 341.0014
210.02548 54.904495 343.40131
210.62172 55.070972 349.64316
209.51186 56.786011 350.2811
209.46165 58.492405 350.95471
212.81691 53.258232 340.9046
211.84961 55.56134 343.3045
214.16296 63.118683 341.16577
214.96075 63.470329 346.00882
209.53516 61.089714 352.04266
207.83829 62.052456 353.32938
206.46432 65.207077 354.98358
211.57776 66.979202 336.67435
212.37555 67.330849 341.5174
209.50142 66.366295 346.52524
210.25238 65.564941 353.41327
208.7068 67.18927 355.16745
208.16193 69.351051 356.32196
210.06197 66.197647 346.40521
209.8398 68.24614 347.48947
209.64214 69.936501 348.19376
210.65768 71.299744 352.8125
208.87494 71.032402 356.05255
206.60461 70.875687 357.51764
204.33427 70.718971 358.98273
210.12442 69.907059 348.11646
210.83438 74.913177 351.78793
209.54979 76.008659 352.20605
207.71964 75.715271 353.72781
203.17178 79.084839 361.39139
202.73563 79.291031 366.34439
210.83418 75.810959 351.93076
210.32741 77.861748 353.09381
209.86607 79.431053 354.29361
209.07275 81.694748 356.13437
205.08556 83.18013 361.59756
207.40128 83.311417 364.04507
