ply
format ascii 1.0
element vertex 878
property float x
property float y
property float z
property float nx
property float ny
property float nz
property uchar red
property uchar green
property uchar blue
end_header
133.7237 56.7091 296.8581 0.0023 0.6413 -0.7673 0 0 0
116.1155 56.3234 294.8084 0.0721 0.4861 -0.8709 0 0 0
98.3407 55.8203 291.3149 -0.1538 0.5831 -0.7977 0 0 0
87.4413 56.9523 295.8242 -0.1501 0.2141 -0.9652 0 0 0
65.7552 55.3865 289.1884 0.0482 0.4530 -0.8902 0 0 0
54.2038 56.5857 294.9038 0.0651 0.3719 -0.9260 0 0 0
37.4272 56.0932 289.8113 0.5817 -0.3379 -0.7399 0 0 0
30.0456 53.8584 280.6800 0.3435 0.2562 -0.9035 0 0 0
14.4362 53.4366 277.0173 -0.1051 0.2557 -0.9610 0 0 0
1.8264 54.3916 281.3170 -0.2528 0.2410 -0.9370 0 0 0
-14.0244 54.4557 283.5292 -0.2081 0.2759 -0.9384 0 0 0
-27.1497 55.4372 288.3197 -0.2141 0.1916 -0.9578 0 0 0
219.5851 67.2280 346.3338 -0.2401 0.3701 -0.8974 0 0 0
210.7451 69.1316 356.3205 -0.4130 0.0226 -0.9105 0 0 0
189.3554 68.5681 355.2110 -0.0662 0.6200 -0.7818 0 0 0
177.3767 70.0998 361.8226 0.0078 0.5617 -0.8273 0 0 0
119.6545 57.0834 295.1415 0.0883 0.4702 -0.8781 0 0 0
69.4626 56.2562 290.4771 0.1634 0.3365 -0.9274 0 0 0
57.4617 57.2427 294.9273 -0.2405 0.5402 -0.8064 0 0 0
44.6250 58.0450 295.4492 0.0000 0.0000 0.0000 0 0 0
17.2604 54.0603 276.9893 0.0085 0.3397 -0.9405 0 0 0
-10.9620 55.0231 282.5917 -0.1989 0.2523 -0.9470 0 0 0
-24.2969 56.0670 287.9443 -0.3866 0.2029 -0.8997 0 0 0
221.9026 67.7577 344.6032 -0.3687 0.3309 -0.8687 0 0 0
199.9551 70.8238 357.8657 0.0000 0.0000 0.0000 0 0 0
194.4325 69.6422 356.7362 -0.0340 0.6037 -0.7965 0 0 0
182.8274 71.2671 363.3883 -0.0289 0.4966 -0.8675 0 0 0
123.6594 57.8757 296.5242 0.1944 0.5031 -0.8421 0 0 0
105.5197 57.4106 293.9537 0.3515 0.4797 -0.8039 0 0 0
89.8446 57.4116 294.7834 -0.1585 0.3196 -0.9342 0 0 0
72.4220 56.8444 291.0820 0.1567 0.2951 -0.9425 0 0 0
59.8205 57.5365 292.2782 -0.3896 0.5600 -0.7312 0 0 0
44.5365 57.9541 294.4470 0.2704 -0.3072 -0.9124 0 0 0
4.8170 54.8427 280.1663 -0.3111 0.2377 -0.9202 0 0 0
-7.8946 55.6747 282.8360 -0.1815 0.2222 -0.9580 0 0 0
-21.0821 56.5622 286.3795 -0.3718 0.2431 -0.8959 0 0 0
225.6053 68.5209 344.4395 -0.3035 0.3665 -0.8796 0 0 0
199.4452 70.7170 356.9530 0.0067 0.6001 -0.7999 0 0 0
186.2564 71.9926 362.0173 -0.1317 0.6455 -0.7523 0 0 0
131.3767 59.6074 299.7646 0.1286 0.5987 -0.7906 0 0 0
127.4125 58.7728 298.7143 0.2087 0.5604 -0.8015 0 0 0
110.3016 58.3995 296.5788 0.2135 0.4154 -0.8842 0 0 0
93.3232 58.2271 294.3149 -0.1895 0.4118 -0.8913 0 0 0
80.3855 58.8034 294.6768 0.3858 0.2035 -0.8999 0 0 0
76.0880 57.7176 292.1931 0.2660 0.2454 -0.9322 0 0 0
47.0829 58.0853 292.5815 0.0380 -0.2303 -0.9724 0 0 0
23.4225 55.3729 278.1957 0.1332 0.3707 -0.9192 0 0 0
20.1066 54.5092 276.9914 0.0875 0.3864 -0.9182 0 0 0
7.7309 55.4223 279.0601 -0.2714 0.2616 -0.9262 0 0 0
-4.8832 56.2405 282.4797 -0.1258 0.2043 -0.9708 0 0 0
211.8504 69.4176 346.4815 -0.1156 0.2467 -0.9622 0 0 0
203.7372 67.7808 346.0898 -0.2360 0.1167 -0.9647 0 0 0
200.9671 70.9990 357.1731 -0.0570 0.3787 -0.9238 0 0 0
188.7884 72.4872 359.6866 -0.1632 0.6899 -0.7053 0 0 0
134.8400 60.3014 300.6177 0.1056 0.6334 -0.7666 0 0 0
113.2360 59.0428 296.5066 0.0917 0.4276 -0.8993 0 0 0
95.8178 58.6126 293.3037 -0.1609 0.4993 -0.8513 0 0 0
83.3549 59.4300 296.4669 0.2332 -0.0154 -0.9723 0 0 0
62.6282 58.0740 290.8287 -0.3048 0.5286 -0.7922 0 0 0
26.2892 56.0634 278.9546 0.2180 0.2421 -0.9454 0 0 0
10.7992 55.8463 277.8354 -0.1808 0.2949 -0.9383 0 0 0
-1.9419 56.8658 281.7743 -0.1225 0.1981 -0.9725 0 0 0
-17.8449 57.0385 285.1792 -0.2670 0.2620 -0.9274 0 0 0
-30.9234 58.0327 288.8862 0.0679 0.3642 -0.9289 0 0 0
216.7704 70.4373 348.0385 -0.2631 0.3159 -0.9116 0 0 0
206.9441 72.2628 357.4779 -0.2683 -0.0391 -0.9625 0 0 0
191.8106 73.1561 358.8427 0.0000 0.0000 0.0000 0 0 0
173.1747 73.2461 361.5507 -0.0102 0.5553 -0.8316 0 0 0
167.6331 71.9895 358.9491 0.0624 0.6628 -0.7462 0 0 0
139.4298 61.3875 304.1965 0.1631 0.6402 -0.7507 0 0 0
116.5790 59.7552 296.7049 0.0514 0.4627 -0.8850 0 0 0
98.6681 59.2006 293.1381 -0.1031 0.5336 -0.8394 0 0 0
65.7163 58.7496 290.6576 -0.0939 0.4249 -0.9003 0 0 0
53.6211 59.8822 296.3650 0.2787 0.1173 -0.9532 0 0 0
49.7152 58.7535 293.4017 0.2927 -0.0606 -0.9543 0 0 0
29.3532 56.8005 280.1851 0.3335 0.1482 -0.9310 0 0 0
13.8592 56.3663 277.3259 0.0000 0.0000 0.0000 0 0 0
13.8106 56.4185 277.3723 -0.0541 0.3684 -0.9281 0 0 0
0.9470 57.4537 281.5352 -0.2047 0.2260 -0.9524 0 0 0
-14.6792 57.5709 284.7550 -0.1906 0.2918 -0.9373 0 0 0
-28.0180 58.5571 288.7677 -0.1039 0.1431 -0.9842 0 0 0
219.1789 70.9658 346.8305 -0.3032 0.3245 -0.8960 0 0 0
192.9592 73.3412 360.0112 -0.0875 0.6912 -0.7173 0 0 0
177.3496 74.1622 361.8481 0.0293 0.4751 -0.8794 0 0 0
120.1889 60.5451 297.4689 0.1358 0.4833 -0.8649 0 0 0
102.1769 59.9550 294.0066 0.1121 0.4677 -0.8768 0 0 0
85.9017 59.8786 295.1056 0.0151 -0.0120 -0.9998 0 0 0
69.0062 59.4347 291.0817 0.0611 0.2651 -0.9623 0 0 0
56.8525 60.5719 296.8548 0.0673 0.2386 -0.9688 0 0 0
36.3225 58.7655 287.6112 0.7115 -0.2868 -0.6414 0 0 0
32.5119 57.6082 282.0709 0.6370 0.0871 -0.7659 0 0 0
16.6088 57.0912 277.9713 0.0459 0.4327 -0.9004 0 0 0
-11.6901 58.2924 284.5188 -0.2003 0.2754 -0.9402 0 0 0
-24.9677 59.2779 288.7333 -0.3206 0.1319 -0.9380 0 0 0
222.8524 71.7532 346.8722 -0.4170 0.2218 -0.8814 0 0 0
211.3224 73.2351 351.9139 -0.3229 0.0098 -0.9464 0 0 0
199.5387 74.7697 360.3568 -0.1278 0.6197 -0.7743 0 0 0
195.5166 73.8120 359.9638 -0.0492 0.6852 -0.7267 0 0 0
181.2448 74.9748 362.4923 -0.0276 0.4909 -0.8708 0 0 0
127.7160 62.2161 300.8766 0.2494 0.5042 -0.8268 0 0 0
123.6298 61.2771 298.8655 0.2578 0.4930 -0.8310 0 0 0
105.5957 60.6672 295.2357 0.2823 0.4066 -0.8689 0 0 0
89.1363 60.5505 295.2602 0.0058 0.1489 -0.9888 0 0 0
72.0253 60.0719 291.7656 0.1140 0.1199 -0.9862 0 0 0
59.9855 61.1053 296.6006 -0.3507 0.3695 -0.8605 0 0 0
39.4860 59.6407 288.5884 0.5499 -0.3561 -0.7555 0 0 0
19.8806 57.9398 279.3982 0.0601 0.4378 -0.8971 0 0 0
4.2250 57.8992 280.5771 -0.3010 0.2541 -0.9191 0 0 0
-8.5767 58.7120 283.2903 -0.1951 0.2662 -0.9440 0 0 0
214.5130 73.8466 350.6350 -0.2797 0.2745 -0.9200 0 0 0
185.6925 75.9288 363.1195 -0.1093 0.5817 -0.8060 0 0 0
132.0819 63.1394 302.5015 0.1775 0.5236 -0.8333 0 0 0
109.9245 61.6945 297.0441 0.2559 0.3589 -0.8976 0 0 0
92.1989 61.2143 295.3423 -0.0257 0.2939 -0.9555 0 0 0
75.1634 60.7189 291.9092 0.2354 0.0197 -0.9717 0 0 0
62.8125 61.6270 294.5916 -0.4313 0.3841 -0.8163 0 0 0
22.8529 58.5507 279.6157 0.0409 0.3821 -0.9232 0 0 0
7.0451 58.3884 279.8747 -0.2692 0.3221 -0.9076 0 0 0
-5.5818 59.2870 282.8055 -0.1339 0.2936 -0.9465 0 0 0
-21.5325 59.5184 286.7859 -0.3324 0.1646 -0.9287 0 0 0
207.8130 76.5297 355.0363 -0.4651 0.1053 -0.8790 0 0 0
189.8216 76.8304 363.8150 -0.1376 0.6658 -0.7333 0 0 0
170.7955 76.9568 366.7560 -0.1410 0.6144 -0.7763 0 0 0
135.9396 63.9618 303.2488 0.2166 0.5494 -0.8070 0 0 0
113.4065 62.4704 297.9636 0.1535 0.4046 -0.9015 0 0 0
95.8884 61.9753 295.8566 -0.0304 0.3822 -0.9236 0 0 0
78.7089 61.5698 293.2707 0.3650 -0.1022 -0.9254 0 0 0
46.3306 61.1676 292.1768 0.0802 -0.2014 -0.9762 0 0 0
25.5036 59.1075 279.6583 0.0701 0.2550 -0.9644 0 0 0
10.2674 58.9753 279.3958 -0.1608 0.4014 -0.9017 0 0 0
-18.6007 60.2644 286.1821 -0.2433 0.2178 -0.9452 0 0 0
216.9548 74.3646 350.1800 -0.2841 0.3378 -0.8973 0 0 0
193.2176 77.4781 363.4274 -0.1016 0.7200 -0.6865 0 0 0
174.3887 77.7059 365.9016 -0.1545 0.5897 -0.7927 0 0 0
116.2616 63.0369 298.1705 0.0901 0.4477 -0.8897 0 0 0
99.2000 62.7147 295.9734 -0.0338 0.4546 -0.8901 0 0 0
82.1443 62.3980 294.5384 0.2937 -0.1313 -0.9468 0 0 0
65.0800 61.8629 291.6643 -0.2603 0.3583 -0.8966 0 0 0
49.1310 61.9846 292.6586 0.3402 -0.1116 -0.9337 0 0 0
28.5492 59.8303 279.9825 0.2448 0.1407 -0.9593 0 0 0
13.2999 59.7243 279.3546 -0.0153 0.4634 -0.8860 0 0 0
-2.4122 59.9056 282.7791 -0.1004 0.3242 -0.9406 0 0 0
-15.2440 60.6674 285.4303 -0.2049 0.2588 -0.9439 0 0 0
219.2117 74.7881 347.4825 0.0000 0.0000 0.0000 0 0 0
220.0856 75.0094 349.3469 -0.4378 0.2012 -0.8763 0 0 0
197.8057 78.5020 363.9805 -0.1060 0.6452 -0.7567 0 0 0
178.2661 78.5184 365.7209 0.0107 0.5862 -0.8101 0 0 0
123.9202 64.7399 301.0253 0.2719 0.4892 -0.8287 0 0 0
120.1044 63.8798 299.4026 0.1719 0.4738 -0.8637 0 0 0
102.1564 63.2810 295.5117 0.0000 0.0000 0.0000 0 0 0
102.1590 63.2973 295.5973 0.0579 0.4407 -0.8958 0 0 0
85.6851 63.1391 295.0609 0.1535 -0.1202 -0.9808 0 0 0
68.5275 62.6000 291.9479 -0.0644 0.2205 -0.9733 0 0 0
56.8282 63.8514 296.8534 0.2596 0.0096 -0.9657 0 0 0
52.2422 62.5171 294.7072 0.4235 -0.0195 -0.9057 0 0 0
36.2035 62.0037 287.3437 0.6808 -0.1606 -0.7146 0 0 0
16.1353 60.3050 280.0578 0.0813 0.4866 -0.8698 0 0 0
0.6028 60.4392 282.0928 -0.1890 0.3544 -0.9158 0 0 0
-12.3176 61.4231 285.2448 -0.2144 0.2550 -0.9429 0 0 0
-25.3398 62.2417 288.3007 -0.2934 0.2095 -0.9327 0 0 0
220.5390 75.0447 347.3835 0.0000 0.0000 0.0000 0 0 0
221.5704 75.2948 346.8413 -0.5099 0.0783 -0.8567 0 0 0
205.9716 75.9080 351.1625 -0.3666 0.1352 -0.9205 0 0 0
202.9451 79.6551 365.0325 -0.2423 0.5046 -0.8287 0 0 0
182.5045 79.4317 366.7560 0.0310 0.6197 -0.7842 0 0 0
128.1389 65.7042 303.0157 0.2635 0.5018 -0.8239 0 0 0
105.2256 63.8735 295.7749 0.1961 0.4356 -0.8785 0 0 0
88.9707 63.8497 295.8609 0.1359 0.0460 -0.9897 0 0 0
71.5542 63.2642 292.1020 0.0047 0.0927 -0.9957 0 0 0
59.4166 64.3446 296.7216 -0.1994 0.0907 -0.9757 0 0 0
38.5028 62.5144 287.1899 0.5855 -0.2595 -0.7680 0 0 0
31.8784 60.2994 279.9886 0.4198 0.0984 -0.9023 0 0 0
19.2649 61.0536 280.8940 0.0444 0.4773 -0.8776 0 0 0
3.7153 61.1185 282.1632 -0.2731 0.3550 -0.8941 0 0 0
-9.1925 61.9127 284.7939 -0.2020 0.2814 -0.9381 0 0 0
209.3232 76.6823 351.9114 -0.2314 0.2970 -0.9264 0 0 0
205.0782 80.0529 363.1261 -0.5331 0.4168 -0.7363 0 0 0
186.0770 80.1521 367.0443 -0.0068 0.6690 -0.7432 0 0 0
173.0734 81.7816 367.7410 -0.3963 0.4754 -0.7855 0 0 0
132.5225 66.7002 304.5647 0.2579 0.5994 -0.7578 0 0 0
109.3134 64.7994 297.5490 0.2307 0.4064 -0.8841 0 0 0
92.2863 64.5931 296.3833 0.1336 0.1771 -0.9751 0 0 0
74.6389 63.9098 292.0060 0.1554 -0.0200 -0.9876 0 0 0
62.5556 64.9753 296.4277 -0.4221 0.2046 -0.8831 0 0 0
46.1123 64.6839 292.3094 0.4690 -0.0555 -0.8814 0 0 0
22.3166 61.6467 281.1269 -0.0792 0.4105 -0.9084 0 0 0
6.6429 61.6984 281.4226 -0.2413 0.3886 -0.8892 0 0 0
-19.3719 63.7102 287.4889 -0.2715 0.2393 -0.9322 0 0 0
-22.2132 62.6845 287.5168 -0.2902 0.1910 -0.9377 0 0 0
223.4759 75.6815 346.2700 -0.4473 0.0029 -0.8944 0 0 0
216.8218 78.2638 351.0912 -0.4301 0.2922 -0.8542 0 0 0
212.9588 77.4398 351.9251 -0.2781 0.3536 -0.8931 0 0 0
190.5666 81.1564 368.0875 -0.1045 0.7503 -0.6528 0 0 0
117.5178 66.8415 300.3676 0.1587 0.4615 -0.8729 0 0 0
113.4149 65.8859 299.4418 0.1886 0.4246 -0.8855 0 0 0
95.7424 65.3391 297.1798 0.1438 0.2631 -0.9540 0 0 0
77.9217 64.6192 292.2759 0.2684 -0.0911 -0.9590 0 0 0
25.2286 62.1722 280.4097 -0.1263 0.3461 -0.9296 0 0 0
9.6944 62.1531 280.6555 -0.1235 0.4497 -0.8846 0 0 0
-3.0217 63.2022 283.9978 0.0000 0.0000 0.0000 0 0 0
-3.1649 63.2443 284.6100 -0.0742 0.3871 -0.9190 0 0 0
-6.1696 62.2688 283.4029 -0.1102 0.3442 -0.9324 0 0 0
203.6465 79.4624 354.7850 0.0000 0.0000 0.0000 0 0 0
203.8403 79.5448 355.4282 -0.5061 0.3520 -0.7874 0 0 0
195.7552 82.2492 368.9521 -0.1605 0.6475 -0.7449 0 0 0
174.6581 81.8748 367.3334 -0.1618 0.5672 -0.8075 0 0 0
98.5612 65.8862 297.1847 0.0549 0.3686 -0.9280 0 0 0
81.3586 65.3912 293.5350 0.3018 -0.0905 -0.9491 0 0 0
64.8371 65.1639 293.0110 -0.3125 0.2871 -0.9055 0 0 0
48.7090 65.0628 292.6217 0.3163 -0.0560 -0.9470 0 0 0
12.6627 62.9077 281.2090 0.0131 0.4881 -0.8727 0 0 0
-0.2831 63.8806 284.8336 -0.1462 0.4118 -0.8995 0 0 0
-16.0744 63.9413 286.2623 -0.1966 0.2457 -0.9492 0 0 0
219.6589 78.7968 348.7384 -0.5729 0.1399 -0.8076 0 0 0
207.2702 80.2562 354.9192 -0.3302 0.4805 -0.8125 0 0 0
199.2251 83.0348 369.0426 -0.1728 0.4359 -0.8833 0 0 0
179.7754 83.1028 369.6422 0.0059 0.6161 -0.7877 0 0 0
124.4406 68.3351 303.0146 0.2704 0.5100 -0.8166 0 0 0
120.0538 67.2878 300.8681 0.1937 0.4964 -0.8462 0 0 0
102.0586 66.6789 297.2893 0.0697 0.4647 -0.8827 0 0 0
84.8433 66.2287 294.8631 0.2627 -0.0668 -0.9626 0 0 0
68.0040 65.8035 292.4666 -0.1658 0.2981 -0.9400 0 0 0
55.9844 66.9388 296.6972 0.3888 0.0347 -0.9207 0 0 0
51.7176 65.6982 293.3350 0.4333 -0.0222 -0.9010 0 0 0
27.9225 62.7512 280.2443 -0.0368 0.3081 -0.9506 0 0 0
15.5506 63.5401 281.7040 0.0788 0.5074 -0.8581 0 0 0
-12.8997 64.4987 285.8014 -0.1963 0.2620 -0.9449 0 0 0
221.5741 79.1746 346.6509 -0.6105 0.0615 -0.7897 0 0 0
212.2018 81.3169 355.6014 -0.2689 0.5036 -0.8210 0 0 0
203.0469 83.8358 367.4591 0.0000 0.0000 0.0000 0 0 0
203.2900 83.9163 367.4481 -0.4233 0.2609 -0.8676 0 0 0
191.0033 85.8229 376.4245 -0.1996 0.8301 -0.5207 0 0 0
134.4164 70.8342 311.6112 0.3992 0.7172 -0.5712 0 0 0
128.9715 69.3676 305.6982 0.3565 0.6329 -0.6872 0 0 0
105.5801 67.4472 298.5483 0.1359 0.4921 -0.8599 0 0 0
88.1027 66.9469 295.4572 0.2388 0.0144 -0.9710 0 0 0
70.7147 66.2583 291.8785 -0.1508 0.2362 -0.9599 0 0 0
58.8906 67.6326 296.8656 0.0016 0.0231 -0.9997 0 0 0
34.3893 64.4095 283.4803 0.5791 0.0113 -0.8152 0 0 0
31.0022 63.2386 280.2336 0.3102 0.2185 -0.9252 0 0 0
18.7042 64.2431 282.5101 0.0315 0.5241 -0.8511 0 0 0
2.9863 64.3389 283.4903 -0.2156 0.4327 -0.8754 0 0 0
-9.9367 65.1505 285.7013 -0.1741 0.3264 -0.9291 0 0 0
-23.1922 66.3443 289.0348 -0.2900 0.3495 -0.8909 0 0 0
-25.9119 65.1666 287.8436 -0.1622 0.4552 -0.8755 0 0 0
214.4101 81.7374 353.9354 -0.3676 0.3892 -0.8446 0 0 0
194.7028 86.5674 375.4975 -0.2176 0.7566 -0.6166 0 0 0
109.4278 68.3464 299.7038 0.2030 0.4689 -0.8596 0 0 0
91.5095 67.6938 296.2712 0.2165 0.0967 -0.9715 0 0 0
73.7294 66.8496 291.5752 -0.0052 0.1698 -0.9855 0 0 0
37.8013 65.4238 286.2508 0.5341 -0.1907 -0.8236 0 0 0
21.9275 65.0129 283.0297 -0.1249 0.5076 -0.8525 0 0 0
5.9046 64.7652 282.7380 -0.2106 0.4509 -0.8674 0 0 0
-6.8524 65.7269 285.5241 -0.0703 0.3793 -0.9226 0 0 0
223.5059 79.5415 345.2895 -0.4904 0.0446 -0.8704 0 0 0
201.0382 82.9783 359.4540 -0.4623 0.2782 -0.8419 0 0 0
197.7360 87.0895 373.0581 -0.2096 0.5940 -0.7766 0 0 0
185.7038 89.3013 387.7115 -0.4988 0.7469 -0.4397 0 0 0
116.9559 70.0969 302.2294 0.1968 0.5174 -0.8328 0 0 0
112.4418 68.9422 300.1014 0.2244 0.4797 -0.8483 0 0 0
95.0745 68.5161 297.3285 0.2263 0.1878 -0.9558 0 0 0
77.0067 67.6420 291.9723 0.1578 0.1116 -0.9811 0 0 0
61.0925 67.7230 295.1211 -0.2990 0.1790 -0.9373 0 0 0
41.0027 66.1125 286.6184 0.5060 -0.2682 -0.8198 0 0 0
24.7424 65.3945 281.7583 -0.2547 0.4627 -0.8491 0 0 0
9.0866 65.4771 282.7696 -0.1072 0.4927 -0.8636 0 0 0
-3.9171 66.4521 285.8992 -0.0305 0.4184 -0.9078 0 0 0
-19.8925 66.4936 287.7018 -0.3183 0.3167 -0.8935 0 0 0
216.8801 82.2090 352.8800 -0.5815 0.2532 -0.7732 0 0 0
206.0552 84.1609 359.6277 -0.3491 0.4543 -0.8196 0 0 0
190.0318 90.3051 385.8900 -0.5661 0.6624 -0.4906 0 0 0
119.9989 70.7189 303.1196 0.1801 0.5305 -0.8283 0 0 0
99.1867 69.5871 298.7897 0.1948 0.3027 -0.9330 0 0 0
79.9624 68.2589 292.3640 0.2485 0.0676 -0.9663 0 0 0
64.6414 68.5606 294.6759 -0.2482 0.3043 -0.9197 0 0 0
48.5958 68.3126 293.0698 0.1814 0.2167 -0.9592 0 0 0
27.3317 66.0464 281.9973 -0.1723 0.4050 -0.8979 0 0 0
11.9880 66.1556 283.1625 0.0161 0.5119 -0.8589 0 0 0
-0.8731 66.9769 285.6864 -0.1292 0.4119 -0.9020 0 0 0
-16.8574 67.1968 287.5389 -0.2247 0.3043 -0.9257 0 0 0
-27.5673 69.8360 296.9736 -0.6756 0.4914 -0.5497 0 0 0
218.5212 82.3657 349.2619 -0.6535 0.1582 -0.7402 0 0 0
208.5873 84.5612 358.1233 -0.3151 0.5632 -0.7639 0 0 0
199.7457 87.3141 370.9599 -0.3098 0.3675 -0.8769 0 0 0
179.8400 99.9502 423.8210 0.0515 0.7737 -0.6314 0 0 0
131.2834 73.7498 312.7764 0.4576 0.6712 -0.5831 0 0 0
124.7356 71.8357 305.4946 0.3331 0.6129 -0.7165 0 0 0
105.8076 71.0566 300.9008 0.1640 0.4515 -0.8771 0 0 0
102.4288 70.2330 299.7194 0.1775 0.3867 -0.9050 0 0 0
83.9714 69.2403 294.0692 0.2778 0.0497 -0.9594 0 0 0
67.6314 69.1305 294.2196 -0.2377 0.3868 -0.8910 0 0 0
51.0751 68.8128 293.0877 0.3801 0.2103 -0.9007 0 0 0
30.8932 66.6661 282.2794 0.2418 0.3061 -0.9208 0 0 0
15.1589 66.8928 284.0058 0.0834 0.5318 -0.8428 0 0 0
2.2842 67.7267 285.6159 0.0000 0.0000 0.0000 0 0 0
2.2883 67.7292 285.8290 -0.1937 0.4141 -0.8894 0 0 0
-13.6056 67.8298 287.3961 -0.1501 0.3101 -0.9388 0 0 0
221.7227 83.1089 347.5771 -0.6659 0.0818 -0.7415 0 0 0
211.5456 85.1511 357.3517 -0.4106 0.4963 -0.7649 0 0 0
199.4282 86.9517 364.2318 -0.4960 0.2708 -0.8250 0 0 0
192.4212 90.5981 381.4771 -0.2771 0.5664 -0.7762 0 0 0
187.0370 94.9856 397.8837 -0.3925 0.7337 -0.5547 0 0 0
87.3188 70.0444 295.4623 0.2796 0.0590 -0.9583 0 0 0
70.7556 69.7441 293.6029 -0.2784 0.3762 -0.8837 0 0 0
58.4183 70.9217 297.2546 0.0262 0.2244 -0.9741 0 0 0
54.7859 69.8272 295.1875 0.3450 0.2529 -0.9039 0 0 0
33.8791 67.5925 283.8424 0.4361 0.1584 -0.8858 0 0 0
18.2285 67.5225 284.7046 0.0436 0.5704 -0.8202 0 0 0
5.5606 68.4484 285.5610 -0.1634 0.4495 -0.8782 0 0 0
-10.5243 68.2296 286.5337 -0.1040 0.3497 -0.9311 0 0 0
-23.8693 69.5216 292.9536 0.0000 0.0000 0.0000 0 0 0
214.1853 85.6557 355.2602 -0.5779 0.3322 -0.7454 0 0 0
201.9676 92.8726 379.8372 -0.4609 0.3395 -0.8199 0 0 0
197.1666 91.6038 382.0121 -0.3898 0.5650 -0.7272 0 0 0
180.6928 99.3671 414.9603 -0.6108 0.6887 -0.3907 0 0 0
113.0911 72.6476 302.7944 0.2411 0.5191 -0.8200 0 0 0
109.5236 71.7754 301.2601 0.2046 0.4903 -0.8472 0 0 0
90.9957 70.9134 296.3896 0.2791 0.1240 -0.9522 0 0 0
73.3890 70.1372 292.3286 -0.1291 0.3407 -0.9313 0 0 0
37.1378 68.4018 284.7956 0.4298 0.0642 -0.9006 0 0 0
21.4951 68.3540 285.5680 -0.1180 0.5783 -0.8073 0 0 0
-7.5295 68.8712 286.6488 -0.0414 0.3777 -0.9250 0 0 0
-23.8252 69.3629 292.4004 -0.4862 0.4897 -0.7237 0 0 0
223.6968 83.4530 345.8711 -0.6552 0.0432 -0.7542 0 0 0
217.2171 86.2545 353.5038 -0.6435 0.2281 -0.7307 0 0 0
201.7289 87.2917 361.6943 -0.3909 0.3761 -0.8401 0 0 0
189.1887 95.0321 393.5283 -0.4031 0.7296 -0.5525 0 0 0
184.1888 99.8890 412.4204 -0.7247 0.5841 -0.3657 0 0 0
117.8303 73.9380 305.5137 0.2322 0.5786 -0.7819 0 0 0
94.5726 71.7522 297.6095 0.2999 0.1872 -0.9354 0 0 0
76.9995 71.0540 293.2904 0.0348 0.2970 -0.9542 0 0 0
64.7706 72.1996 297.5251 0.0000 0.0000 0.0000 0 0 0
61.0555 71.2367 296.0818 -0.2205 0.2374 -0.9460 0 0 0
40.1809 69.0748 286.0879 0.3716 -0.0743 -0.9254 0 0 0
24.3141 68.8256 284.7444 -0.2753 0.5415 -0.7944 0 0 0
8.4777 68.7739 284.5575 -0.0723 0.4867 -0.8706 0 0 0
-4.5958 69.6660 287.2513 -0.0306 0.3992 -0.9164 0 0 0
-20.6511 69.7471 289.0243 -0.3588 0.3638 -0.8596 0 0 0
226.6901 83.9931 344.3563 -0.6099 -0.0432 -0.7913 0 0 0
206.3185 88.3263 362.1464 -0.3052 0.4926 -0.8150 0 0 0
128.1182 76.6345 312.4105 0.0000 0.0000 0.0000 0 0 0
127.4171 76.4510 312.4105 0.4643 0.6046 -0.6472 0 0 0
121.2425 74.7085 306.2804 0.2637 0.5988 -0.7562 0 0 0
98.3183 72.6513 299.0900 0.2884 0.2428 -0.9262 0 0 0
80.0317 71.6587 293.6530 0.1606 0.2424 -0.9568 0 0 0
64.4913 72.0373 296.8215 -0.1590 0.3038 -0.9394 0 0 0
27.1285 69.2150 283.0068 -0.2480 0.4860 -0.8380 0 0 0
11.4065 69.3768 284.9181 0.0346 0.5146 -0.8567 0 0 0
-1.5393 70.3902 287.4502 -0.1048 0.3863 -0.9164 0 0 0
-17.5146 70.3274 288.4535 -0.2409 0.3751 -0.8951 0 0 0
219.7383 86.6711 351.0614 -0.5446 0.2549 -0.7990 0 0 0
210.0299 89.0349 361.2949 -0.4139 0.4909 -0.7666 0 0 0
197.6217 90.8855 368.9198 -0.5804 0.4022 -0.7081 0 0 0
194.4966 95.6534 388.0773 0.0532 0.4284 -0.9020 0 0 0
185.9894 99.8303 406.6196 -0.8673 0.3886 -0.3110 0 0 0
181.4387 105.4300 427.3840 0.2516 0.4639 -0.8494 0 0 0
175.1958 103.5726 423.7924 0.4589 0.4961 -0.7371 0 0 0
102.1072 73.5504 300.6853 0.2817 0.3546 -0.8916 0 0 0
83.5586 72.5276 294.1552 0.2400 0.2079 -0.9482 0 0 0
67.7240 72.7181 297.3332 -0.2162 0.3366 -0.9165 0 0 0
54.5924 73.4381 296.8636 0.0000 0.0000 0.0000 0 0 0
54.5763 73.3992 297.7410 0.2140 0.4347 -0.8748 0 0 0
50.6058 72.1197 293.8427 0.2357 0.4515 -0.8606 0 0 0
14.6660 70.2690 285.8259 0.1205 0.5526 -0.8247 0 0 0
1.6151 71.0092 287.0569 -0.1460 0.4007 -0.9045 0 0 0
-14.2889 71.0206 288.3340 -0.1251 0.4046 -0.9059 0 0 0
221.2279 86.8805 348.8121 -0.4573 0.3439 -0.8201 0 0 0
212.8319 89.5667 359.7410 -0.5834 0.4126 -0.6996 0 0 0
199.9795 91.2600 366.5824 -0.5254 0.4778 -0.7040 0 0 0
186.9448 99.4632 399.5391 0.0000 0.0000 0.0000 0 0 0
184.7986 105.8400 426.5632 -0.2701 0.6651 -0.6962 0 0 0
109.6312 75.3704 303.3744 0.2158 0.5542 -0.8039 0 0 0
105.9893 74.5364 302.1483 0.2309 0.4661 -0.8541 0 0 0
86.9329 73.3304 295.7408 0.2834 0.2106 -0.9356 0 0 0
70.5652 73.2258 295.5428 -0.2956 0.3281 -0.8972 0 0 0
57.8529 74.2295 297.8205 0.0384 0.3600 -0.9322 0 0 0
30.1333 69.5453 282.2213 0.0466 0.4109 -0.9105 0 0 0
21.0550 71.9408 288.0662 -0.0817 0.5564 -0.8269 0 0 0
17.6816 70.9875 287.1655 0.0742 0.5656 -0.8214 0 0 0
-11.3414 71.6036 288.1993 -0.0953 0.4358 -0.8950 0 0 0
214.4463 89.7349 356.7434 -0.7175 0.2771 -0.6391 0 0 0
204.1030 92.0654 365.9051 -0.3951 0.5468 -0.7381 0 0 0
196.4810 95.7247 383.6872 -0.2000 0.0699 -0.9773 0 0 0
191.5136 100.4172 399.4422 -0.1030 0.1131 -0.9882 0 0 0
186.7655 99.3566 398.8966 0.3125 0.3259 -0.8922 0 0 0
113.3047 76.3189 305.6960 0.2396 0.5887 -0.7720 0 0 0
90.4489 74.1273 296.7243 0.2805 0.2560 -0.9251 0 0 0
73.1799 73.5860 294.3737 -0.1487 0.3420 -0.9279 0 0 0
36.5266 71.4840 285.5080 0.2778 0.2327 -0.9320 0 0 0
32.6167 70.0188 282.7803 0.2253 0.3192 -0.9205 0 0 0
4.7667 71.3852 286.4364 -0.1254 0.4438 -0.8873 0 0 0
-8.1601 72.3576 288.5869 -0.0650 0.4571 -0.8870 0 0 0
-21.4716 73.6690 292.9497 -0.5494 0.4323 -0.7150 0 0 0
223.1014 87.1847 345.9300 -0.5056 0.2747 -0.8178 0 0 0
199.7069 96.4081 376.4154 -0.3734 0.2228 -0.9005 0 0 0
196.0649 101.4498 397.4005 -0.5960 0.1247 -0.7932 0 0 0
185.8190 105.3721 417.7350 -0.0774 0.6529 -0.7535 0 0 0
117.3151 77.2938 307.3676 0.2233 0.6196 -0.7525 0 0 0
93.9367 74.9722 298.1326 0.2948 0.2980 -0.9079 0 0 0
76.3054 74.1969 294.3287 0.0017 0.3562 -0.9344 0 0 0
60.5595 74.5920 296.8385 -0.1564 0.2582 -0.9534 0 0 0
39.6197 72.1617 286.2559 0.1931 0.1609 -0.9679 0 0 0
23.8203 72.3730 287.5553 -0.2763 0.5548 -0.7847 0 0 0
7.8973 72.1172 286.3927 -0.0583 0.4789 -0.8760 0 0 0
-5.1029 73.0382 288.8831 -0.0481 0.4574 -0.8879 0 0 0
225.8757 87.7269 343.7076 -0.0329 0.2231 -0.9742 0 0 0
214.9110 89.5239 352.9598 -0.6723 0.2153 -0.7083 0 0 0
210.4114 93.3300 364.0171 -0.5146 0.4139 -0.7509 0 0 0
206.8623 92.5668 364.6054 -0.3750 0.5290 -0.7613 0 0 0
188.2758 105.4949 408.4559 -0.8462 -0.1014 -0.5231 0 0 0
121.1282 78.2132 310.3380 0.3313 0.6015 -0.7269 0 0 0
97.6374 75.8167 299.8838 0.2946 0.3140 -0.9026 0 0 0
79.6422 75.0198 294.7539 0.1019 0.3384 -0.9355 0 0 0
63.7828 75.1772 296.8951 -0.1006 0.2781 -0.9553 0 0 0
50.8573 76.1219 298.0066 0.2144 0.5354 -0.8169 0 0 0
42.9107 73.1395 287.2745 0.2401 0.1236 -0.9629 0 0 0
26.7249 72.8548 286.4896 -0.3409 0.5436 -0.7670 0 0 0
14.0666 73.6196 288.1361 0.1545 0.5696 -0.8072 0 0 0
10.9803 72.8884 287.1581 0.0551 0.5420 -0.8386 0 0 0
-1.9791 73.7117 289.1162 -0.0967 0.4393 -0.8931 0 0 0
-18.1469 73.6001 290.0413 -0.2321 0.4663 -0.8536 0 0 0
218.1958 90.2315 351.6683 -0.5426 0.2412 -0.8046 0 0 0
198.5020 95.4090 371.9492 -0.4434 0.4511 -0.7746 0 0 0
180.8843 110.0987 428.3497 0.3740 0.1523 -0.9148 0 0 0
172.2653 107.4100 419.8473 0.6140 0.1264 -0.7792 0 0 0
105.5621 78.0259 304.6526 0.2639 0.5858 -0.7663 0 0 0
101.7281 76.9686 301.5953 0.3032 0.4458 -0.8422 0 0 0
66.9991 75.9025 296.9399 -0.2001 0.2716 -0.9414 0 0 0
30.1960 73.1528 284.7771 -0.1713 0.5469 -0.8195 0 0 0
17.3134 74.5657 289.8600 0.0876 0.5734 -0.8146 0 0 0
-15.1012 74.4375 290.2584 -0.0798 0.5102 -0.8564 0 0 0
221.5658 90.9373 351.3873 -0.4317 0.3092 -0.8474 0 0 0
212.6214 93.5951 361.3970 -0.7222 0.2681 -0.6376 0 0 0
202.3617 96.1999 371.2243 -0.5260 0.5669 -0.6340 0 0 0
189.9273 98.4682 384.3553 0.1441 -0.0223 -0.9893 0 0 0
187.6768 112.0441 432.8394 0.0728 0.1632 -0.9839 0 0 0
110.2406 79.1441 306.9276 0.2445 0.6013 -0.7607 0 0 0
86.1483 76.4074 296.3246 0.2513 0.3801 -0.8902 0 0 0
82.1856 75.2670 294.2890 0.2019 0.3550 -0.9128 0 0 0
69.7650 76.2887 295.6588 -0.2578 0.2963 -0.9196 0 0 0
57.0581 77.4655 298.8378 -0.0367 0.4677 -0.8831 0 0 0
53.4004 76.2315 297.6688 0.1303 0.5290 -0.8386 0 0 0
33.1339 73.9807 286.0466 0.0450 0.5068 -0.8609 0 0 0
20.4501 75.1890 289.8247 -0.0803 0.5629 -0.8226 0 0 0
4.2501 74.9817 288.3661 -0.0777 0.4896 -0.8685 0 0 0
1.1375 74.0885 288.1624 -0.1246 0.4452 -0.8867 0 0 0
-12.0256 75.0851 290.3889 -0.0976 0.5246 -0.8457 0 0 0
226.2061 91.9293 350.0218 -0.4952 0.3519 -0.7943 0 0 0
214.4625 93.8001 358.6161 -0.8150 0.1956 -0.5455 0 0 0
204.9001 96.5495 369.1791 -0.4569 0.5324 -0.7126 0 0 0
119.3244 81.7193 311.9059 0.2531 0.6482 -0.7181 0 0 0
114.3039 80.3357 309.1813 0.2389 0.6225 -0.7453 0 0 0
90.2971 77.5074 298.0083 0.2575 0.4097 -0.8751 0 0 0
72.7471 76.8486 295.4467 -0.1290 0.3785 -0.9166 0 0 0
60.5073 78.1072 297.9675 -0.2113 0.3990 -0.8923 0 0 0
36.1702 74.6433 286.1787 0.1702 0.4346 -0.8844 0 0 0
23.3085 75.7921 289.7350 -0.2132 0.5419 -0.8130 0 0 0
7.3320 75.6928 289.1235 0.0086 0.5258 -0.8506 0 0 0
-8.8783 75.5784 290.2073 -0.0873 0.5168 -0.8517 0 0 0
216.7176 94.1336 355.5426 -0.7274 0.1765 -0.6631 0 0 0
207.9299 97.1388 367.8426 -0.5045 0.4339 -0.7465 0 0 0
188.6927 103.9182 397.4586 0.0838 -0.0158 -0.9964 0 0 0
180.2269 101.3071 392.7724 0.4613 0.0406 -0.8863 0 0 0
123.7118 82.9705 313.7921 0.1919 0.6660 -0.7209 0 0 0
94.2474 78.6631 300.1242 0.3175 0.4937 -0.8096 0 0 0
76.0100 77.5040 295.3313 -0.0248 0.4121 -0.9108 0 0 0
39.1159 75.1804 286.4836 0.1440 0.3713 -0.9173 0 0 0
10.4782 76.2415 289.0402 0.0908 0.5545 -0.8272 0 0 0
-5.7740 76.2172 290.1548 -0.0832 0.5059 -0.8586 0 0 0
195.9854 99.3566 376.0568 -0.4555 0.3608 -0.8138 0 0 0
102.6418 81.0010 305.7894 0.3473 0.5962 -0.7238 0 0 0
97.7170 79.4314 301.9597 0.3330 0.5331 -0.7778 0 0 0
63.5245 78.6548 298.2299 -0.1470 0.4067 -0.9016 0 0 0
50.4417 79.6620 300.0700 0.1237 0.5347 -0.8360 0 0 0
42.7606 76.2732 287.4033 0.2588 0.4138 -0.8728 0 0 0
26.3649 76.3211 289.7556 -0.3272 0.5323 -0.7808 0 0 0
13.4863 77.0690 290.5707 0.1471 0.5618 -0.8141 0 0 0
-2.7695 77.0193 290.5794 -0.1118 0.5082 -0.8540 0 0 0
-19.0334 76.9763 290.9072 -0.2737 0.5288 -0.8034 0 0 0
222.5614 90.5934 342.6555 -0.1464 0.4102 -0.9002 0 0 0
219.4768 94.5866 353.5139 -0.5437 0.1837 -0.8190 0 0 0
210.8436 97.6085 365.5177 -0.6867 0.2524 -0.6817 0 0 0
201.2627 100.6436 377.3470 -0.4624 0.4493 -0.7644 0 0 0
106.9522 82.1407 308.3532 0.2694 0.6170 -0.7394 0 0 0
83.1443 79.3463 297.0944 0.1706 0.4689 -0.8666 0 0 0
79.0943 78.1663 295.5393 0.0462 0.4479 -0.8929 0 0 0
66.7072 79.3474 298.0672 -0.1753 0.4117 -0.8943 0 0 0
53.6583 80.2064 301.0687 0.0495 0.5326 -0.8449 0 0 0
29.4722 76.8122 288.0243 -0.2824 0.5263 -0.8020 0 0 0
16.7954 78.1105 292.4126 0.0698 0.5431 -0.8367 0 0 0
0.4287 77.8019 290.7231 -0.1215 0.5044 -0.8548 0 0 0
-15.9297 78.0224 292.7726 -0.0994 0.5939 -0.7984 0 0 0
221.8473 94.9704 352.3617 -0.3749 0.1815 -0.9091 0 0 0
212.4291 97.6726 362.2772 -0.8158 0.0774 -0.5731 0 0 0
202.7520 100.6520 374.1479 -0.5641 0.4947 -0.6611 0 0 0
190.7125 103.1456 382.8040 0.1708 0.3631 -0.9160 0 0 0
177.3980 105.5663 393.7394 0.1444 0.6223 -0.7694 0 0 0
115.2568 84.5458 311.8799 0.2368 0.6178 -0.7498 0 0 0
110.2606 82.9162 310.5019 0.2435 0.6229 -0.7434 0 0 0
86.6363 80.2533 298.7113 0.2477 0.5075 -0.8253 0 0 0
69.7205 79.8549 296.9948 -0.2001 0.4430 -0.8739 0 0 0
57.2016 81.1773 301.8056 -0.0833 0.5424 -0.8360 0 0 0
32.4845 77.1115 286.9370 -0.0776 0.5145 -0.8539 0 0 0
19.9516 78.8470 292.8329 -0.0765 0.5270 -0.8464 0 0 0
3.6384 78.2058 290.3098 -0.0493 0.5521 -0.8323 0 0 0
-12.7918 78.6099 292.7254 -0.1082 0.5976 -0.7944 0 0 0
224.9005 95.5036 350.6882 -0.4235 0.2902 -0.8581 0 0 0
214.5647 97.8702 359.3873 -0.8193 0.0490 -0.5713 0 0 0
206.2513 101.3372 372.4747 -0.6057 0.4293 -0.6699 0 0 0
196.1951 104.5455 384.8537 -0.4472 0.5004 -0.7414 0 0 0
181.8066 106.4620 392.9459 0.3130 0.3136 -0.8965 0 0 0
183.6217 115.1745 431.9591 0.2056 -0.1401 -0.9685 0 0 0
126.9117 88.0487 323.9169 0.0000 0.0000 0.0000 0 0 0
126.8930 88.0718 323.9169 0.0000 0.0000 0.0000 0 0 0
119.0336 85.2799 314.5825 0.2432 0.6617 -0.7092 0 0 0
90.2423 81.0637 299.8898 0.2529 0.5285 -0.8104 0 0 0
72.6031 80.3753 296.9785 -0.1396 0.4877 -0.8618 0 0 0
60.3560 81.6729 301.0416 -0.2241 0.5081 -0.8316 0 0 0
22.9809 79.3357 292.2723 -0.1540 0.5422 -0.8260 0 0 0
6.7645 78.9920 290.6583 0.0186 0.5900 -0.8072 0 0 0
-9.5788 79.2836 292.7703 -0.1203 0.5902 -0.7983 0 0 0
208.3698 101.4868 369.2424 -0.6749 0.3271 -0.6615 0 0 0
197.6744 104.3828 380.5694 -0.5351 0.5091 -0.6741 0 0 0
188.4502 108.4154 396.9478 0.1817 0.1511 -0.9717 0 0 0
186.0262 115.2474 425.0730 0.1429 -0.4494 -0.8818 0 0 0
98.7223 83.6558 305.7235 0.3374 0.5381 -0.7724 0 0 0
94.2339 82.1932 302.5914 0.3164 0.5570 -0.7679 0 0 0
76.2172 81.4205 298.0555 -0.0419 0.5147 -0.8564 0 0 0
38.6689 78.6910 288.4340 0.1818 0.5055 -0.8435 0 0 0
25.6559 79.8002 291.9680 -0.2570 0.5565 -0.7901 0 0 0
9.8649 79.9387 292.0699 0.0977 0.6286 -0.7716 0 0 0
-6.4881 80.0285 293.3293 -0.1278 0.5874 -0.7992 0 0 0
-20.0955 80.9878 296.2938 -0.2255 0.6242 -0.7480 0 0 0
226.9198 95.7767 347.9355 -0.2083 0.3518 -0.9126 0 0 0
216.5427 98.0531 356.3851 -0.7407 0.0378 -0.6708 0 0 0
201.7582 105.2452 380.0322 -0.5627 0.4784 -0.6742 0 0 0
192.4885 109.2138 396.4096 -0.5158 0.2458 -0.8207 0 0 0
107.9855 86.3523 312.0757 0.3233 0.4845 -0.8129 0 0 0
102.4173 84.5651 308.7619 0.3159 0.4899 -0.8125 0 0 0
79.0324 81.8020 297.6119 0.0693 0.5487 -0.8332 0 0 0
63.1781 82.0799 299.6471 -0.1992 0.5108 -0.8363 0 0 0
42.0715 79.6399 290.1691 0.2566 0.5289 -0.8090 0 0 0
12.9895 80.6534 293.1058 0.1010 0.6279 -0.7717 0 0 0
-3.3115 80.4864 292.7119 -0.1022 0.5973 -0.7955 0 0 0
-16.6344 81.6494 296.1880 -0.1656 0.6259 -0.7621 0 0 0
218.0255 98.1728 353.4270 -0.5989 0.0434 -0.7997 0 0 0
210.2198 101.5191 366.4428 -0.8145 0.1953 -0.5463 0 0 0
185.5203 113.8816 409.9792 -0.6142 0.6367 -0.4662 0 0 0
82.6668 82.6693 298.7183 0.1791 0.5575 -0.8106 0 0 0
66.4078 82.8292 300.3502 -0.1699 0.5394 -0.8247 0 0 0
53.5168 83.9964 303.7484 -0.0098 0.5776 -0.8162 0 0 0
29.2136 80.3838 290.7927 -0.3883 0.4998 -0.7742 0 0 0
16.2852 81.5167 294.0376 0.0074 0.5951 -0.8036 0 0 0
-0.1667 81.3076 293.0311 -0.0821 0.6227 -0.7782 0 0 0
-13.5584 82.4251 295.6947 -0.1161 0.6011 -0.7907 0 0 0
220.7238 98.6344 351.4164 -0.4696 -0.0019 -0.8829 0 0 0
211.5048 101.4544 362.9539 -0.8583 0.0676 -0.5087 0 0 0
203.1008 105.0705 376.6956 -0.6442 0.3801 -0.6638 0 0 0
198.2433 109.9463 389.5858 -0.7421 0.3750 -0.5556 0 0 0
192.3995 108.3455 390.1241 -0.6881 0.3992 -0.6060 0 0 0
187.7446 113.8000 404.1078 -0.4863 0.6343 -0.6009 0 0 0
86.5206 83.6191 300.7578 0.2222 0.5719 -0.7897 0 0 0
69.7352 83.5488 300.4898 -0.1683 0.5656 -0.8073 0 0 0
57.0070 84.7798 303.9987 -0.1220 0.5748 -0.8092 0 0 0
31.8465 80.5978 289.3601 -0.2615 0.4924 -0.8302 0 0 0
19.3587 82.2128 294.1335 -0.0772 0.5853 -0.8071 0 0 0
2.9219 81.7752 292.9960 -0.0262 0.6489 -0.7605 0 0 0
-10.4046 83.1370 296.3880 -0.0983 0.6138 -0.7833 0 0 0
-24.2641 85.4197 301.4240 -0.5016 0.5518 -0.6662 0 0 0
213.5438 101.6667 359.0457 -0.8179 0.0189 -0.5751 0 0 0
205.3203 105.2770 373.9084 -0.6719 0.3485 -0.6535 0 0 0
190.9217 114.2418 401.4135 -0.5039 0.5916 -0.6293 0 0 0
94.5969 86.0284 305.9149 0.3366 0.5902 -0.7337 0 0 0
90.4080 84.8280 302.5298 0.2608 0.5822 -0.7701 0 0 0
72.3564 83.8061 299.0815 -0.1173 0.5934 -0.7963 0 0 0
60.1710 85.3286 303.8398 -0.2069 0.5819 -0.7865 0 0 0
35.4109 81.3898 289.7867 0.1096 0.4704 -0.8756 0 0 0
22.4858 82.9592 294.7292 -0.1218 0.5933 -0.7957 0 0 0
5.9816 82.6568 294.0085 0.0302 0.6755 -0.7368 0 0 0
223.2245 98.9591 349.5283 -0.4410 0.0779 -0.8941 0 0 0
208.3843 105.7867 371.7321 -0.7679 0.2605 -0.5852 0 0 0
198.7129 109.1860 384.6445 -0.6117 0.4448 -0.6542 0 0 0
187.0942 120.7661 426.5658 -0.6569 -0.3727 -0.6554 0 0 0
307.1251 210.9856 732.8547 0.0000 0.0000 0.0000 0 0 0
104.3663 89.5166 310.1306 0.3408 0.4131 -0.8445 0 0 0
98.7848 87.3889 308.2870 0.2956 0.5434 -0.7857 0 0 0
75.9241 84.8152 299.9865 -0.0340 0.6115 -0.7905 0 0 0
38.3617 82.2800 290.9446 0.3123 0.5549 -0.7710 0 0 0
25.6263 83.5508 294.7699 -0.2322 0.5953 -0.7692 0 0 0
9.3377 83.4815 295.2853 0.0836 0.6916 -0.7174 0 0 0
-7.2076 83.5833 295.9353 -0.1186 0.6211 -0.7747 0 0 0
-20.9562 85.2042 300.6531 -0.4159 0.5448 -0.7282 0 0 0
226.8432 99.7305 348.6459 -0.3413 0.1243 -0.9317 0 0 0
216.4147 102.0973 357.2957 -0.7331 0.0576 -0.6777 0 0 0
200.9342 109.4112 381.7168 -0.6558 0.3874 -0.6480 0 0 0
192.7318 113.9874 397.9677 -0.7531 0.4131 -0.5120 0 0 0
79.1345 85.4162 300.1072 0.0342 0.6293 -0.7764 0 0 0
66.4706 86.6579 302.6353 -0.1233 0.6238 -0.7718 0 0 0
62.8098 85.5600 302.3700 -0.1853 0.5908 -0.7853 0 0 0
53.9221 88.3623 306.3945 -0.0290 0.6869 -0.7262 0 0 0
50.0810 86.9481 305.8526 0.1760 0.7020 -0.6901 0 0 0
45.2595 84.5636 296.9025 0.5795 0.5570 -0.5949 0 0 0
41.8559 83.4407 292.9926 0.3455 0.5874 -0.7319 0 0 0
28.4828 84.3346 294.6866 -0.4304 0.5360 -0.7263 0 0 0
12.5529 84.3215 296.4643 0.0317 0.6770 -0.7353 0 0 0
-17.5155 85.3830 298.8079 -0.2517 0.5717 -0.7809 0 0 0
229.3010 100.1042 347.5316 -0.0650 0.2370 -0.9693 0 0 0
217.7498 102.0918 353.9432 -0.6613 0.1363 -0.7376 0 0 0
210.4786 105.8414 367.9778 -0.8896 0.1596 -0.4279 0 0 0
194.1585 113.6580 394.0264 -0.8124 0.2915 -0.5050 0 0 0
185.9998 118.9541 415.5841 -0.6365 0.2566 -0.7274 0 0 0
87.1967 87.8295 304.5127 0.2053 0.6191 -0.7580 0 0 0
83.1939 86.6469 302.3066 0.1389 0.6330 -0.7616 0 0 0
69.7087 87.2842 302.9405 -0.1246 0.6227 -0.7725 0 0 0
15.8630 85.3143 297.3060 -0.0520 0.6612 -0.7484 0 0 0
-0.6873 85.0040 296.3737 -0.0145 0.6978 -0.7162 0 0 0
-14.3359 85.9817 298.7768 -0.1074 0.6047 -0.7892 0 0 0
-25.6283 90.4701 311.3111 -0.6608 -0.0776 -0.7465 0 0 0
220.4190 102.4839 352.3631 -0.5790 0.2129 -0.7871 0 0 0
212.1223 105.8830 364.0052 -0.9167 0.0572 -0.3954 0 0 0
203.0325 109.4296 378.2285 -0.7015 0.3138 -0.6399 0 0 0
188.6110 118.9914 410.6105 -0.7960 0.3360 -0.5035 0 0 0
184.7711 126.1867 434.8667 0.0000 0.0000 0.0000 0 0 0
96.3205 90.9138 309.9468 0.2750 0.5399 -0.7955 0 0 0
90.6393 88.5874 305.9001 0.2798 0.6225 -0.7309 0 0 0
56.5490 88.3857 305.2102 -0.1587 0.6303 -0.7600 0 0 0
31.4985 84.0023 290.3808 -0.3253 0.4979 -0.8039 0 0 0
18.7877 85.6738 296.6986 -0.0640 0.6353 -0.7696 0 0 0
2.3070 85.8931 297.5957 0.0282 0.7233 -0.6900 0 0 0
-11.0570 86.6624 298.8089 -0.0676 0.6292 -0.7743 0 0 0
206.3984 110.0291 376.0494 -0.7270 0.2931 -0.6210 0 0 0
196.5259 113.6561 389.9846 -0.7760 0.2927 -0.5586 0 0 0
190.7180 118.8743 405.8646 0.0000 0.0000 0.0000 0 0 0
182.2592 124.8738 431.8284 0.1753 0.5338 -0.8272 0 0 0
76.1851 88.7476 303.5624 -0.0069 0.6772 -0.7358 0 0 0
72.9819 87.7964 302.6758 -0.0707 0.6413 -0.7640 0 0 0
60.2630 89.4803 306.8391 -0.2006 0.6274 -0.7524 0 0 0
34.6074 84.6527 290.3348 0.0563 0.4855 -0.8724 0 0 0
22.0750 86.7676 298.1194 -0.0804 0.6448 -0.7601 0 0 0
8.9249 87.8266 299.7357 0.0446 0.7319 -0.6799 0 0 0
5.7138 86.7608 298.9928 0.0410 0.7302 -0.6820 0 0 0
-7.8319 87.2898 298.9564 -0.0807 0.6617 -0.7454 0 0 0
-21.8176 89.1443 305.3022 -0.4415 0.4896 -0.7519 0 0 0
222.6001 102.7595 350.2926 -0.4492 0.2412 -0.8603 0 0 0
212.6162 105.4339 360.0296 -0.8311 0.0391 -0.5547 0 0 0
209.2965 110.3973 373.7253 -0.8105 0.2197 -0.5430 0 0 0
199.1195 113.9373 387.1588 -0.7745 0.2709 -0.5716 0 0 0
189.9297 118.5096 406.1179 -0.8046 0.3362 -0.4894 0 0 0
186.9473 125.7276 427.8075 0.1011 -0.0185 -0.9947 0 0 0
165.9272 117.1495 398.4649 0.0000 0.0000 0.0000 0 0 0
79.3700 89.5361 303.4472 0.0561 0.6934 -0.7183 0 0 0
63.0334 89.6539 305.4377 -0.1727 0.6295 -0.7576 0 0 0
50.1362 91.2809 311.5112 0.1084 0.6931 -0.7126 0 0 0
46.0454 89.3889 306.7600 0.1936 0.7555 -0.6259 0 0 0
41.6350 86.9767 296.6044 0.5287 0.5211 -0.6700 0 0 0
25.4170 87.2055 297.9873 -0.1407 0.6599 -0.7380 0 0 0
12.1013 88.5500 300.7831 -0.0249 0.7125 -0.7012 0 0 0
-4.7620 88.1149 299.2129 -0.0541 0.6881 -0.7236 0 0 0
226.6442 103.6433 349.5692 -0.3777 0.2521 -0.8910 0 0 0
215.5614 105.9485 357.4060 -0.6962 0.0914 -0.7120 0 0 0
210.2878 110.1018 369.5599 -0.9261 0.0950 -0.3652 0 0 0
201.7987 114.1296 383.8431 -0.7756 0.2746 -0.5684 0 0 0
193.4813 119.0340 401.2447 -0.7983 0.3144 -0.5137 0 0 0
200.0960 139.5896 458.7504 0.0000 0.0000 0.0000 0 0 0
83.9217 90.9053 305.9250 0.1240 0.6795 -0.7231 0 0 0
66.4648 90.4672 305.9642 -0.1338 0.6525 -0.7459 0 0 0
53.8401 92.2735 311.9014 -0.0873 0.6857 -0.7226 0 0 0
28.5301 87.9048 296.7287 -0.4058 0.6394 -0.6530 0 0 0
15.4070 89.6717 300.9336 -0.1157 0.6903 -0.7142 0 0 0
-1.5735 88.9997 300.6293 0.0239 0.7219 -0.6916 0 0 0
-18.3548 88.9351 302.1173 -0.2376 0.5771 -0.7814 0 0 0
228.7781 103.9240 348.5077 -0.3058 0.2424 -0.9207 0 0 0
218.1325 106.3054 356.2240 -0.5652 0.1786 -0.8054 0 0 0
194.8864 118.6091 396.2087 -0.8492 0.2345 -0.4732 0 0 0
186.1463 123.8637 417.1261 -0.7913 0.0324 -0.6106 0 0 0
69.8392 91.1365 305.9978 -0.0993 0.6658 -0.7395 0 0 0
18.4692 90.0785 300.6770 -0.0902 0.6930 -0.7153 0 0 0
1.7407 90.2582 302.0456 0.0436 0.7312 -0.6808 0 0 0
-15.1668 90.0718 302.0839 -0.0091 0.6741 -0.7386 0 0 0
-26.3689 94.0646 311.5250 -0.6113 -0.1708 -0.7727 0 0 0
220.2464 106.4337 353.0871 0.0000 0.0000 0.0000 0 0 0
220.7774 106.6811 353.6908 -0.5050 0.2655 -0.8213 0 0 0
211.2234 109.7033 365.0009 -0.9318 0.0394 -0.3607 0 0 0
203.5271 114.0178 380.5185 -0.7245 0.2891 -0.6257 0 0 0
188.6360 123.8914 411.7415 -0.9050 0.1281 -0.4057 0 0 0
73.3607 92.1931 306.6504 -0.0408 0.6661 -0.7447 0 0 0
43.6735 93.9937 313.9201 -0.1486 0.6945 -0.7040 0 0 0
21.5321 90.5942 301.7293 -0.0562 0.6770 -0.7338 0 0 0
5.0231 91.1287 302.6582 0.0000 0.0000 0.0000 0 0 0
4.9162 91.1517 302.7126 0.0329 0.7323 -0.6801 0 0 0
-12.0424 90.8246 303.2834 -0.0537 0.7258 -0.6858 0 0 0
206.6069 114.4558 378.0338 -0.7516 0.2106 -0.6251 0 0 0
196.6965 118.2952 391.6973 -0.8335 0.2402 -0.4975 0 0 0
95.5115 94.2284 313.3092 -0.0986 0.6460 -0.7570 0 0 0
81.7218 95.1876 310.7782 0.0997 0.6894 -0.7175 0 0 0
77.3692 93.5062 308.7437 0.0560 0.6991 -0.7128 0 0 0
63.7127 94.2489 309.8961 0.0000 0.0000 0.0000 0 0 0
59.9902 93.2090 309.0936 -0.1493 0.6328 -0.7598 0 0 0
46.6561 94.4126 312.7696 0.0184 0.6638 -0.7477 0 0 0
24.9478 91.4463 302.8881 -0.0980 0.6851 -0.7219 0 0 0
8.3198 91.7502 304.3179 -0.0072 0.6997 -0.7144 0 0 0
-8.5893 91.5234 303.3405 -0.0876 0.7262 -0.6818 0 0 0
-22.7430 93.3087 306.5189 -0.4974 0.1469 -0.8550 0 0 0
223.3261 107.0064 352.3954 -0.4400 0.2968 -0.8475 0 0 0
212.7199 109.5639 360.5559 -0.8004 0.0794 -0.5942 0 0 0
209.2428 114.7573 375.2528 -0.8531 0.0912 -0.5137 0 0 0
199.3781 118.6304 388.6075 -0.7898 0.2285 -0.5693 0 0 0
189.9685 123.3206 406.5034 -0.8856 0.1870 -0.4251 0 0 0
63.4096 93.9922 309.3006 -0.1343 0.6380 -0.7583 0 0 0
50.0877 95.3949 313.9312 -0.0007 0.6111 -0.7916 0 0 0
28.1788 92.4036 303.5972 -0.1992 0.6979 -0.6879 0 0 0
11.5129 92.7079 305.1652 -0.0624 0.6853 -0.7256 0 0 0
-5.6256 92.3694 303.9861 -0.0111 0.7356 -0.6774 0 0 0
226.0249 107.4288 350.4254 -0.4239 0.3057 -0.8525 0 0 0
215.4072 109.9493 358.0650 -0.6342 0.1381 -0.7607 0 0 0
201.4306 118.4179 385.2185 -0.7970 0.2048 -0.5682 0 0 0
192.8443 123.4649 402.4092 -0.8778 0.1712 -0.4474 0 0 0
178.9981 126.4486 426.0003 -0.4726 -0.3876 -0.7914 0 0 0
70.5132 95.8697 309.7652 -0.0886 0.6689 -0.7381 0 0 0
66.7979 94.8181 310.0725 -0.1470 0.6379 -0.7560 0 0 0
53.6406 96.2505 314.8104 -0.0934 0.5483 -0.8310 0 0 0
14.7679 93.3827 305.3657 -0.1582 0.6559 -0.7381 0 0 0
-2.2839 93.4010 304.9114 0.0490 0.7487 -0.6611 0 0 0
-16.1745 94.6472 308.4413 0.2114 0.6865 -0.6957 0 0 0
-19.1567 92.3632 303.1015 -0.3394 0.3457 -0.8748 0 0 0
229.5959 108.1629 349.8119 -0.3525 0.2779 -0.8936 0 0 0
217.5445 110.1126 356.1862 -0.5125 0.2071 -0.8334 0 0 0
209.6960 114.0396 369.8717 -0.9469 -0.0134 -0.3212 0 0 0
204.6171 118.9460 382.4899 -0.7837 0.1741 -0.5963 0 0 0
194.7497 123.2246 398.7157 -0.8505 0.2352 -0.4704 0 0 0
186.4940 129.0157 418.8804 -0.7713 0.1529 -0.6178 0 0 0
4.0692 95.0055 308.0146 0.0203 0.7737 -0.6333 0 0 0
0.9336 93.6326 306.2351 0.0349 0.7733 -0.6331 0 0 0
-12.9125 95.3311 309.2100 0.0664 0.7447 -0.6641 0 0 0
220.6290 110.6606 355.1019 -0.4520 0.2759 -0.8483 0 0 0
211.3537 113.9927 365.5500 -0.9226 -0.0098 -0.3857 0 0 0
188.6070 128.7734 414.5372 0.0000 0.0000 0.0000 0 0 0
188.8540 128.9452 414.6660 -0.8777 0.2332 -0.4186 0 0 0
42.9445 97.7287 316.0221 -0.4950 0.4180 -0.7617 0 0 0
24.7885 96.2854 305.6934 -0.0268 0.6614 -0.7496 0 0 0
21.6056 95.4283 305.3511 0.0598 0.6255 -0.7779 0 0 0
7.8371 96.2500 308.4613 -0.0352 0.7430 -0.6683 0 0 0
-9.3227 95.6190 308.6186 -0.1862 0.6666 -0.7218 0 0 0
-26.7718 95.3703 307.5381 -0.6079 -0.2344 -0.7587 0 0 0
-31.9135 91.3965 294.5922 -0.4143 -0.7691 -0.4866 0 0 0
224.1301 111.3643 353.8431 -0.4368 0.3028 -0.8471 0 0 0
206.3716 118.6890 379.1243 -0.8385 0.0501 -0.5425 0 0 0
197.4222 123.2698 394.3711 -0.8206 0.2697 -0.5038 0 0 0
190.6041 128.4239 408.9282 -0.8735 0.2538 -0.4155 0 0 0
76.8719 96.5354 309.2772 0.1132 0.6613 -0.7415 0 0 0
64.5342 99.3111 312.3312 -0.0801 0.5881 -0.8048 0 0 0
46.3546 98.5543 315.8126 -0.2387 0.4393 -0.8660 0 0 0
11.0584 97.1861 308.2148 -0.1124 0.6798 -0.7248 0 0 0
-6.2813 96.4084 308.8946 -0.0036 0.7048 -0.7094 0 0 0
-23.3497 95.9802 306.3102 0.0000 0.0000 0.0000 0 0 0
211.8745 113.4217 361.2935 -0.7732 0.1298 -0.6207 0 0 0
208.7686 118.8958 375.8021 -0.9018 -0.0430 -0.4299 0 0 0
199.1832 123.0536 390.2444 -0.7890 0.2825 -0.5457 0 0 0
197.3070 140.2936 421.4241 0.4378 0.0564 -0.8973 0 0 0
49.7588 99.4159 316.1466 -0.0855 0.4134 -0.9065 0 0 0
-3.0173 98.0132 312.9732 0.0664 0.7486 -0.6597 0 0 0
-17.1712 99.3793 313.8537 0.3962 0.5725 -0.7178 0 0 0
-19.7928 96.7924 308.5297 0.0000 0.0000 0.0000 0 0 0
-23.2878 95.8583 305.7672 -0.4159 -0.0367 -0.9087 0 0 0
-28.7215 91.1517 290.4475 -0.6343 0.5662 -0.5263 0 0 0
226.6076 111.6380 352.2176 -0.4596 0.3129 -0.8312 0 0 0
215.1262 114.0393 359.5438 -0.6232 0.1961 -0.7571 0 0 0
201.6884 123.0908 387.0079 -0.7900 0.2438 -0.5625 0 0 0
193.2604 128.4443 404.5078 -0.8737 0.2179 -0.4349 0 0 0
39.6828 101.6981 323.0942 -0.1897 0.5509 -0.8127 0 0 0
0.4337 98.8444 312.8827 -0.0889 0.7198 -0.6885 0 0 0
-19.7879 96.5458 305.7292 0.1328 0.4118 -0.9015 0 0 0
-34.1439 97.7121 305.4122 -0.7316 -0.1283 -0.6696 0 0 0
229.3192 112.0799 350.8518 -0.3831 0.3069 -0.8712 0 0 0
217.5833 114.2234 357.2585 -0.4860 0.2518 -0.8369 0 0 0
209.2602 118.1676 369.7415 0.0000 0.0000 0.0000 0 0 0
209.4729 118.3013 370.5859 -0.9274 -0.0442 -0.3714 0 0 0
194.9797 128.0674 399.7944 -0.8474 0.2359 -0.4757 0 0 0
47.7459 104.9376 316.4343 -0.3235 0.4334 -0.8412 0 0 0
43.2535 102.8959 320.1135 -0.4225 0.4017 -0.8125 0 0 0
7.0037 101.5511 318.1661 0.3214 0.6883 -0.6503 0 0 0
3.4611 100.0213 314.3822 0.0896 0.7433 -0.6630 0 0 0
-10.1562 100.7210 312.0148 0.0000 0.0000 0.0000 0 0 0
-13.7169 99.4692 312.4330 0.1099 0.6772 -0.7276 0 0 0
-35.6039 93.8160 294.2433 0.0000 0.0000 0.0000 0 0 0
220.3207 114.7444 356.0179 -0.3842 0.2754 -0.8812 0 0 0
210.9216 118.0356 366.1671 -0.8729 0.0531 -0.4850 0 0 0
203.6297 122.9601 383.4463 -0.8349 0.1581 -0.5271 0 0 0
197.6447 128.1756 397.0674 -0.8355 0.2263 -0.5007 0 0 0
190.5764 134.7787 416.6381 -0.6248 0.3379 -0.7039 0 0 0
-3.7167 104.2566 319.4390 -0.1929 0.5555 -0.8089 0 0 0
-7.4887 102.1052 317.7341 0.0536 0.7132 -0.6989 0 0 0
-10.3180 101.0314 314.1985 0.0145 0.7716 -0.6359 0 0 0
-24.7463 102.5566 314.4646 -0.3505 0.6579 -0.6666 0 0 0
-35.2899 93.1931 291.4692 0.6021 0.7711 -0.2073 0 0 0
224.9893 115.7562 355.7283 -0.4137 0.2693 -0.8697 0 0 0
206.3921 123.1541 379.8523 -0.8954 0.0119 -0.4451 0 0 0
191.2443 133.7009 412.0932 -0.8910 0.2311 -0.3908 0 0 0
212.4455 117.8390 362.7659 -0.7148 0.2245 -0.6623 0 0 0
207.1100 122.5684 374.9204 -0.9220 -0.0397 -0.3852 0 0 0
199.4881 127.6868 392.5143 -0.8121 0.2478 -0.5283 0 0 0
-35.4619 103.0261 312.5434 -0.4978 0.6965 -0.5167 0 0 0
226.3432 115.5795 353.1620 -0.4892 0.2691 -0.8296 0 0 0
216.1191 118.5411 361.0731 -0.5983 0.2859 -0.7486 0 0 0
201.7611 127.8125 389.1326 -0.8242 0.2436 -0.5112 0 0 0
193.8161 133.6407 407.3438 -0.8897 0.2079 -0.4065 0 0 0
6.9524 107.4307 326.8075 0.5528 0.6267 -0.5492 0 0 0
2.7502 105.1547 317.4348 0.1075 0.4153 -0.9033 0 0 0
-0.4708 102.2196 315.3066 -0.1024 0.5322 -0.8404 0 0 0
-20.5744 99.2698 306.9189 0.4243 0.3282 -0.8440 0 0 0
-26.0074 94.8867 290.3494 0.2661 0.7670 -0.5838 0 0 0
-28.6699 92.3650 283.2063 -0.3747 0.7444 -0.5526 0 0 0
229.5696 116.2211 352.0751 -0.4517 0.2705 -0.8502 0 0 0
217.7458 118.4502 358.5942 -0.4922 0.2954 -0.8188 0 0 0
208.0450 121.9971 369.8911 -0.8612 0.0560 -0.5052 0 0 0
204.4655 127.9135 385.4338 -0.8733 0.1389 -0.4670 0 0 0
195.0117 132.8655 402.5243 -0.8480 0.1888 -0.4952 0 0 0
-8.1064 107.8615 321.1496 -0.0178 0.5194 -0.8544 0 0 0
-26.1251 107.7677 327.5029 0.0000 0.0000 0.0000 0 0 0
220.5493 118.8998 357.4895 -0.3852 0.2943 -0.8746 0 0 0
210.7659 122.2824 367.8520 -0.7867 0.1743 -0.5922 0 0 0
196.9168 132.4696 397.7914 0.0000 0.0000 0.0000 0 0 0
189.2168 138.9175 418.4301 -0.0098 -0.1132 -0.9935 0 0 0
225.0070 119.9041 356.5055 -0.4066 0.2816 -0.8691 0 0 0
205.7072 127.2569 380.6695 -0.9314 0.0572 -0.3596 0 0 0
197.2474 132.5700 397.6841 -0.8401 0.1905 -0.5079 0 0 0
191.9486 138.9959 413.8135 -0.8995 0.0510 -0.4340 0 0 0
-30.7818 99.8599 300.8915 0.0165 -0.4926 -0.8701 0 0 0
211.7030 121.7635 363.6100 -0.6737 0.2855 -0.6816 0 0 0
207.2072 126.9683 375.6339 -0.9252 0.0559 -0.3753 0 0 0
200.2616 132.8136 394.5760 -0.8261 0.1858 -0.5320 0 0 0
-1.1706 107.6692 315.7817 -0.0397 0.3130 -0.9489 0 0 0
-19.1702 107.7851 321.6282 0.7845 0.5075 -0.3564 0 0 0
-22.0717 105.0074 311.9522 0.1110 0.4938 -0.8624 0 0 0
226.5599 119.7659 354.9027 -0.4982 0.2548 -0.8288 0 0 0
215.9564 122.7160 362.5500 0.0000 0.0000 0.0000 0 0 0
216.1430 122.8419 362.2374 -0.6080 0.3191 -0.7270 0 0 0
202.3436 132.6392 391.0457 -0.8534 0.1306 -0.5047 0 0 0
192.6651 137.8212 407.9129 -0.8921 0.0841 -0.4440 0 0 0
2.5248 108.7355 315.9672 0.0852 0.2889 -0.9536 0 0 0
-24.0871 100.2986 298.1267 0.1242 0.2745 -0.9535 0 0 0
-36.0019 104.8731 316.0576 -0.8117 0.4564 -0.3646 0 0 0
229.4997 120.3023 353.3606 -0.4761 0.2793 -0.8339 0 0 0
217.2569 122.3827 359.9836 -0.5346 0.2936 -0.7925 0 0 0
208.1788 126.3824 371.2090 -0.8073 0.1675 -0.5658 0 0 0
205.3100 132.8594 387.2523 -0.9147 0.0696 -0.3980 0 0 0
195.3360 137.8417 404.5842 -0.8638 0.0863 -0.4964 0 0 0
232.3268 120.7527 352.2631 0.0000 0.0000 0.0000 0 0 0
220.9606 123.2871 358.6812 -0.4508 0.2682 -0.8514 0 0 0
211.3500 126.8148 369.7339 -0.7196 0.2781 -0.6363 0 0 0
197.6478 137.7077 400.0382 -0.8671 0.0807 -0.4915 0 0 0
-4.6444 100.8434 300.5623 0.0000 0.0000 0.0000 0 0 0
-31.2246 103.6021 303.0774 0.0000 0.0000 0.0000 0 0 0
224.2441 123.7283 357.8261 0.0000 0.0000 0.0000 0 0 0
213.2578 126.7115 366.4422 -0.6760 0.3053 -0.6707 0 0 0
205.2767 131.6555 381.6193 -0.9507 0.0001 -0.3102 0 0 0
191.8363 143.7639 413.4758 -0.8190 0.1795 -0.5450 0 0 0
5.4161 105.5932 307.2317 -0.8650 0.4172 -0.2789 0 0 0
-16.8621 116.0936 335.3799 0.8756 -0.4498 0.1762 0 0 0
-31.1589 103.2499 302.9281 -0.3374 0.2259 -0.9139 0 0 0
223.8983 123.5791 357.5474 -0.4143 0.2527 -0.8744 0 0 0
206.3306 131.0672 376.9823 -0.9073 0.0737 -0.4141 0 0 0
199.7008 137.3009 396.1362 -0.8477 0.0746 -0.5252 0 0 0
-22.9108 108.5933 315.1088 0.8461 0.3910 -0.3622 0 0 0
-28.2482 103.9773 301.4814 -0.1725 0.4805 -0.8599 0 0 0
226.9885 124.0720 355.9261 -0.4696 0.2304 -0.8523 0 0 0
216.2902 127.1024 364.2703 -0.6382 0.3350 -0.6932 0 0 0
201.8111 137.0510 391.8519 -0.8890 -0.0157 -0.4575 0 0 0
192.3508 142.6691 408.6040 -0.8653 0.1520 -0.4776 0 0 0
-25.1491 104.7525 301.0287 0.0630 0.5925 -0.8031 0 0 0
229.4104 124.3245 354.5457 -0.4551 0.2461 -0.8558 0 0 0
218.7202 127.2748 361.8484 -0.5729 0.2900 -0.7666 0 0 0
208.7492 131.0485 372.9494 -0.7666 0.1816 -0.6159 0 0 0
194.7518 142.3570 405.3788 -0.8501 0.1594 -0.5020 0 0 0
232.2687 124.8309 353.3763 0.0000 0.0000 0.0000 0 0 0
221.3145 127.5175 360.3002 -0.5088 0.2601 -0.8207 0 0 0
210.9089 131.0002 370.6595 -0.6886 0.2519 -0.6799 0 0 0
203.3616 136.4969 387.2822 -0.9335 -0.0192 -0.3580 0 0 0
