# .PCD v0.7 - Point Cloud Data file format
VERSION 0.7
FIELDS x y z
SIZE 4 4 4
TYPE F F F
COUNT 1 1 1
WIDTH 1552
HEIGHT 1
VIEWPOINT 0 0 0 1 0 0 0
POINTS 1552
DATA ascii
211.84857 -123.30549 402.61801
228.46536 -113.24991 371.18961
228.47267 -113.2313 371.18961
228.45122 -113.24435 371.20261
228.45853 -113.22574 371.20261
219.26118 -117.25359 384.5683
219.27837 -117.26382 384.5683
219.26143 -117.25318 384.58832
219.27861 -117.26341 384.58832
230.79697 -111.35251 368.46661
230.79199 -111.33314 368.46661
230.77921 -111.35706 368.47461
230.77423 -111.33769 368.47461
221.69481 -115.32929 380.81699
221.71159 -115.34018 380.81699
221.69499 -115.32903 380.83701
221.71178 -115.33991 380.83701
233.91232 -110.28526 367.55402
233.9066 -110.26609 367.55402
233.89339 -110.29092 367.55701
233.88766 -110.27175 367.55701
223.15446 -112.89368 376.6384
223.17101 -112.90491 376.6384
223.15459 -112.89349 376.65842
223.17113 -112.90472 376.65842
237.1322 -108.96386 364.80576
237.13675 -108.94438 364.80576
237.11746 -108.96042 364.81882
237.12201 -108.94094 364.81882
225.0437 -110.67789 373.48923
225.04218 -110.65794 373.48923
225.02719 -110.67916 373.50043
225.02565 -110.65922 373.50043
238.52097 -106.70228 364.07492
238.50508 -106.71444 364.07492
238.53053 -106.71476 364.08725
238.51465 -106.72692 364.08725
228.38466 -109.79493 371.995
228.38803 -109.77522 371.995
228.36784 -109.79205 372.0054
228.3712 -109.77234 372.0054
218.41846 -113.15741 384.51019
218.43536 -113.16808 384.51019
218.41864 -113.15711 384.53021
218.43555 -113.16779 384.53021
231.32164 -108.39415 369.71558
231.33803 -108.40563 369.71558
231.32176 -108.39397 369.7356
231.33815 -108.40546 369.7356
220.7209 -111.21732 380.90829
220.7375 -111.22848 380.90829
220.7209 -111.21732 380.92831
220.7375 -111.22848 380.92831
232.5052 -105.87728 366.35449
232.49525 -105.85993 366.35449
232.48955 -105.88627 366.3631
232.4796 -105.86892 366.3631
222.41125 -108.95887 377.77258
222.42191 -108.94194 377.77258
222.40588 -108.95549 377.79153
222.41653 -108.93856 377.79153
234.22968 -103.7511 365.9231
234.21005 -103.75497 365.9231
234.23343 -103.77016 365.92789
234.21381 -103.77402 365.92789
224.59018 -107.10491 373.84174
224.59317 -107.08514 373.84174
224.57404 -107.10247 373.85327
224.57703 -107.0827 373.85327
237.33476 -102.76248 362.99561
237.34676 -102.74647 362.99561
237.33723 -102.76434 363.01538
237.34923 -102.74832 363.01538
227.38965 -105.57851 372.30331
227.39194 -105.55864 372.30331
227.37125 -105.57639 372.31085
227.37354 -105.55652 372.31085
218.20544 -109.46599 384.85071
218.2224 -109.47658 384.85071
218.2058 -109.46542 384.87067
218.22275 -109.47601 384.87067
228.60983 -103.02277 367.62582
228.60944 -103.00278 367.62582
228.60133 -103.02294 367.64395
228.60094 -103.00294 367.64395
220.22978 -107.39021 381.35318
220.2464 -107.40134 381.35318
220.23001 -107.38985 381.3732
220.24663 -107.40099 381.3732
222.98628 -105.81674 379.13373
223.00291 -105.82785 379.13373
222.98668 -105.81615 379.15369
223.00331 -105.82726 379.15369
225.80762 -104.27931 375.94531
225.8244 -104.29018 375.94531
225.8082 -104.27843 375.96527
225.82498 -104.28929 375.96527
238.76363 -100.1609 364.41931
238.77025 -100.14203 364.41931
238.76047 -100.15979 364.43903
238.76709 -100.14092 364.43903
216.0742 -104.60982 383.0047
216.09097 -104.62071 383.0047
216.07443 -104.60948 383.02472
216.0912 -104.62038 383.02472
228.31052 -99.692177 368.25961
228.33026 -99.689011 368.25961
228.30875 -99.681183 368.27621
228.32849 -99.678017 368.27621
219.03587 -103.18149 380.95789
219.04199 -103.16245 380.95789
219.0174 -103.17555 380.96271
219.02351 -103.15651 380.96271
202.64996 -109.88148 406.61441
202.661 -109.8648 406.61441
202.6356 -109.872 406.6246
202.64664 -109.85532 406.6246
231.87256 -98.773705 365.62494
231.85338 -98.768066 365.62494
231.86803 -98.789139 365.63684
231.84885 -98.783501 365.63684
213.88528 -103.03502 387.83463
213.90215 -103.04577 387.83463
213.88567 -103.03443 387.85458
213.90253 -103.04518 387.85458
232.94933 -96.285004 363.47943
232.95271 -96.265289 363.47943
232.93144 -96.281921 363.48782
232.93484 -96.262215 363.48782
223.30225 -99.405884 374.20602
223.31863 -99.417351 374.20602
223.30298 -99.404854 374.22598
223.31937 -99.416321 374.22598
235.71077 -95.140427 360.84174
235.69812 -95.124924 360.84174
235.70947 -95.141479 360.86169
235.69682 -95.125977 360.86169
224.64188 -97.145714 370.52039
224.63193 -97.128365 370.52039
224.62527 -97.155235 370.52618
224.61533 -97.137886 370.52618
209.86375 -103.80674 396.07291
209.8811 -103.81668 396.07291
209.86411 -103.80612 396.09286
209.88145 -103.81606 396.09286
226.81924 -95.416924 367.86392
226.83572 -95.428268 367.86392
226.82007 -95.415726 367.88388
226.83655 -95.427071 367.88388
205.14078 -104.27093 404.54053
205.1573 -104.2822 404.54053
205.14072 -104.27101 404.56052
205.15724 -104.28229 404.56052
205.74869 -104.69175 406.3385
205.76523 -104.703 406.3385
205.74878 -104.69161 406.35852
205.76532 -104.70286 406.35852
228.20731 -93.043449 364.47888
228.19945 -93.025055 364.47888
228.19217 -93.049911 364.49026
228.18433 -93.031517 364.49026
220.58189 -94.317223 371.86612
220.58698 -94.297882 371.86612
220.56473 -94.312714 371.87534
220.56981 -94.293365 371.87534
224.31288 -93.454903 370.60733
224.32042 -93.436378 370.60733
224.29535 -93.447769 370.6138
224.30289 -93.429245 370.6138
208.76862 -99.449677 395.37933
208.78621 -99.459183 395.37933
208.76918 -99.448624 395.39929
208.78677 -99.45813 395.39929
227.12102 -92.107056 368.89325
227.12308 -92.087158 368.89325
227.10733 -92.105637 368.90778
227.10939 -92.085739 368.90778
217.87137 -95.385201 380.50293
217.88831 -95.395836 380.50293
217.87189 -95.384361 380.52289
217.88882 -95.394997 380.52289
201.80208 -102.06847 408.46088
201.81898 -102.07914 408.46088
201.8022 -102.06826 408.4809
201.81911 -102.07893 408.4809
228.59781 -90.018578 365.13971
228.61139 -90.003891 365.13971
228.59164 -90.012878 365.15787
228.60522 -89.998192 365.15787
212.51849 -95.102226 387.60925
212.53543 -95.112869 387.60925
212.51956 -95.100525 387.62915
212.5365 -95.111168 387.62915
203.00652 -99.14827 402.65619
203.02275 -99.159943 402.65619
203.00624 -99.148651 402.67621
203.02248 -99.160324 402.67621
231.26897 -88.42662 362.40292
231.28642 -88.416855 362.40292
231.26688 -88.42289 362.42249
231.28433 -88.413124 362.42249
220.58929 -90.780106 372.23798
220.59091 -90.76017 372.23798
220.57349 -90.778824 372.25015
220.5751 -90.758888 372.25015
216.02142 -93.919235 384.20633
216.03944 -93.927879 384.20633
216.02196 -93.918114 384.22629
216.03998 -93.926758 384.22629
233.7682 -87.199181 361.50677
233.75438 -87.184731 361.50677
233.75432 -87.212463 361.51233
233.74049 -87.198006 361.51233
223.95001 -89.819435 371.19608
223.95972 -89.801956 371.19608
223.93347 -89.810242 371.20255
223.94318 -89.792763 371.20255
214.7206 -93.191734 385.65329
214.73663 -93.20369 385.65329
214.71896 -93.193909 385.67313
214.735 -93.205864 385.67313
207.864 -95.28894 394.98102
207.88109 -95.299316 394.98102
207.86452 -95.288086 395.00098
207.88161 -95.298462 395.00098
226.54047 -88.309845 369.32874
226.55731 -88.320633 369.32874
226.54129 -88.308563 369.34869
226.55814 -88.319351 369.34869
216.31882 -90.974205 379.7561
216.31143 -90.95562 379.7561
216.30078 -90.981377 379.76093
216.2934 -90.962791 379.76093
209.11201 -92.716682 389.67471
209.13164 -92.720505 389.67471
209.11415 -92.705688 389.69131
209.13377 -92.709511 389.69131
201.56564 -94.707413 401.80261
201.58302 -94.717316 401.80261
201.56618 -94.706482 401.82257
201.58356 -94.716385 401.82257
229.54993 -84.392166 362.37039
229.56752 -84.40168 362.37039
229.55287 -84.386726 362.38943
229.57047 -84.39624 362.38943
222.99498 -85.754112 371.30521
223.00163 -85.73526 371.30521
222.97809 -85.748146 371.31412
222.98476 -85.729294 371.31412
211.52742 -87.600365 380.41544
211.52538 -87.580475 380.41544
211.51123 -87.602028 380.42706
211.50919 -87.58213 380.42706
225.9785 -84.614983 369.40927
225.98102 -84.595146 369.40927
225.9646 -84.613228 369.42355
225.96712 -84.593384 369.42355
215.11902 -86.771164 378.89273
215.11168 -86.752556 378.89273
215.10115 -86.778214 378.89825
215.09381 -86.759613 378.89825
199.19649 -93.001335 406.37109
199.21294 -93.012718 406.37109
199.19667 -93.001076 406.39111
199.21312 -93.012459 406.39111
217.47098 -85.072838 376.56985
217.49013 -85.078636 376.56985
217.47289 -85.066566 376.58878
217.49203 -85.072365 376.58878
226.36522 -82.045296 364.49634
226.38237 -82.055595 364.49634
226.36623 -82.043602 364.51624
226.38338 -82.053902 364.51624
200.45323 -90.232224 400.92548
200.46983 -90.243362 400.92548
200.45335 -90.23204 400.9455
200.46996 -90.243179 400.9455
228.17183 -80.268524 361.409
228.18889 -80.278954 361.409
228.17311 -80.266441 361.42883
228.19017 -80.276871 361.42883
220.22125 -83.647804 373.92627
220.23856 -83.657845 373.92627
220.22244 -83.64576 373.94611
220.23975 -83.6558 373.94611
208.02223 -85.410095 383.63925
208.03966 -85.419907 383.63925
208.02315 -85.408493 383.65915
208.04057 -85.418304 383.65915
222.67087 -82.080322 371.41541
222.66365 -82.061668 371.41541
222.65376 -82.086937 371.4234
222.64655 -82.068283 371.4234
211.52069 -84.288155 380.76111
211.53743 -84.299095 380.76111
211.52138 -84.287102 380.78107
211.53812 -84.298042 380.78107
228.43199 -77.861534 357.16751
228.44025 -77.843315 357.16751
228.43054 -77.860878 357.18747
228.4388 -77.842659 357.18747
224.53911 -80.303215 367.6955
224.55719 -80.311737 367.6955
224.54181 -80.29747 367.71448
224.55989 -80.305992 367.71448
214.31886 -82.85199 378.83823
214.31619 -82.832169 378.83823
214.29988 -82.854553 378.84396
214.29721 -82.83474 378.84396
203.24538 -85.340889 391.40717
203.26221 -85.351685 391.40717
203.24629 -85.339462 391.42709
203.26312 -85.350258 391.42709
217.07498 -81.322289 376.72708
217.09288 -81.331215 376.72708
217.07713 -81.317986 376.74649
217.09503 -81.326912 376.74649
226.23433 -78.512573 364.7814
226.25125 -78.523232 364.7814
226.23596 -78.509972 364.80118
226.25288 -78.52063 364.80118
198.96048 -85.716568 399.70071
198.97757 -85.726944 399.70071
198.96103 -85.715652 399.72067
198.97812 -85.726028 399.72067
227.91159 -76.683769 361.56903
227.9295 -76.69265 361.56903
227.91348 -76.679955 361.58856
227.9314 -76.688835 361.58856
218.06458 -79.059731 372.48853
218.08211 -79.069351 372.48853
218.0677 -79.054047 372.50745
218.08524 -79.063667 372.50745
207.61763 -81.544991 383.43594
207.6346 -81.555565 383.43594
207.61861 -81.543434 383.45584
207.63557 -81.554008 383.45584
220.07831 -77.34301 369.34293
220.09529 -77.353561 369.34293
220.07991 -77.340439 369.3627
220.09689 -77.35099 369.3627
209.69725 -79.700531 379.91904
209.71405 -79.711395 379.91904
209.69836 -79.698807 379.93893
209.71516 -79.709671 379.93893
213.34229 -78.750275 378.49124
213.33183 -78.733223 378.49124
213.32626 -78.760109 378.49805
213.3158 -78.743057 378.49805
202.71309 -81.405701 391.29498
202.73074 -81.415108 391.29498
202.71426 -81.403496 391.31482
202.73192 -81.412903 391.31482
192.77266 -88.293968 424.4227
192.75981 -88.278641 424.4227
192.76958 -88.296555 424.44229
192.75673 -88.281227 424.44229
222.04071 -75.574722 365.26022
222.02159 -75.568878 365.26022
222.0352 -75.592728 365.267
222.01608 -75.586884 365.267
225.05452 -74.437271 364.25299
225.07121 -74.448273 364.25299
225.0558 -74.435333 364.27283
225.07249 -74.446335 364.27283
198.01587 -81.383881 399.48041
198.03276 -81.3946 399.48041
198.01643 -81.383003 399.50037
198.03333 -81.393723 399.50037
226.62292 -72.658165 361.54706
226.64189 -72.66452 361.54706
226.6255 -72.650482 361.56537
226.64447 -72.656837 361.56537
217.84393 -75.380684 372.08929
217.86102 -75.391075 372.08929
217.84598 -75.377327 372.10889
217.86307 -75.387718 372.10889
208.65878 -75.61319 379.23047
208.67566 -75.623917 379.23047
208.66013 -75.611084 379.25031
208.677 -75.621811 379.25031
225.82303 -69.785011 354.81296
225.83601 -69.769814 354.81296
225.81038 -69.774193 354.82407
225.82336 -69.758995 354.82407
217.3495 -72.544312 367.14447
217.36737 -72.553307 367.14447
217.35123 -72.540886 367.16412
217.36909 -72.549881 367.16412
201.01047 -76.877495 389.93198
201.02835 -76.886467 389.93198
201.01166 -76.87513 389.95181
201.02954 -76.884102 389.95181
230.00299 -69.259422 354.78076
229.98447 -69.251884 354.78076
229.99573 -69.27726 354.78616
229.9772 -69.269722 354.78616
220.06264 -71.240929 364.26596
220.06331 -71.22094 364.26596
220.04848 -71.240456 364.28006
220.04915 -71.220467 364.28006
232.39886 -68.047821 354.12988
232.3891 -68.030373 354.12988
232.38171 -68.057426 354.13354
232.37195 -68.039978 354.13354
216.01407 -70.963341 370.96442
216.03055 -70.974678 370.96442
216.01465 -70.962517 370.98438
216.03113 -70.973854 370.98438
205.18376 -73.134033 381.62994
205.20139 -73.143486 381.62994
205.18542 -73.130913 381.64966
205.20305 -73.140366 381.64966
224.33937 -68.168968 357.92017
224.35828 -68.175507 357.92017
224.34113 -68.163895 357.93945
224.36003 -68.170433 357.93945
217.37265 -69.053925 367.26007
217.38588 -69.03894 367.26007
217.36171 -69.044266 367.27374
217.37494 -69.029282 367.27374
206.50598 -70.95845 377.2854
206.52342 -70.968224 377.2854
206.50838 -70.95417 377.30481
206.52582 -70.963943 377.30481
225.90175 -66.41111 355.17188
225.89894 -66.391312 355.17188
225.88382 -66.413651 355.18036
225.88101 -66.393852 355.18036
200.00067 -72.664589 389.1153
200.0181 -72.674385 389.1153
200.00189 -72.662422 389.13513
200.01932 -72.672218 389.13513
229.31671 -65.703796 353.98059
229.29688 -65.701248 353.98059
229.31427 -65.722755 353.98648
229.29443 -65.720207 353.98648
219.86911 -67.776268 364.17505
219.86717 -67.756363 364.17505
219.85553 -67.777596 364.18967
219.85358 -67.75769 364.18967
202.38243 -70.994438 384.83572
202.39909 -71.005493 384.83572
202.38292 -70.993713 384.85568
202.39958 -71.004768 384.85568
221.14259 -65.807091 361.14935
221.14417 -65.787155 361.14935
221.12523 -65.805725 361.15918
221.1268 -65.785789 361.15918
211.09666 -67.777641 371.11523
211.08197 -67.764069 371.11523
211.08383 -67.791534 371.12177
211.06914 -67.777962 371.12177
195.5701 -72.702499 397.36432
195.58809 -72.711243 397.36432
195.57191 -72.698761 397.38391
195.5899 -72.707504 397.38391
214.54175 -66.748795 369.48355
214.55869 -66.75943 369.48355
214.54315 -66.746567 369.50339
214.56009 -66.757202 369.50339
224.16235 -64.654465 358.28052
224.18117 -64.661232 358.28052
224.16405 -64.649773 358.29987
224.18286 -64.65654 358.29987
205.47719 -66.93824 375.91501
205.49377 -66.949409 375.91501
205.47763 -66.937584 375.93497
205.49422 -66.948753 375.93497
224.13077 -62.345135 354.43048
224.14774 -62.355701 354.43048
224.13266 -62.342098 354.45013
224.14963 -62.352665 354.45013
215.88329 -64.865715 365.68723
215.89998 -64.876732 365.68723
215.88161 -64.868263 365.707
215.8983 -64.87928 365.707
199.05559 -68.54483 388.69565
199.07515 -68.549026 388.69565
199.05684 -68.538971 388.71475
199.0764 -68.543167 388.71475
227.14764 -61.304039 352.82208
227.1496 -61.284134 352.82208
227.13078 -61.302383 352.8327
227.13275 -61.282478 352.8327
218.08301 -63.380283 362.90652
218.10132 -63.388294 362.90652
218.08667 -63.371906 362.92429
218.10498 -63.379917 362.92429
207.30533 -65.110741 371.94736
207.32088 -65.123306 371.94736
207.30391 -65.112488 371.96725
207.31946 -65.125053 371.96725
230.55363 -60.463268 352.04208
230.53827 -60.45047 352.04208
230.54193 -60.477333 352.05014
230.52657 -60.464535 352.05014
220.59673 -62.053677 360.69781
220.58351 -62.038662 360.69781
220.58348 -62.065334 360.70721
220.57027 -62.05032 360.70721
209.44067 -63.537495 369.31927
209.43033 -63.520382 369.31927
209.42526 -63.546818 369.32794
209.41492 -63.529705 369.32794
212.13474 -62.203068 366.96396
212.12334 -62.186634 366.96396
212.12767 -62.207966 366.98203
212.11627 -62.191532 366.98203
202.41222 -64.566925 379.09464
202.43031 -64.575424 379.09464
202.41408 -64.562973 379.11417
202.43217 -64.571472 379.11417
222.77306 -60.633369 357.47787
222.79193 -60.640003 357.47787
222.77628 -60.624195 357.49533
222.79515 -60.630829 357.49533
204.64659 -62.940357 375.94916
204.66644 -62.937859 375.94916
204.64575 -62.933739 375.96802
204.6656 -62.93124 375.96802
6.0240531 -55.831661 333.2359
6.0281792 -55.851231 333.2359
6.0406208 -55.828167 333.24652
6.0447469 -55.847736 333.24652
214.37064 -60.74482 364.37534
214.38667 -60.756763 364.37534
214.36974 -60.746037 364.39529
214.38577 -60.75798 364.39529
197.60548 -64.138908 386.78949
197.62054 -64.152069 386.78949
197.60284 -64.141937 386.80908
197.6179 -64.155098 386.80908
226.72511 -57.6465 352.60547
226.71696 -57.628239 352.60547
226.70963 -57.653416 352.61606
226.70148 -57.635155 352.61606
216.3172 -59.174385 361.45755
216.3335 -59.185966 361.45755
216.3183 -59.172836 361.47745
216.33459 -59.184418 361.47745
199.82053 -62.447254 382.36096
199.83817 -62.456684 382.36096
199.82263 -62.443317 382.38043
199.84027 -62.452747 382.38043
218.83414 -57.816883 359.09943
218.82367 -57.799843 359.09943
218.81963 -57.825806 359.10989
218.80914 -57.808765 359.10989
208.36108 -59.365143 368.80087
208.35138 -59.347656 368.80087
208.34642 -59.373287 368.81174
208.33672 -59.355801 368.81174
191.68837 -63.23748 392.95047
191.70636 -63.246201 392.95047
191.69064 -63.232796 392.96976
191.70863 -63.241516 392.96976
187.33769 -66.244072 412.89264
187.35719 -66.248497 412.89264
187.339 -66.238304 412.91174
187.35851 -66.242729 412.91174
-2.1589751 -53.212776 329.32462
-2.1393585 -53.208878 329.32462
-2.1628413 -53.193321 329.32718
-2.1432247 -53.189423 329.32718
228.82721 -56.339699 350.35226
228.84216 -56.352997 350.35226
228.82605 -56.341003 350.37216
228.841 -56.354301 350.37216
64.976318 -61.813847 386.05322
64.99482 -61.806248 386.05322
64.969383 -61.796955 386.0614
64.987885 -61.789356 386.0614
221.16805 -56.535728 356.64258
221.15717 -56.51894 356.64258
221.16043 -56.540661 356.6604
221.14955 -56.523872 356.6604
182.75812 -66.206856 422.47827
182.77472 -66.217995 422.47827
182.75949 -66.204811 422.49811
182.77609 -66.21595 422.49811
4.9958749 -52.87994 333.66455
5.0106015 -52.893475 333.66455
5.0081873 -52.866543 333.67285
5.0229135 -52.880074 333.67285
223.32727 -55.123238 354.60779
223.32341 -55.103615 354.60779
223.31093 -55.126465 354.61884
223.30705 -55.106842 354.61884
195.82074 -59.626747 384.8519
195.83783 -59.637115 384.8519
195.82236 -59.624084 384.87167
195.83945 -59.634453 384.87167
8.5127163 -52.38327 333.44925
8.4933643 -52.37822 333.44925
8.5078354 -52.401978 333.45438
8.4884834 -52.396927 333.45438
-9.3223429 -50.484127 325.81436
-9.3198595 -50.503975 325.81436
-9.3071413 -50.482224 325.82724
-9.3046579 -50.502071 325.82724
-13.109014 -50.822495 323.97809
-13.089032 -50.823353 323.97809
-13.108169 -50.802845 323.98169
-13.088187 -50.803703 323.98169
226.21835 -54.102173 352.54837
226.22031 -54.082268 352.54837
226.20262 -54.100624 352.56064
226.20457 -54.080723 352.56064
215.19022 -55.268791 360.69049
215.18718 -55.249023 360.69049
215.17319 -55.271408 360.70065
215.17015 -55.251637 360.70065
-6.2828474 -50.384975 329.35117
-6.270268 -50.400524 329.35117
-6.2681317 -50.373074 329.35764
-6.2555523 -50.388622 329.35764
218.08226 -54.070923 358.72711
218.07988 -54.051064 358.72711
218.06569 -54.072906 358.73813
218.06331 -54.053051 358.73813
197.36078 -57.691978 379.91583
197.37639 -57.704479 379.91583
197.36162 -57.690922 379.93579
197.37723 -57.703423 379.93579
190.84657 -59.147629 392.23831
190.8651 -59.155197 392.23831
190.84871 -59.142403 392.25748
190.86723 -59.149971 392.25748
-2.5796344 -49.917156 329.83289
-2.5599346 -49.913704 329.83289
-2.5830388 -49.897728 329.83621
-2.5633392 -49.894276 329.83621
226.22601 -51.967556 347.21594
226.24568 -51.971169 347.21594
226.2296 -51.948063 347.2186
226.24927 -51.951672 347.2186
199.0731 -55.863823 376.04556
199.08983 -55.874802 376.04556
199.07417 -55.862198 376.06546
199.0909 -55.873177 376.06546
37.542801 -49.754494 342.41202
37.552021 -49.736744 342.41202
37.541576 -49.753857 342.43198
37.550797 -49.736107 342.43198
4.5492978 -51.002018 333.44434
4.5350118 -50.988022 333.44434
4.5359664 -51.015625 333.45044
4.5216799 -51.001629 333.45044
0.82595706 -49.405342 329.90604
0.81614268 -49.422768 329.90604
0.83925736 -49.412834 329.91898
0.82944298 -49.43026 329.91898
-17.064739 -47.779675 326.58029
-17.045052 -47.77615 326.58029
-17.06266 -47.791294 326.59644
-17.042973 -47.787773 326.59644
228.75174 -50.935635 346.16974
228.76065 -50.917732 346.16974
228.74216 -50.93087 346.18665
228.75107 -50.912968 346.18665
219.74953 -52.499142 355.72198
219.76616 -52.510235 355.72198
219.75084 -52.497166 355.74182
219.76747 -52.508259 355.74182
209.21027 -53.953148 364.42786
209.22601 -53.965488 364.42786
209.2114 -53.95171 364.44775
209.22714 -53.96405 364.44775
222.2513 -51.293457 353.87192
222.23494 -51.281956 353.87192
222.24118 -51.30785 353.88144
222.22482 -51.296345 353.88144
210.82179 -52.210697 361.25644
210.81648 -52.191418 361.25644
210.80333 -52.215786 361.26218
210.79802 -52.196507 361.26218
199.27676 -53.523365 369.93744
199.27927 -53.503521 369.93744
199.26334 -53.521679 369.95215
199.26584 -53.501835 369.95215
195.5641 -55.818336 384.64847
195.58084 -55.829281 384.64847
195.56555 -55.81612 384.6683
195.58229 -55.827065 384.6683
-13.332111 -47.300674 324.41333
-13.319855 -47.28487 324.41333
-13.347786 -47.288517 324.41586
-13.335528 -47.272713 324.41586
214.71097 -51.595192 360.26483
214.69913 -51.579071 360.26483
214.69643 -51.605865 360.27347
214.68459 -51.589745 360.27347
186.95946 -56.289505 394.78119
186.9754 -56.301575 394.78119
186.95801 -56.291428 394.80103
186.97395 -56.303497 394.80103
30.016562 -48.450623 337.10315
30.032415 -48.438431 337.10315
30.004984 -48.43557 337.10944
30.020838 -48.423378 337.10944
-10.032502 -46.091362 324.08493
-10.014366 -46.082928 324.08493
-10.040564 -46.074024 324.09079
-10.022428 -46.065594 324.09079
222.75243 -49.179703 348.07626
222.75455 -49.159813 348.07626
222.73831 -49.178192 348.09033
222.74043 -49.158306 348.09033
222.29224 -49.299419 348.83795
222.29427 -49.279522 348.83795
222.28084 -49.29826 348.85434
222.28285 -49.278362 348.85434
37.918003 -48.799992 343.96033
37.927223 -48.782242 343.96033
37.916779 -48.799355 343.98029
37.925999 -48.781605 343.98029
-3.5555949 -46.61697 329.43533
-3.5705054 -46.630299 329.43533
-3.5430443 -46.631008 329.44208
-3.5579548 -46.644337 329.44208
-21.547209 -45.825638 326.46768
-21.530439 -45.814735 326.46768
-21.557056 -45.81049 326.47626
-21.540287 -45.799591 326.47626
225.26147 -48.168667 347.5126
225.28104 -48.164497 347.5126
225.25735 -48.1493 347.51541
225.27692 -48.14513 347.51541
215.59517 -49.67556 356.07648
215.61179 -49.686707 356.07648
215.59521 -49.675491 356.0965
215.61183 -49.686638 356.0965
0.18484159 -45.543018 329.64932
0.16580053 -45.5369 329.64932
0.17888173 -45.561565 329.65387
0.15984069 -45.555447 329.65387
-18.182161 -45.482555 326.82233
-18.165102 -45.492996 326.82233
-18.173048 -45.467663 326.83209
-18.155989 -45.478104 326.83209
218.20497 -48.479618 354.3342
218.22229 -48.48962 354.3342
218.21112 -48.468983 354.35001
218.22844 -48.478985 354.35001
207.4023 -49.692135 362.70688
207.41876 -49.703487 362.70688
207.40384 -49.689915 362.72672
207.4203 -49.701267 362.72672
-14.731067 -44.944572 326.98853
-14.736869 -44.963715 326.98853
-14.712078 -44.950329 326.99103
-14.71788 -44.969471 326.99103
219.91841 -47.044281 351.23322
219.91055 -47.02589 351.23322
219.90143 -47.051544 351.24088
219.89357 -47.033154 351.24088
210.43736 -48.594078 360.76685
210.423 -48.580151 360.76685
210.42419 -48.607647 360.77338
210.40984 -48.593719 360.77338
199.57657 -49.909206 369.93561
199.57822 -49.889275 369.93561
199.56741 -49.908455 369.95337
199.56905 -49.888519 369.95337
183.13799 -53.287994 395.98959
183.13618 -53.268074 395.98959
183.12129 -53.289494 396.00052
183.11951 -53.269577 396.00052
44.516308 -45.817036 337.02032
44.520454 -45.79747 337.02032
44.503548 -45.814331 337.03546
44.507694 -45.794765 337.03546
29.562925 -45.391678 337.12585
29.54318 -45.388493 337.12585
29.559891 -45.410503 337.1319
29.540146 -45.407318 337.1319
3.303885 -43.988361 328.16534
3.2976365 -43.96936 328.16534
3.2889102 -43.993286 328.17764
3.2826617 -43.974289 328.17764
-11.380207 -43.775841 324.90366
-11.362072 -43.76741 324.90366
-11.388268 -43.758503 324.90952
-11.370133 -43.750072 324.90952
212.75853 -47.315933 358.1152
212.77809 -47.320076 358.1152
212.76091 -47.304726 358.13162
212.78047 -47.308868 358.13162
202.6908 -48.892284 368.61469
202.68352 -48.873661 368.61469
202.67329 -48.899136 368.62152
202.66602 -48.880512 368.62152
186.47168 -52.215206 395.02167
186.48846 -52.226067 395.02167
186.47314 -52.212936 395.0415
186.48993 -52.223797 395.0415
6.8289394 -43.292297 325.54465
6.8133082 -43.279819 325.54465
6.8200917 -43.303379 325.55875
6.8044605 -43.290901 325.55875
223.85098 -46.354916 349.66916
223.86511 -46.340763 349.66916
223.8497 -46.353634 349.68906
223.86383 -46.339481 349.68906
10.383818 -42.425297 323.86093
10.40267 -42.418617 323.86093
10.377331 -42.406982 323.86569
10.396183 -42.400303 323.86569
-22.305519 -43.072487 327.7789
-22.289984 -43.059891 327.7789
-22.317015 -43.058311 327.78708
-22.301479 -43.045715 327.78708
225.55444 -44.869743 348.41214
225.54041 -44.855488 348.41214
225.54024 -44.883724 348.41379
225.5262 -44.869473 348.41379
196.48491 -47.584904 373.52203
196.50151 -47.596062 373.52203
196.4857 -47.58374 373.54199
196.5023 -47.594898 373.54199
57.542786 -39.402313 314.10828
57.549446 -39.383453 314.10828
57.551956 -39.405548 314.12573
57.558617 -39.386688 314.12573
53.703518 -39.530598 314.10715
53.712852 -39.512909 314.10715
53.706345 -39.532089 314.12686
53.715679 -39.5144 314.12686
-0.59197825 -42.11961 327.76398
-0.59316498 -42.139572 327.76398
-0.574835 -42.120628 327.77423
-0.57602173 -42.140591 327.77423
216.30573 -44.337753 352.44751
216.29366 -44.321804 352.44751
216.29616 -44.344997 352.4635
216.28409 -44.329048 352.4635
207.09413 -45.70023 362.57837
207.09224 -45.680317 362.57837
207.09064 -45.700558 362.59805
207.08876 -45.680645 362.59805
2.7582641 -41.776474 327.98749
2.7511065 -41.757797 327.98749
2.7435207 -41.782124 327.99976
2.7363634 -41.763447 327.99976
-15.4643 -40.989838 324.81308
-15.479195 -40.97649 324.81308
-15.474405 -41.00111 324.82614
-15.4893 -40.987762 324.82614
-18.515982 -41.159557 326.12488
-18.501413 -41.17326 326.12488
-18.515585 -41.159138 326.1449
-18.501017 -41.17284 326.1449
-18.767862 -40.782787 325.10999
-18.785147 -40.79285 325.10999
-18.760231 -40.795898 325.12302
-18.777514 -40.805962 325.12302
208.90709 -44.514214 360.21399
208.90228 -44.494801 360.21399
208.89084 -44.518234 360.22495
208.88603 -44.498817 360.22495
198.68903 -46.127285 370.18298
198.68808 -46.107307 370.18298
198.67212 -46.12809 370.1936
198.67117 -46.108112 370.1936
64.459198 -38.350861 310.99695
64.440987 -38.359138 310.99695
64.467018 -38.368065 311.00348
64.448807 -38.376343 311.00348
-26.701017 -41.398911 334.32181
-26.714838 -41.384457 334.32181
-26.694361 -41.392544 334.33957
-26.708181 -41.37809 334.33957
217.07436 -42.625748 349.41125
217.06815 -42.606735 349.41125
217.05804 -42.631065 349.42157
217.05183 -42.612053 349.42157
201.86401 -44.975811 368.50427
201.86203 -44.95591 368.50427
201.84554 -44.977646 368.51169
201.84355 -44.957745 368.51169
189.52237 -45.989887 376.95401
189.53882 -46.001259 376.95401
189.52399 -45.987541 376.97379
189.54044 -45.998913 376.97379
67.875237 -37.81411 311.69107
67.856773 -37.821808 311.69107
67.882027 -37.830391 311.70053
67.863564 -37.838089 311.70053
6.1240954 -39.456352 323.83173
6.1042786 -39.453655 323.83173
6.1215448 -39.475075 323.83829
6.101728 -39.472374 323.83829
-11.602894 -39.204494 322.44296
-11.58817 -39.218033 322.44296
-11.59303 -39.193764 322.45663
-11.578306 -39.207302 322.45663
221.20505 -42.018867 348.50632
221.18852 -42.007599 348.50632
221.19487 -42.033798 348.51486
221.17834 -42.02253 348.51486
210.56175 -42.99514 356.70969
210.57979 -43.003784 356.70969
210.56441 -42.989616 356.72873
210.58244 -42.99826 356.72873
88.689262 -37.295425 315.7132
88.677048 -37.311264 315.7132
88.702316 -37.305489 315.72452
88.690102 -37.321327 315.72452
71.376793 -37.312771 311.4079
71.358681 -37.304276 311.4079
71.369049 -37.329285 311.41611
71.350937 -37.320793 311.41611
54.347588 -37.88892 312.71497
54.332348 -37.875973 312.71497
54.336456 -37.902023 312.72519
54.321213 -37.889072 312.72519
9.6087885 -38.960789 323.47351
9.588954 -38.958221 323.47351
9.6065168 -38.978336 323.48285
9.5866823 -38.975769 323.48285
223.0697 -40.513466 346.62329
223.063 -40.494614 346.62329
223.05614 -40.518272 346.63721
223.04945 -40.499424 346.63721
212.50504 -41.586338 353.48593
212.52208 -41.596813 353.48593
212.50673 -41.583584 353.50565
212.52377 -41.594059 353.50565
74.519081 -36.584126 310.84143
74.499176 -36.58215 310.84143
74.517258 -36.602474 310.84918
74.49736 -36.600498 310.84918
57.764984 -36.968014 313.02847
57.771645 -36.949154 313.02847
57.774155 -36.971249 313.04593
57.780815 -36.952389 313.04593
-8.084692 -37.140732 318.54138
-8.0959587 -37.124207 318.54138
-8.0973892 -37.149391 318.55417
-8.1086569 -37.132866 318.55417
225.78021 -39.695213 344.77588
225.76814 -39.67926 344.77588
225.76601 -39.705967 344.78494
225.75394 -39.690018 344.78494
215.02213 -40.480038 350.6944
215.01726 -40.460644 350.6944
215.01134 -40.482754 350.711
215.00647 -40.46336 350.711
206.5107 -42.283207 362.82944
206.52823 -42.292835 362.82944
206.51358 -42.277966 362.84854
206.53111 -42.287594 362.84854
44.294834 -36.822487 315.88184
44.312164 -36.83247 315.88184
44.294235 -36.823528 315.90179
44.311565 -36.833511 315.90179
-4.8154335 -36.975338 318.1178
-4.829422 -36.989632 318.1178
-4.8033266 -36.987186 318.12842
-4.8173146 -37.00148 318.12842
-15.937794 -37.672058 321.50458
-15.943264 -37.691296 321.50458
-15.919336 -37.677303 321.51019
-15.924807 -37.696541 321.51019
208.52754 -40.878517 359.92368
208.54564 -40.887051 359.92368
208.53017 -40.872952 359.94272
208.54826 -40.881485 359.94272
196.98753 -41.866177 369.55505
196.9796 -41.884541 369.55505
197.00441 -41.873463 369.56293
196.99648 -41.891827 369.56293
81.755661 -35.468109 312.18787
81.754234 -35.488056 312.18787
81.774216 -35.469433 312.19519
81.772797 -35.489384 312.19519
2.198293 -36.65403 321.34836
2.1845899 -36.639462 321.34836
2.20541 -36.647335 321.36581
2.1917069 -36.632767 321.36581
-15.799594 -37.187557 321.5047
-15.805064 -37.206795 321.5047
-15.781137 -37.192802 321.51031
-15.786607 -37.21204 321.51031
217.07094 -39.153698 348.83716
217.06685 -39.134121 348.83716
217.05391 -39.157253 348.84705
217.04982 -39.137672 348.84705
187.94679 -41.806431 374.84991
187.96234 -41.819016 374.84991
187.94679 -41.806427 374.8699
187.96234 -41.819012 374.8699
85.742722 -35.229027 313.47626
85.729897 -35.244377 313.47626
85.756264 -35.240337 313.48569
85.743446 -35.255688 313.48569
50.319622 -34.645065 311.38733
50.336555 -34.655704 311.38733
50.318848 -34.646297 311.40729
50.335781 -34.656937 311.40729
-12.051584 -35.865845 320.8605
-12.057028 -35.8466 320.8605
-12.067303 -35.870289 320.87204
-12.072747 -35.851044 320.87204
219.91435 -38.195736 347.96664
219.91324 -38.175766 347.96664
219.89456 -38.196831 347.96933
219.89345 -38.176861 347.96933
209.89267 -39.291599 356.18069
209.91254 -39.293903 356.18069
209.89368 -39.282894 356.1987
209.91354 -39.285198 356.1987
89.479927 -34.770874 315.08383
89.46772 -34.786709 315.08383
89.492981 -34.780937 315.09515
89.480766 -34.796776 315.09515
222.05119 -36.966232 345.50961
222.03815 -36.951077 345.50961
222.03911 -36.976643 345.52167
222.02606 -36.961487 345.52167
211.24918 -37.703739 353.25888
211.24573 -37.684036 353.25888
211.23578 -37.706078 353.27356
211.23235 -37.686375 353.27356
188.90938 -39.765469 370.09317
188.92064 -39.748943 370.09317
188.89565 -39.756115 370.10431
188.90692 -39.73959 370.10431
96.936119 -33.920551 317.73877
96.92263 -33.935322 317.73877
96.94677 -33.930279 317.75262
96.933281 -33.945049 317.75262
8.7794714 -34.634403 319.05634
8.7963524 -34.64513 319.05634
8.777647 -34.637272 319.07605
8.794528 -34.647999 319.07605
-8.9486284 -34.503201 318.17224
-8.9565125 -34.484821 318.17224
-8.9611292 -34.50856 318.18692
-8.9690132 -34.490181 318.18692
224.66623 -35.943233 344.33057
224.64697 -35.937843 344.33057
224.66104 -35.961754 344.33606
224.64178 -35.956364 344.33606
214.28409 -36.847702 350.71063
214.28564 -36.827763 350.71063
214.27246 -36.846798 350.7269
214.274 -36.826859 350.7269
204.96368 -38.270035 361.49045
204.95026 -38.255207 361.49045
204.95006 -38.282368 361.49835
204.93663 -38.26754 361.49835
100.34303 -33.242123 319.15598
100.35514 -33.226208 319.15598
100.34164 -33.241066 319.1759
100.35375 -33.225151 319.1759
56.050362 -32.407928 306.9158
56.067001 -32.419025 306.9158
56.050598 -32.407574 306.93582
56.067238 -32.418671 306.93582
42.90255 -32.706207 311.495
42.919403 -32.716976 311.495
42.902794 -32.705822 311.51501
42.919647 -32.716591 311.51501
-5.2025762 -33.43066 316.01736
-5.2150116 -33.414997 316.01736
-5.2178521 -33.442787 316.02179
-5.2302871 -33.427124 316.02179
-22.829649 -33.520416 315.87918
-22.848267 -33.527725 315.87918
-22.823835 -33.535229 315.8913
-22.842451 -33.542538 315.8913
207.20073 -36.907921 359.58072
207.1879 -36.892574 359.58072
207.19629 -36.911625 359.59988
207.18346 -36.896278 359.59988
195.46284 -37.660812 367.33234
195.4821 -37.666229 367.33234
195.4659 -37.649971 367.34888
195.48515 -37.655388 367.34888
216.30989 -35.451244 348.76077
216.30496 -35.431858 348.76077
216.29381 -35.455322 348.77194
216.28888 -35.435936 348.77194
218.30446 -34.166393 346.78955
218.29585 -34.148338 346.78955
218.29163 -34.172516 346.80359
218.28302 -34.154465 346.80359
209.26486 -35.566532 356.16
209.28432 -35.571163 356.16
209.26707 -35.55724 356.17758
209.28653 -35.561871 356.17758
48.819324 -30.667555 307.75397
48.835392 -30.679466 307.75397
48.82201 -30.663933 307.77344
48.838078 -30.675844 307.77344
-9.6917992 -31.775488 317.30957
-9.7064133 -31.761833 317.30957
-9.7028484 -31.787315 317.32132
-9.7174625 -31.773663 317.32132
-9.5318346 -31.622559 316.84579
-9.511838 -31.622196 316.84579
-9.5317688 -31.626219 316.86545
-9.5117722 -31.625858 316.86545
220.50461 -32.993702 344.85257
220.49585 -32.975716 344.85257
220.48837 -33.001602 344.86118
220.47961 -32.98362 344.86118
211.02924 -34.18544 353.61386
211.02446 -34.166019 353.61386
211.01248 -34.18956 353.62399
211.00771 -34.170139 353.62399
110.13155 -30.922064 318.18442
110.12455 -30.903332 318.18442
110.11462 -30.928396 318.19296
110.10762 -30.909662 318.19296
51.573906 -29.473263 305.47528
51.590641 -29.484213 305.47528
51.573956 -29.473188 305.4953
51.590691 -29.484138 305.4953
-26.703186 -30.642748 314.40701
-26.719387 -30.63102 314.40701
-26.714214 -30.657982 314.41379
-26.730415 -30.646254 314.41379
224.11139 -32.322906 343.86896
224.13094 -32.318634 343.86896
224.10718 -32.303616 343.87213
224.12671 -32.299343 343.87213
213.38809 -33.002754 351.08618
213.37523 -32.987446 351.08618
213.38618 -33.004353 351.10602
213.37332 -32.989044 351.10602
203.44926 -34.280281 360.76025
203.4333 -34.268223 360.76025
203.43808 -34.295086 360.76773
203.42212 -34.283028 360.76773
112.62796 -29.774488 317.12024
112.62141 -29.755594 317.12024
112.60994 -29.780745 317.12625
112.60338 -29.76185 317.12625
67.693802 -28.707058 301.28046
67.709961 -28.718838 301.28046
67.695038 -28.70536 301.30035
67.711197 -28.71714 301.30035
54.918987 -28.790722 304.5062
54.89991 -28.784718 304.5062
54.914093 -28.806282 304.51779
54.895016 -28.800278 304.51779
42.003532 -29.171257 308.71774
42.02063 -29.181631 308.71774
42.005768 -29.16757 308.73727
42.022865 -29.177944 308.73727
-6.0534678 -29.930859 313.85175
-6.0692234 -29.918539 313.85175
-6.0618067 -29.941525 313.86646
-6.0775628 -29.929205 313.86646
-23.419516 -29.942999 314.30737
-23.402159 -29.952938 314.30737
-23.421843 -29.947063 314.32684
-23.404486 -29.957003 314.32684
93.427437 -28.774233 311.03622
93.409843 -28.783745 311.03622
93.435555 -28.789257 311.0466
93.417961 -28.798769 311.0466
41.882633 -29.011057 309.05405
41.899731 -29.021431 309.05405
41.884869 -29.00737 309.07358
41.901966 -29.017744 309.07358
-2.5857735 -28.988075 313.64908
-2.5695665 -28.999794 313.64908
-2.5854337 -28.987606 313.6691
-2.5692267 -28.999325 313.6691
215.86856 -31.911491 348.40897
215.86208 -31.892572 348.40897
215.85591 -31.915827 348.42386
215.84943 -31.896908 348.42386
57.480434 -27.198071 301.69498
57.461376 -27.192005 301.69498
57.475712 -27.212908 301.70755
57.456654 -27.206842 301.70755
44.744373 -27.940779 306.7821
44.724895 -27.936235 306.7821
44.74054 -27.957226 306.79282
44.721062 -27.952684 306.79282
218.25787 -30.818211 346.69617
218.25458 -30.798424 346.69791
218.24422 -30.821579 346.71045
218.24089 -30.8018 346.71216
208.18578 -31.730042 355.46552
208.20459 -31.736807 355.46552
208.1904 -31.717192 355.4801
208.20921 -31.723957 355.4801
47.686409 -26.978588 305.3786
47.702995 -26.989765 305.3786
47.682602 -26.984234 305.3974
47.699188 -26.995411 305.3974
219.58646 -29.373098 344.57056
219.58585 -29.353107 344.57056
219.57051 -29.373585 344.58261
219.5699 -29.353594 344.58261
210.91385 -30.6369 353.57816
210.91095 -30.617109 353.57816
210.89886 -30.63909 353.59122
210.89597 -30.619299 353.59122
200.47099 -31.528242 361.74573
200.47224 -31.508282 361.74573
200.45634 -31.527317 361.75928
200.4576 -31.507357 361.75928
63.439594 -25.738836 299.61166
63.439903 -25.758835 299.61166
63.457298 -25.738564 299.62094
63.457607 -25.758562 299.62094
-27.330626 -26.958155 312.08188
-27.311729 -26.964705 312.08188
-27.334072 -26.968096 312.09891
-27.315176 -26.974646 312.09891
219.51443 -29.420807 344.59827
219.56325 -29.398077 344.64862
219.56299 -29.418121 344.67563
219.61108 -29.39543 344.72528
213.13708 -29.441067 350.98807
213.15636 -29.446369 350.98807
213.13985 -29.43103 351.00516
213.15912 -29.436333 351.00516
201.62172 -30.047766 359.14474
201.63901 -30.057835 359.14474
201.62579 -30.040764 359.16306
201.64308 -30.050833 359.16306
188.01279 -30.121305 364.21384
188.02888 -30.133173 364.21384
188.01361 -30.120197 364.2338
188.02971 -30.132065 364.2338
112.68721 -26.638468 315.41989
112.66721 -26.638941 315.41989
112.68758 -26.654459 315.43192
112.66759 -26.654932 315.43192
66.424126 -24.939157 298.40897
66.44252 -24.946999 298.40897
66.419678 -24.9496 298.42545
66.438072 -24.957441 298.42545
50.701611 -25.575163 302.73602
50.682499 -25.569277 302.73602
50.696758 -25.590927 302.74734
50.677643 -25.585041 302.74734
7.2329116 -25.602806 307.15051
7.2516317 -25.609846 307.15051
7.2285681 -25.614355 307.16626
7.2472882 -25.621395 307.16626
188.22392 -30.256577 364.43814
188.24001 -30.268484 364.43814
188.2247 -30.255537 364.4581
188.24077 -30.267445 364.4581
188.34297 -30.290884 365.46158
188.36037 -30.280993 365.46158
188.34471 -30.29394 365.48126
188.36211 -30.28405 365.48126
93.182648 -25.96699 310.42627
93.202644 -25.967628 310.42627
93.183197 -25.949793 310.43646
93.203186 -25.95043 310.43646
53.626667 -25.04789 301.63953
53.643673 -25.058422 301.63953
53.622524 -25.054577 301.6579
53.63953 -25.065109 301.6579
7.2495117 -25.599106 307.13864
7.2682319 -25.606146 307.13864
7.2451682 -25.610655 307.15439
7.2638884 -25.617695 307.15439
-23.850098 -25.495855 308.27826
-23.868803 -25.502934 308.27826
-23.843786 -25.512541 308.28729
-23.862492 -25.519617 308.28729
213.6693 -27.844513 347.2565
213.67343 -27.824945 347.2565
213.6552 -27.841532 347.27036
213.65933 -27.821964 347.27036
213.22321 -27.740232 347.6976
213.22734 -27.720665 347.6976
213.20911 -27.737251 347.71146
213.21324 -27.717684 347.71146
191.29213 -29.162231 361.70364
191.30876 -29.173336 361.70364
191.30104 -29.148865 361.71555
191.31767 -29.159969 361.71555
68.916275 -23.663738 296.34763
68.897003 -23.658398 296.34763
68.911858 -23.679699 296.35883
68.892578 -23.674358 296.35883
56.546337 -24.004137 299.76651
56.561974 -24.016607 299.76651
56.556023 -23.991991 299.77908
56.571659 -24.004461 299.77908
10.357923 -24.713926 304.90012
10.374158 -24.725605 304.90012
10.357442 -24.714596 304.92007
10.373677 -24.726274 304.92007
-20.579296 -25.086058 308.211
-20.598352 -25.079983 308.211
-20.584448 -25.102219 308.22162
-20.603504 -25.096144 308.22162
216.76208 -27.017862 346.41046
216.75545 -26.998999 346.41046
216.74487 -27.023926 346.41861
216.73824 -27.00506 346.41861
206.02818 -27.585279 354.00354
206.04515 -27.595863 354.00354
206.03264 -27.578136 354.02167
206.04961 -27.58872 354.02167
179.91588 -28.039415 363.88806
179.91753 -28.059347 363.88806
179.93486 -28.037851 363.89417
179.93651 -28.057783 363.89417
71.947632 -22.84762 295.50507
71.92765 -22.846691 295.50507
71.946831 -22.864855 295.5152
71.926849 -22.863926 295.5152
59.288353 -22.968063 297.97211
59.269268 -22.962076 297.97211
59.283566 -22.983318 297.98413
59.264481 -22.977329 297.98413
47.013233 -23.444956 302.67267
47.030304 -23.455378 302.67267
47.012985 -23.445366 302.69266
47.030056 -23.455788 302.69266
13.517625 -23.795448 303.54013
13.533396 -23.807749 303.54013
13.518404 -23.794451 303.56009
13.534175 -23.806751 303.56009
-16.816673 -23.95488 307.73065
-16.836119 -23.959562 307.73065
-16.81288 -23.970636 307.74237
-16.832325 -23.975319 307.74237
120.54036 -23.73909 312.67621
120.52185 -23.746664 312.67621
120.54636 -23.753736 312.68842
120.52785 -23.761311 312.68842
75.131386 -22.449835 295.99185
75.111702 -22.453348 295.99185
75.134186 -22.465517 296.00394
75.114494 -22.46903 296.00394
46.837757 -23.348232 303.04364
46.854828 -23.358654 303.04364
46.837509 -23.34864 303.06363
46.854576 -23.359064 303.06363
16.660376 -22.734011 300.98578
16.676804 -22.745419 300.98578
16.660397 -22.733982 301.0058
16.676825 -22.74539 301.0058
-0.32362506 -23.496168 303.14404
-0.30929172 -23.510117 303.14404
-0.31750828 -23.489883 303.16199
-0.30317494 -23.503832 303.16199
78.422958 -21.935667 296.15878
78.407249 -21.923292 296.15878
78.413155 -21.948107 296.17099
78.397446 -21.935732 296.17099
62.244915 -22.112938 296.88025
62.22509 -22.110317 296.88025
62.242752 -22.129301 296.89154
62.222927 -22.12668 296.89154
49.709732 -22.229307 300.99908
49.692501 -22.219154 300.99908
49.701302 -22.243616 301.01022
49.684071 -22.233463 301.01022
2.8463321 -22.278912 301.51532
2.8625951 -22.290552 301.51532
2.8458047 -22.27965 301.53528
2.8620677 -22.29129 301.53528
-27.366549 -22.474756 306.09552
-27.386005 -22.479383 306.09552
-27.362745 -22.490749 306.10693
-27.382202 -22.495377 306.10693
221.81976 -24.902996 342.93671
221.82599 -24.883991 342.93671
221.82101 -24.903408 342.95667
221.82724 -24.884403 342.95667
211.35118 -25.491491 349.96674
211.35382 -25.471666 349.96674
211.33673 -25.489565 349.98044
211.33939 -25.46974 349.98044
204.24907 -25.313997 355.40302
204.26718 -25.305534 355.40302
204.242 -25.298866 355.414
204.26012 -25.290403 355.414
186.45306 -26.031223 361.5488
186.4696 -26.042454 361.5488
186.45358 -26.030455 361.56879
186.47012 -26.041685 361.56879
186.7536 -26.250135 361.67947
186.73708 -26.238848 361.67947
186.7439 -26.264315 361.68973
186.72739 -26.253027 361.68973
81.483681 -21.22455 296.25632
81.498268 -21.210863 296.25632
81.491737 -21.233137 296.27249
81.506325 -21.21945 296.27249
65.185478 -21.432629 296.01114
65.166893 -21.425241 296.01114
65.179489 -21.447693 296.02286
65.160904 -21.440306 296.02286
52.573074 -21.364668 299.4653
52.555786 -21.354612 299.4653
52.564873 -21.378775 299.47687
52.547581 -21.368721 299.47687
19.650421 -21.620123 298.75406
19.666056 -21.632595 298.75406
19.652746 -21.617207 298.77371
19.668381 -21.629679 298.77371
-24.137844 -22.089064 306.40366
-24.157246 -22.093918 306.40366
-24.133839 -22.105072 306.41495
-24.15324 -22.109926 306.41495
222.91335 -23.569595 339.12292
222.92247 -23.551798 339.12292
222.90672 -23.566202 339.14148
222.91585 -23.548405 339.14148
213.41319 -24.183031 347.67566
213.41379 -24.16304 347.67566
213.39943 -24.182621 347.69016
213.40002 -24.16263 347.69016
188.61678 -24.739655 358.53168
188.60162 -24.726616 358.53168
188.6048 -24.753584 358.53958
188.58965 -24.740545 358.53958
85.178978 -20.839722 297.47006
85.181931 -20.819941 297.47006
85.171875 -20.838659 297.48874
85.174828 -20.818878 297.48874
68.105614 -20.45562 294.70325
68.086693 -20.449129 294.70325
68.099876 -20.472347 294.71259
68.080956 -20.465857 294.71259
55.33638 -20.536692 297.74811
55.320499 -20.524538 297.74811
55.327126 -20.548788 297.76108
55.311241 -20.536633 297.76108
22.739981 -20.492504 295.62244
22.758036 -20.501104 295.62244
22.736364 -20.500097 295.64056
22.754419 -20.508698 295.64056
9.6110229 -20.970701 301.3956
9.627429 -20.98214 301.3956
9.6107702 -20.971062 301.41562
9.6271763 -20.9825 301.41562
-20.938532 -21.265453 306.03424
-20.924004 -21.279198 306.03424
-20.932995 -21.259602 306.05255
-20.918467 -21.273346 306.05255
216.44171 -23.338612 345.63327
216.42848 -23.322927 345.62302
216.42451 -23.347469 345.63901
216.41132 -23.33177 345.62885
203.98549 -23.53545 352.83139
204.00504 -23.539673 352.83139
203.98776 -23.524929 352.84824
204.00731 -23.529152 352.84824
191.77467 -23.863478 356.84686
191.7567 -23.852644 356.83682
191.78061 -23.858263 356.89679
191.76257 -23.847486 356.8866
71.056259 -19.841957 294.07104
71.03672 -19.837688 294.07104
71.052521 -19.859074 294.08069
71.032974 -19.854805 294.08069
55.403858 -20.262383 297.54385
55.387985 -20.250214 297.54385
55.394516 -20.274572 297.55667
55.378643 -20.262403 297.55667
42.799641 -20.64806 301.93631
42.779709 -20.649727 301.93631
42.801155 -20.666172 301.94467
42.781223 -20.667839 301.94467
12.505042 -20.188292 300.45688
12.52336 -20.19632 300.45688
12.50084 -20.19788 300.47391
12.519158 -20.205908 300.47391
-4.1473455 -20.816137 302.02399
-4.1402955 -20.834854 302.02399
-4.1325049 -20.810547 302.03619
-4.1254549 -20.829264 302.03619
219.00502 -22.282459 344.95078
218.98692 -22.273949 344.95078
218.99681 -22.299942 344.95596
218.97871 -22.291431 344.95596
207.68657 -22.69455 351.15756
207.6693 -22.68446 351.15756
207.67674 -22.711344 351.16223
207.65948 -22.701256 351.16223
163.07124 -23.56072 363.35165
163.0518 -23.556025 363.35165
163.06679 -23.579176 363.35794
163.04735 -23.57448 363.35794
74.018173 -19.107647 293.54303
73.998222 -19.109081 293.54303
74.019348 -19.124012 293.55447
73.999397 -19.125446 293.55447
58.333336 -19.402039 295.99197
58.314785 -19.394566 295.99197
58.326736 -19.418415 296.00137
58.308186 -19.410942 296.00137
46.131668 -20.079823 301.29987
46.114532 -20.06951 301.29987
46.122768 -20.094614 301.30997
46.105633 -20.084301 301.30997
-0.97419959 -19.715406 300.54611
-0.95654309 -19.7248 300.54611
-0.97685695 -19.720402 300.56528
-0.95920044 -19.729795 300.56528
-17.578707 -20.000523 302.99619
-17.598486 -19.997549 302.99619
-17.581312 -20.017851 303.00583
-17.601091 -20.014877 303.00583
-30.802286 -19.670223 304.59805
-30.821274 -19.663939 304.59805
-30.808119 -19.687849 304.60547
-30.827106 -19.681564 304.60547
221.79015 -21.463989 344.54935
221.77016 -21.463682 344.54935
221.78984 -21.483717 344.55264
221.76985 -21.48341 344.55264
211.93158 -22.070063 349.84265
211.93333 -22.050138 349.84265
211.91786 -22.068861 349.85718
211.91962 -22.048937 349.85718
194.02571 -22.651958 355.59384
194.01038 -22.639116 355.59384
194.01437 -22.665495 355.60321
193.99904 -22.652653 355.60321
122.96677 -19.632521 310.80652
122.97168 -19.613132 310.80652
122.95392 -19.629269 310.82147
122.95882 -19.60988 310.82147
77.19516 -18.403625 293.33667
77.175476 -18.407141 293.33667
77.198006 -18.419558 293.34842
77.178314 -18.423073 293.34842
61.261589 -18.721062 295.117
61.243412 -18.712725 295.117
61.254204 -18.737173 295.12628
61.236023 -18.728838 295.12628
48.77454 -19.015453 299.76746
48.759888 -19.001841 299.76746
48.763138 -19.027727 299.77838
48.748486 -19.014114 299.77838
15.722721 -18.911797 297.20123
15.739307 -18.922972 297.20123
15.721893 -18.913027 297.22119
15.73848 -18.924202 297.22119
-14.356847 -19.304087 301.37955
-14.376719 -19.301823 301.37955
-14.358747 -19.320772 301.39041
