ply
format ascii 1.0
element vertex 859
property float x
property float y
property float z
property float nx
property float ny
property float nz
property uchar red
property uchar green
property uchar blue
end_header
154.0367 69.6839 651.3531 0.2297 0.4766 -0.8486 0 0 0
93.6533 62.7733 594.6782 0.1615 0.3867 -0.9079 0 0 0
34.8301 64.2010 600.9983 -0.1985 0.4486 -0.8714 0 0 0
-26.2198 65.5885 597.7491 0.0000 0.0000 0.0000 0 0 0
-31.9158 63.4584 598.5562 -0.5776 0.0631 -0.8138 0 0 0
355.0278 60.5575 558.3005 -0.3756 -0.0976 -0.9216 0 0 0
326.7715 60.5333 565.3408 -0.1791 -0.2506 -0.9514 0 0 0
307.2098 62.1239 572.2925 -0.2675 -0.0807 -0.9602 0 0 0
280.0104 62.4126 582.8774 -0.4882 -0.1964 -0.8504 0 0 0
259.3585 64.2074 594.2344 -0.2878 0.0477 -0.9565 0 0 0
208.6676 66.7296 621.7930 -0.3808 0.1356 -0.9146 0 0 0
185.9384 68.9849 642.2940 -0.3555 0.2791 -0.8920 0 0 0
160.2065 70.8320 648.7471 0.1824 0.4110 -0.8932 0 0 0
100.6963 64.1733 598.4418 0.0000 0.0000 0.0000 0 0 0
100.8744 64.3495 598.0778 0.1308 0.3585 -0.9243 0 0 0
67.4739 63.8592 594.8078 -0.0555 0.0511 -0.9971 0 0 0
41.2942 65.2456 598.8563 0.0000 0.0000 0.0000 0 0 0
41.1554 65.3979 600.6257 -0.1765 0.3684 -0.9128 0 0 0
-25.9363 65.1791 598.8027 -0.4482 0.2325 -0.8632 0 0 0
-54.9242 67.8655 621.5059 -0.2342 0.6556 -0.7179 0 0 0
355.5347 61.2954 553.9826 -0.2219 0.0271 -0.9747 0 0 0
333.5993 61.8633 564.1448 -0.1502 -0.1872 -0.9708 0 0 0
311.0718 63.1523 569.9676 -0.3197 -0.2232 -0.9208 0 0 0
284.2554 63.4705 579.6990 -0.3696 -0.2059 -0.9061 0 0 0
264.4441 65.3470 592.4902 -0.2896 0.0201 -0.9569 0 0 0
235.2120 65.6018 603.2192 -0.4935 0.0313 -0.8692 0 0 0
213.3740 67.7211 617.4921 -0.4772 0.0899 -0.8742 0 0 0
193.1984 70.5145 639.8833 -0.5498 0.1830 -0.8150 0 0 0
167.8908 72.5703 651.7997 -0.0740 0.0824 -0.9938 0 0 0
107.0417 65.5961 602.5338 0.0000 0.0000 0.0000 0 0 0
107.1139 65.5620 600.2982 0.1522 0.5016 -0.8516 0 0 0
81.2864 67.1009 597.7181 0.0000 0.0000 0.0000 0 0 0
73.8766 65.2954 595.3447 0.1264 0.1472 -0.9810 0 0 0
47.3160 66.5685 598.9313 -0.1451 0.1923 -0.9705 0 0 0
13.6592 66.1574 592.9881 0.0601 -0.2163 -0.9745 0 0 0
-19.1079 65.5108 589.9030 -0.2868 0.3702 -0.8836 0 0 0
364.6926 62.8212 554.9539 0.0473 0.1223 -0.9914 0 0 0
341.1310 63.3076 564.5531 -0.1856 -0.1366 -0.9731 0 0 0
316.5787 64.3595 567.0892 -0.2743 -0.2553 -0.9271 0 0 0
290.8643 64.8234 578.3503 -0.2928 -0.1154 -0.9492 0 0 0
270.9550 66.7041 591.7265 -0.4750 -0.0406 -0.8790 0 0 0
240.6754 66.8744 600.1939 -0.4213 0.1088 -0.9004 0 0 0
219.0886 68.9911 614.9539 -0.4797 0.0366 -0.8767 0 0 0
172.3511 73.5066 649.3426 -0.4180 -0.0614 -0.9064 0 0 0
114.5513 67.2071 603.4476 0.4264 0.6245 -0.6544 0 0 0
80.5422 66.7772 594.0496 0.0935 0.2664 -0.9593 0 0 0
54.4258 68.1510 599.4174 -0.0321 0.0580 -0.9978 0 0 0
-12.9723 66.6911 588.3016 0.0514 0.5021 -0.8633 0 0 0
-45.4835 66.6161 602.5885 -0.4923 0.0008 -0.8704 0 0 0
342.0720 64.0301 562.3931 -0.2810 -0.0834 -0.9561 0 0 0
322.8091 65.6525 566.9373 -0.1463 -0.2080 -0.9671 0 0 0
295.3833 65.8935 575.3840 -0.3133 -0.0628 -0.9476 0 0 0
246.9561 68.2181 598.4992 -0.4704 0.0789 -0.8789 0 0 0
225.1373 70.2021 613.3126 -0.4754 0.0717 -0.8769 0 0 0
192.5440 70.2088 625.5469 -0.7274 0.1803 -0.6621 0 0 0
144.4614 74.9146 645.7468 0.5236 0.4808 -0.7033 0 0 0
133.9173 72.1122 632.3305 0.5858 0.6583 -0.4727 0 0 0
86.4772 67.9058 594.4360 0.0623 0.3448 -0.9366 0 0 0
60.5866 69.2458 595.7848 0.0387 0.0352 -0.9986 0 0 0
-40.3353 69.1086 602.7322 -0.5126 0.1426 -0.8467 0 0 0
347.8649 65.2552 560.5467 -0.4057 -0.0280 -0.9136 0 0 0
299.3173 66.8959 573.3071 -0.3465 -0.0234 -0.9378 0 0 0
273.1420 67.4182 585.6084 -0.5552 -0.0763 -0.8282 0 0 0
253.3327 69.4895 596.4312 -0.4144 0.0692 -0.9075 0 0 0
230.5890 71.3521 608.6500 -0.5201 0.1467 -0.8414 0 0 0
201.1044 72.0912 624.3400 -0.4969 0.1452 -0.8556 0 0 0
179.0769 74.4983 642.6002 -0.3804 0.0695 -0.9222 0 0 0
153.1911 76.9223 654.9343 0.0053 0.4049 -0.9143 0 0 0
93.5744 69.5708 597.6589 0.1364 0.4358 -0.8896 0 0 0
34.4107 70.7510 601.2250 -0.0964 0.2867 -0.9532 0 0 0
-33.5474 70.1381 599.1636 -0.5014 0.2365 -0.8323 0 0 0
-58.1384 76.4515 652.7372 -0.9761 -0.0654 -0.2070 0 0 0
352.6719 66.3877 558.6230 -0.3934 0.0926 -0.9147 0 0 0
328.4131 66.8530 565.9031 -0.0835 -0.1506 -0.9851 0 0 0
304.5634 68.0582 571.7822 -0.3391 0.0179 -0.9406 0 0 0
278.5701 68.6100 581.1714 -0.4856 -0.0624 -0.8720 0 0 0
257.4114 70.4500 593.3098 -0.3008 0.0544 -0.9521 0 0 0
208.5639 73.6502 624.1014 -0.4401 0.1294 -0.8886 0 0 0
185.8730 76.0863 643.0491 -0.2899 -0.0457 -0.9560 0 0 0
100.6755 70.9828 600.0381 0.1683 0.4290 -0.8875 0 0 0
66.5236 70.2974 593.9420 0.0162 0.0782 -0.9968 0 0 0
40.7091 72.2363 599.6438 -0.1753 0.2866 -0.9419 0 0 0
-26.7941 70.8543 595.1794 -0.4172 0.4197 -0.8061 0 0 0
356.4508 67.3960 556.1850 -0.1562 0.1491 -0.9764 0 0 0
330.3331 67.6257 563.4974 -0.1272 -0.0885 -0.9879 0 0 0
310.5103 69.3135 570.6458 -0.4189 -0.0106 -0.9080 0 0 0
283.2860 69.6697 579.0283 -0.3680 -0.0225 -0.9295 0 0 0
263.6875 71.7560 592.2999 -0.3110 -0.0192 -0.9502 0 0 0
235.3575 72.3767 606.1469 -0.5105 0.2300 -0.8285 0 0 0
212.7654 74.4419 619.5851 0.0000 0.0000 0.0000 0 0 0
213.2199 74.5732 620.7584 -0.5575 0.0249 -0.8298 0 0 0
195.4745 78.4535 641.9056 -0.5437 0.0444 -0.8381 0 0 0
166.1023 79.3361 649.5997 0.0039 0.3267 -0.9451 0 0 0
157.0708 77.3708 645.7294 0.0723 0.3041 -0.9499 0 0 0
115.6685 74.8669 611.6443 0.5311 0.5787 -0.6189 0 0 0
106.8011 72.5026 602.0457 0.3870 0.4972 -0.7765 0 0 0
73.3766 71.9433 597.7009 0.1471 0.2394 -0.9597 0 0 0
46.6257 73.3116 597.0579 -0.1651 0.3068 -0.9374 0 0 0
13.5585 73.1710 591.4824 -0.1993 0.2278 -0.9531 0 0 0
-20.2936 72.4492 594.7617 -0.2493 0.6151 -0.7480 0 0 0
-49.2230 75.7745 630.4852 -0.7074 0.0791 -0.7024 0 0 0
336.5686 68.9430 562.9214 -0.1820 -0.0717 -0.9807 0 0 0
288.5095 70.8415 576.7465 -0.2914 0.0414 -0.9557 0 0 0
268.8809 72.8866 591.0251 -0.5086 -0.0236 -0.8607 0 0 0
241.1229 73.6004 604.2911 -0.4425 0.2461 -0.8624 0 0 0
217.9159 75.5593 615.4470 -0.4761 0.0340 -0.8787 0 0 0
195.1286 77.8897 632.6307 -0.5958 0.1623 -0.7865 0 0 0
138.5008 81.4251 664.1578 0.1048 0.6066 -0.7881 0 0 0
79.3135 73.2070 599.1922 0.0962 0.3857 -0.9176 0 0 0
-14.0806 74.0848 596.4368 -0.0672 0.7217 -0.6889 0 0 0
343.3297 70.2751 562.6520 -0.2546 -0.1110 -0.9607 0 0 0
312.0833 69.9631 564.8610 -0.3727 -0.0750 -0.9249 0 0 0
295.2077 72.1961 576.8058 -0.3421 0.0549 -0.9381 0 0 0
246.1216 74.6765 600.9382 -0.4787 0.1870 -0.8578 0 0 0
223.0621 76.5817 612.9255 -0.3777 0.0877 -0.9218 0 0 0
172.3211 80.7411 652.0605 -0.3547 0.2452 -0.9022 0 0 0
144.8674 82.4115 652.4445 -0.0776 0.4286 -0.9001 0 0 0
86.0189 74.8032 601.7111 0.1123 0.4862 -0.8666 0 0 0
52.5736 73.8432 591.3624 -0.1789 0.1491 -0.9725 0 0 0
-7.4110 75.7627 599.1787 0.0027 0.7449 -0.6671 0 0 0
-41.8312 75.8779 606.2043 -0.5002 0.4868 -0.7161 0 0 0
348.9747 71.5009 561.3714 -0.3011 -0.0644 -0.9514 0 0 0
318.0388 71.2205 563.4128 -0.1803 -0.0857 -0.9799 0 0 0
299.8844 73.2793 574.4471 -0.3713 0.0635 -0.9263 0 0 0
273.6696 73.9510 586.6907 -0.5945 0.0014 -0.8041 0 0 0
251.0565 75.7341 595.8082 -0.4469 0.1486 -0.8821 0 0 0
200.6771 78.9574 626.6702 -0.5453 0.2247 -0.8076 0 0 0
175.8345 81.0996 641.0376 -0.4159 0.1394 -0.8986 0 0 0
151.6541 83.7828 651.9755 -0.1237 0.3545 -0.9269 0 0 0
91.6452 75.6862 601.1775 0.0938 0.5469 -0.8319 0 0 0
58.8426 75.3474 594.2903 -0.1371 0.3883 -0.9113 0 0 0
32.5331 77.3375 604.7960 0.1135 0.2949 -0.9488 0 0 0
-34.9045 76.6506 603.8004 -0.3257 0.5653 -0.7579 0 0 0
351.3000 72.3078 558.5316 -0.2592 0.0047 -0.9658 0 0 0
325.1364 72.6346 564.9351 -0.0348 -0.0474 -0.9983 0 0 0
305.5292 74.4882 572.7807 -0.3304 0.0519 -0.9424 0 0 0
278.0888 74.9664 583.4207 -0.4797 0.1178 -0.8695 0 0 0
256.7056 76.9513 594.3390 -0.3667 0.1127 -0.9235 0 0 0
229.7233 77.9338 611.8521 -0.4363 0.1168 -0.8922 0 0 0
206.5178 80.1328 624.0071 -0.5261 0.1214 -0.8417 0 0 0
185.6917 83.4860 644.0076 -0.2896 0.0322 -0.9566 0 0 0
107.8769 80.0495 607.3971 0.4467 0.5675 -0.6917 0 0 0
98.9210 77.4570 601.6992 0.2270 0.5718 -0.7883 0 0 0
64.6503 76.4553 595.2147 0.0395 0.4167 -0.9082 0 0 0
38.7346 78.9473 604.2410 -0.1347 0.4671 -0.8739 0 0 0
5.0318 78.1642 600.2551 -0.4572 0.4442 -0.7705 0 0 0
-28.9433 78.7521 606.3509 -0.1883 0.6643 -0.7234 0 0 0
356.2728 73.3975 557.4149 -0.1175 -0.0571 -0.9914 0 0 0
331.1917 73.8939 564.8145 -0.1042 -0.0319 -0.9940 0 0 0
308.1442 75.2181 570.7241 0.0000 0.0000 0.0000 0 0 0
282.7853 75.9975 580.8920 -0.3934 0.1832 -0.9009 0 0 0
262.3600 78.0954 593.3334 -0.3703 0.0598 -0.9270 0 0 0
235.3852 79.1455 607.9446 -0.5080 0.1308 -0.8514 0 0 0
211.9805 81.2048 620.2032 -0.6071 -0.0544 -0.7927 0 0 0
155.5696 84.1684 651.4942 -0.0361 0.2785 -0.9598 0 0 0
72.0162 78.4885 598.2468 0.1471 0.4965 -0.8555 0 0 0
11.6377 79.2202 597.0530 -0.4124 0.5317 -0.7397 0 0 0
-21.8920 79.6675 605.9665 -0.0801 0.7319 -0.6767 0 0 0
-50.5617 82.8046 630.5963 -0.5958 -0.4528 -0.6633 0 0 0
364.2391 74.8955 558.4815 0.0701 -0.0951 -0.9930 0 0 0
335.7321 74.9823 563.2516 -0.2030 -0.0372 -0.9785 0 0 0
310.5855 75.5782 571.5208 -0.4388 0.0334 -0.8980 0 0 0
287.5793 77.0520 577.9229 -0.2994 0.1964 -0.9337 0 0 0
268.8547 79.4403 589.8452 0.0000 0.0000 0.0000 0 0 0
240.7574 80.2483 605.5390 -0.4791 0.1172 -0.8699 0 0 0
216.3664 82.0310 615.2183 -0.4433 -0.0157 -0.8963 0 0 0
184.2468 82.2721 632.7633 -0.4999 0.0303 -0.8655 0 0 0
163.4987 85.9386 652.8810 0.0161 0.5095 -0.8603 0 0 0
78.0997 79.7314 598.6360 0.1606 0.5240 -0.8364 0 0 0
52.8099 81.7260 605.2134 -0.1999 0.6507 -0.7326 0 0 0
44.9777 79.0640 599.7082 -0.1347 0.5518 -0.8230 0 0 0
-15.7921 81.2367 606.7834 -0.0081 0.7648 -0.6443 0 0 0
-44.3100 83.6807 619.3241 -0.7038 0.2696 -0.6572 0 0 0
370.1264 76.1663 559.3966 0.3898 -0.1860 -0.9019 0 0 0
340.5659 76.0679 561.8391 -0.2588 -0.0672 -0.9636 0 0 0
315.9514 76.7441 568.6467 -0.4774 -0.0272 -0.8783 0 0 0
293.5680 78.3134 577.6540 -0.3071 0.1842 -0.9337 0 0 0
266.6370 79.0265 590.0015 -0.4860 0.0513 -0.8725 0 0 0
246.0770 81.3755 602.7745 -0.5215 0.1136 -0.8457 0 0 0
223.1752 83.4417 613.7466 -0.2966 0.0575 -0.9533 0 0 0
193.7421 84.5717 635.9230 -0.5656 0.0615 -0.8224 0 0 0
85.1772 81.5126 604.6288 0.1466 0.5753 -0.8047 0 0 0
17.1936 80.0822 596.1854 0.4195 0.2866 -0.8613 0 0 0
-8.7288 82.2057 606.8376 -0.0595 0.7226 -0.6887 0 0 0
344.9131 77.0854 559.4547 -0.2224 -0.0417 -0.9741 0 0 0
318.0138 77.4073 564.0997 -0.2081 -0.0184 -0.9779 0 0 0
297.9124 79.3002 574.5987 -0.3697 0.1268 -0.9204 0 0 0
271.7114 80.1068 586.8947 -0.4889 0.0591 -0.8703 0 0 0
250.4225 82.2076 599.5617 -0.4639 0.1425 -0.8744 0 0 0
229.5399 84.7865 613.0454 -0.4054 0.0700 -0.9114 0 0 0
201.2445 86.2174 631.3731 -0.6826 0.0338 -0.7300 0 0 0
100.0748 85.3283 605.4800 0.2965 0.3714 -0.8799 0 0 0
92.5380 83.3230 606.9187 0.0084 0.5111 -0.8595 0 0 0
58.3392 82.6577 602.6138 -0.1420 0.6858 -0.7138 0 0 0
30.8258 83.6116 607.2520 0.0925 0.5400 -0.8366 0 0 0
25.3384 81.8170 607.3533 0.3528 0.5435 -0.7616 0 0 0
-2.4240 84.4578 610.9465 -0.1999 0.7003 -0.6853 0 0 0
-36.7854 84.0375 610.6627 -0.4030 0.5695 -0.7164 0 0 0
350.6301 78.3020 558.5610 -0.2252 -0.0381 -0.9736 0 0 0
323.9253 78.6443 563.7439 0.0080 0.0145 -0.9999 0 0 0
277.2795 81.2768 584.4254 -0.4591 0.1522 -0.8752 0 0 0
256.4130 83.4505 596.4029 -0.3874 0.1508 -0.9095 0 0 0
205.2344 86.8466 624.4698 -0.6789 -0.0309 -0.7336 0 0 0
64.6167 83.6924 601.7557 0.0149 0.7019 -0.7121 0 0 0
37.6055 85.1672 606.8455 -0.1123 0.5931 -0.7973 0 0 0
4.1304 85.0326 604.7460 -0.4301 0.5439 -0.7205 0 0 0
-30.4887 85.8203 613.0069 -0.0937 0.5831 -0.8070 0 0 0
357.2838 79.6376 558.5408 -0.1651 -0.0766 -0.9833 0 0 0
330.1815 79.9670 565.2253 0.0000 0.0000 0.0000 0 0 0
330.9855 80.0996 565.4817 -0.0899 -0.0440 -0.9950 0 0 0
310.8198 81.9568 572.5462 -0.4580 0.0425 -0.8879 0 0 0
302.3274 80.2806 572.3203 -0.3998 0.1021 -0.9109 0 0 0
282.9426 82.4668 583.2534 -0.4519 0.1650 -0.8767 0 0 0
263.4734 84.9472 595.9844 -0.4317 0.1228 -0.8936 0 0 0
234.3025 85.6802 608.8832 -0.5101 0.0529 -0.8585 0 0 0
210.2716 87.7328 620.9409 -0.6202 -0.0972 -0.7784 0 0 0
190.1501 91.4121 641.9215 -0.5786 0.1735 -0.7969 0 0 0
168.0549 95.3497 662.1926 0.1614 0.5687 -0.8066 0 0 0
71.4483 85.3972 604.1603 0.0953 0.7000 -0.7078 0 0 0
44.6262 87.2410 610.3704 -0.0114 0.6261 -0.7797 0 0 0
-17.1948 89.3968 615.5616 0.0241 0.6665 -0.7451 0 0 0
-23.7657 86.8328 612.5716 -0.0184 0.5862 -0.8099 0 0 0
-51.8321 89.0693 623.6353 -0.5836 -0.4163 -0.6972 0 0 0
335.0405 81.0568 563.9067 -0.2557 -0.0254 -0.9664 0 0 0
288.5103 83.6442 581.4720 -0.3218 0.1585 -0.9334 0 0 0
238.4248 86.4501 605.6474 -0.4640 0.0626 -0.8836 0 0 0
194.8732 92.3562 637.5948 -0.5619 0.1153 -0.8192 0 0 0
84.1388 88.2259 606.6218 0.0000 0.0000 0.0000 0 0 0
77.6922 86.7710 604.6261 0.1302 0.6896 -0.7124 0 0 0
50.7924 88.4147 611.7249 -0.0947 0.6610 -0.7444 0 0 0
16.2773 87.0925 605.3898 0.3328 0.6414 -0.6913 0 0 0
-11.0855 91.4826 617.1221 -0.0789 0.6223 -0.7788 0 0 0
-45.7312 90.5970 619.9500 -0.6707 -0.0057 -0.7417 0 0 0
359.4435 80.2723 556.3832 -0.0577 -0.1410 -0.9883 0 0 0
339.2538 82.0146 561.3170 -0.2894 -0.0099 -0.9572 0 0 0
312.8157 82.5400 567.8743 -0.5467 0.0247 -0.8370 0 0 0
293.2942 84.6774 579.1171 -0.2969 0.1466 -0.9436 0 0 0
265.0711 85.2465 589.9453 -0.4835 0.1299 -0.8657 0 0 0
244.5669 87.7602 603.3520 -0.5067 0.0589 -0.8601 0 0 0
213.9683 88.3126 615.6564 -0.3834 -0.0980 -0.9184 0 0 0
93.4182 91.4271 613.5430 0.1321 0.6616 -0.7381 0 0 0
85.1686 88.8852 608.2083 0.1572 0.7050 -0.6916 0 0 0
57.3745 90.1375 611.5823 -0.2069 0.6629 -0.7196 0 0 0
362.1520 81.1028 550.7568 0.1516 -0.1887 -0.9703 0 0 0
344.1217 83.1023 559.6810 -0.1876 -0.0309 -0.9818 0 0 0
316.3034 83.3454 564.0646 -0.2678 0.0908 -0.9592 0 0 0
300.1131 86.0870 578.8768 -0.3681 0.1013 -0.9243 0 0 0
272.8067 86.8682 589.0229 -0.4428 0.1239 -0.8880 0 0 0
249.8782 88.8610 600.6618 -0.4778 0.0475 -0.8772 0 0 0
222.1190 90.0974 616.0573 -0.2564 -0.0719 -0.9639 0 0 0
199.8674 92.9317 632.0193 -0.7226 -0.1132 -0.6819 0 0 0
63.8334 90.9781 609.9958 0.0094 0.7109 -0.7032 0 0 0
-3.9421 91.4685 616.2661 -0.2829 0.6260 -0.7268 0 0 0
-32.1164 93.9504 611.8445 -0.0622 0.3290 -0.9423 0 0 0
351.3027 84.5540 561.4490 -0.2359 -0.0742 -0.9689 0 0 0
322.0453 84.5688 563.5923 -0.0355 0.1296 -0.9909 0 0 0
276.9401 87.7354 586.6342 -0.4161 0.1302 -0.9000 0 0 0
255.1120 89.8223 597.3249 -0.4151 0.0237 -0.9095 0 0 0
227.7145 91.1969 614.5555 -0.3547 -0.0647 -0.9327 0 0 0
204.2812 93.6489 625.4631 -0.7426 -0.1536 -0.6519 0 0 0
181.2224 96.4744 647.6758 -0.4968 0.4417 -0.7471 0 0 0
95.2413 89.6124 594.2393 0.0378 -0.2848 -0.9578 0 0 0
71.5220 93.3098 615.4918 0.0746 0.7409 -0.6675 0 0 0
37.1137 92.3930 609.5911 0.0000 0.0000 0.0000 0 0 0
37.0541 92.7331 611.1713 0.0007 0.6552 -0.7554 0 0 0
355.0223 85.4184 558.7595 0.0000 0.0000 0.0000 0 0 0
329.7276 86.1629 564.4426 -0.1116 -0.0021 -0.9937 0 0 0
303.5751 86.8391 574.1096 -0.4465 0.0444 -0.8937 0 0 0
282.5701 88.9036 584.3766 -0.4602 0.0785 -0.8843 0 0 0
233.1868 92.2403 609.0511 -0.4053 -0.0360 -0.9135 0 0 0
186.0691 97.3049 639.5568 -0.5906 0.3466 -0.7287 0 0 0
78.2019 95.0526 616.7389 0.1228 0.7591 -0.6393 0 0 0
43.4480 94.1042 613.9807 0.0866 0.6936 -0.7151 0 0 0
9.9506 94.7790 622.6367 -0.0401 0.8800 -0.4732 0 0 0
-25.4528 94.0796 615.0168 0.1434 0.2018 -0.9689 0 0 0
352.8816 85.0787 559.2086 -0.2204 -0.0773 -0.9723 0 0 0
334.4466 87.1715 563.9485 -0.2881 -0.1985 -0.9368 0 0 0
307.6078 87.6943 572.1926 -0.4499 0.0310 -0.8925 0 0 0
285.1834 89.4414 579.8333 -0.3803 -0.0011 -0.9249 0 0 0
261.4614 91.1630 596.1812 -0.4326 0.0286 -0.9011 0 0 0
238.3196 93.2313 607.0427 -0.4276 0.0005 -0.9040 0 0 0
214.4274 95.4334 616.1333 -0.3509 -0.1539 -0.9237 0 0 0
206.5399 93.5962 619.0477 -0.6101 -0.1614 -0.7757 0 0 0
50.5021 96.3669 620.7057 -0.0310 0.7366 -0.6756 0 0 0
353.0504 85.3730 555.9551 -0.1746 -0.0719 -0.9820 0 0 0
337.6467 87.9251 562.3215 -0.1817 -0.2231 -0.9577 0 0 0
312.5899 88.7932 568.3314 -0.4886 0.0476 -0.8712 0 0 0
292.3069 90.9485 579.8874 -0.3544 -0.0672 -0.9327 0 0 0
264.8337 91.7701 592.0214 -0.4549 0.0098 -0.8905 0 0 0
244.0839 94.4311 604.7260 -0.5225 -0.0086 -0.8526 0 0 0
191.5109 98.2409 634.5986 -0.5809 0.3616 -0.7292 0 0 0
56.1372 96.1712 613.8712 -0.2434 0.6693 -0.7019 0 0 0
23.3766 96.8714 616.3673 -0.1518 0.8185 -0.5541 0 0 0
360.9008 86.9426 556.2437 0.0330 -0.0071 -0.9994 0 0 0
344.6476 89.3525 561.4229 -0.0041 -0.1924 -0.9813 0 0 0
315.7896 89.4936 565.4971 -0.2617 0.1405 -0.9549 0 0 0
297.4953 91.9845 578.5930 -0.3407 -0.0911 -0.9357 0 0 0
271.9663 93.3069 590.7041 -0.3975 0.0352 -0.9169 0 0 0
249.1888 95.3776 600.9033 -0.5144 -0.0663 -0.8550 0 0 0
220.7309 96.6223 615.4785 -0.2464 -0.1243 -0.9612 0 0 0
198.1418 99.6145 630.6454 -0.7128 0.1841 -0.6768 0 0 0
63.2307 98.7258 616.6389 0.0145 0.6834 -0.7299 0 0 0
29.4684 98.8624 621.3426 -0.0593 0.7293 -0.6817 0 0 0
1.2479 102.3938 637.1757 -0.3206 0.7141 -0.6224 0 0 0
323.1918 91.0865 566.9165 -0.1193 0.1680 -0.9785 0 0 0
276.6182 94.2270 587.6550 -0.4406 -0.0079 -0.8977 0 0 0
225.1558 97.3918 611.6503 -0.3236 -0.1024 -0.9406 0 0 0
202.3934 100.1520 623.3699 -0.7570 -0.0070 -0.6534 0 0 0
183.3194 104.8860 654.3010 -0.5065 0.5358 -0.6755 0 0 0
35.9481 100.2109 621.2786 0.0216 0.7713 -0.6362 0 0 0
-27.7588 103.5156 641.9191 0.1519 0.5378 -0.8293 0 0 0
351.5857 90.9954 558.3491 0.0000 0.0000 0.0000 0 0 0
346.5081 89.8361 558.6820 0.0000 0.0000 0.0000 0 0 0
347.3195 90.0167 560.0176 -0.1145 -0.1675 -0.9792 0 0 0
327.9237 92.0774 565.2957 -0.1662 0.1179 -0.9790 0 0 0
302.1705 92.9736 575.3376 -0.4080 -0.0935 -0.9082 0 0 0
280.9577 95.0487 585.1086 -0.5246 -0.1030 -0.8451 0 0 0
262.8920 98.2462 595.7412 -0.3981 -0.1261 -0.9086 0 0 0
254.5597 96.3668 597.6697 -0.4338 -0.1441 -0.8894 0 0 0
231.6800 98.7040 608.7847 -0.3635 -0.0715 -0.9289 0 0 0
207.2187 100.8122 618.4302 -0.6029 -0.1016 -0.7913 0 0 0
189.6209 106.2236 651.4018 -0.6561 0.4563 -0.6011 0 0 0
68.1112 96.8459 616.6389 0.1209 0.6939 -0.7098 0 0 0
43.7430 103.0838 625.4995 0.0000 0.0000 0.0000 0 0 0
43.5690 103.0476 627.8691 0.1412 0.7541 -0.6414 0 0 0
8.2075 103.2107 632.0099 -0.3206 0.7141 -0.6224 0 0 0
-20.9879 105.0422 641.9539 0.1519 0.5378 -0.8293 0 0 0
354.4771 91.5005 557.2369 -0.1800 -0.0405 -0.9828 0 0 0
330.7446 92.6651 562.3714 -0.2733 -0.0508 -0.9606 0 0 0
306.2682 93.8028 572.4214 -0.4309 0.0239 -0.9021 0 0 0
287.2199 96.3851 581.9622 -0.4143 -0.1601 -0.8959 0 0 0
237.9748 100.0351 608.4784 -0.4362 -0.0796 -0.8963 0 0 0
68.5972 112.8567 679.2432 0.0000 0.0000 0.0000 0 0 0
50.7040 104.1179 631.7372 0.1935 0.7604 -0.6199 0 0 0
22.7260 106.1865 638.8147 -0.3455 0.8462 -0.4057 0 0 0
377.3377 95.9184 563.4530 0.6336 -0.0293 -0.7731 0 0 0
311.3533 94.8768 569.4107 -0.4228 0.0816 -0.9025 0 0 0
291.8003 97.2921 580.2602 0.0000 0.0000 0.0000 0 0 0
264.2521 98.2664 592.9692 -0.3790 -0.1452 -0.9139 0 0 0
243.4331 101.0606 606.0232 -0.5529 -0.1277 -0.8234 0 0 0
212.2261 101.6707 614.9628 -0.4117 -0.0544 -0.9097 0 0 0
202.3613 108.6152 642.5400 -0.7368 0.1203 -0.6654 0 0 0
193.7147 106.3865 644.0131 -0.6446 0.4732 -0.6005 0 0 0
29.1263 109.1043 637.5388 -0.3669 0.8168 -0.4452 0 0 0
344.3124 95.5375 558.8486 0.0595 -0.1443 -0.9877 0 0 0
333.6624 93.3547 556.7072 -0.1374 -0.1534 -0.9786 0 0 0
316.7372 95.9987 568.0316 -0.2468 0.1149 -0.9622 0 0 0
289.3513 96.7212 579.9871 -0.2958 -0.2184 -0.9300 0 0 0
270.2977 99.5164 590.9309 -0.3620 -0.0835 -0.9284 0 0 0
247.1746 101.6791 600.1846 -0.5088 -0.2017 -0.8369 0 0 0
218.3040 102.8343 613.6047 -0.3268 -0.0729 -0.9423 0 0 0
177.6756 111.9522 663.3524 -0.3151 0.5115 -0.7994 0 0 0
348.0551 96.3871 557.3005 -0.0357 -0.0677 -0.9971 0 0 0
321.6194 97.0289 567.4445 -0.1694 0.1161 -0.9787 0 0 0
294.0135 97.6544 575.1231 -0.2842 -0.2240 -0.9322 0 0 0
274.6333 100.3337 587.4239 -0.4697 -0.1899 -0.8622 0 0 0
224.5214 104.0690 611.7274 -0.3107 -0.0777 -0.9473 0 0 0
201.7397 106.9509 624.7703 -0.7063 0.1080 -0.6996 0 0 0
180.9236 111.4798 656.2478 -0.4966 0.4107 -0.7647 0 0 0
327.2473 98.1856 566.0313 -0.2233 0.1028 -0.9693 0 0 0
301.7760 99.2961 574.8797 -0.3618 -0.2234 -0.9051 0 0 0
279.9439 101.3895 585.6453 -0.5462 -0.2999 -0.7821 0 0 0
252.9200 102.6805 596.7207 -0.4287 -0.2221 -0.8757 0 0 0
230.4910 105.2621 609.6680 -0.3061 -0.1302 -0.9431 0 0 0
190.2361 114.0726 656.7136 -0.6197 0.4087 -0.6700 0 0 0
-22.2893 111.7971 649.8446 0.1519 0.5378 -0.8293 0 0 0
350.9161 96.9743 555.1040 -0.0819 0.0235 -0.9964 0 0 0
334.6321 99.7874 565.7832 -0.3054 0.1540 -0.9397 0 0 0
305.9404 100.1013 572.9402 -0.3917 -0.1735 -0.9036 0 0 0
257.2255 103.4234 593.1240 -0.3678 -0.1913 -0.9100 0 0 0
237.0676 106.6486 608.9604 -0.4470 -0.2356 -0.8630 0 0 0
205.7824 107.3788 620.1695 -0.5469 0.1511 -0.8235 0 0 0
355.8262 98.0332 556.3116 -0.1219 0.1149 -0.9859 0 0 0
334.5161 99.7085 554.9203 0.0000 0.0000 0.0000 0 0 0
310.5207 101.0895 570.4680 -0.3411 -0.1785 -0.9229 0 0 0
282.0824 101.6315 578.9540 -0.4121 -0.3205 -0.8529 0 0 0
263.4776 104.7373 592.1378 -0.3591 -0.2093 -0.9095 0 0 0
212.0270 108.6275 616.3110 -0.5335 0.1455 -0.8332 0 0 0
192.1755 113.3113 645.7700 -0.7512 0.1204 -0.6491 0 0 0
163.4276 114.6236 662.6989 0.0746 0.2066 -0.9756 0 0 0
361.2246 99.1315 555.7806 0.0000 0.0000 0.0000 0 0 0
362.0803 99.3133 554.8838 -0.0938 0.1598 -0.9827 0 0 0
333.2879 99.4276 553.8082 -0.1989 0.1858 -0.9622 0 0 0
317.3047 102.5005 569.4053 -0.1895 -0.1589 -0.9689 0 0 0
290.0760 103.4033 577.6061 -0.2035 -0.3132 -0.9276 0 0 0
268.6752 105.7206 589.5848 -0.3806 -0.2331 -0.8949 0 0 0
240.1353 106.7323 602.4978 -0.5704 -0.2961 -0.7661 0 0 0
218.0820 109.7832 614.6047 -0.4878 0.0562 -0.8712 0 0 0
196.0798 112.9718 640.2224 -0.7389 -0.0162 -0.6736 0 0 0
178.2082 120.1461 673.0641 -0.0016 0.3653 -0.9309 0 0 0
335.3818 99.8611 555.2136 0.0018 0.2130 -0.9770 0 0 0
321.2180 103.2572 567.5595 -0.0929 -0.1154 -0.9890 0 0 0
293.6063 103.9707 575.1497 -0.2564 -0.2235 -0.9404 0 0 0
273.4749 106.6371 587.6938 -0.4669 -0.4309 -0.7722 0 0 0
246.0128 108.0476 599.5150 -0.4807 -0.3387 -0.8089 0 0 0
223.1382 110.6565 612.5562 -0.3396 -0.0478 -0.9394 0 0 0
180.4417 118.7195 662.4363 -0.3903 0.4332 -0.8124 0 0 0
342.2245 101.3661 557.1400 -0.0706 0.1746 -0.9821 0 0 0
326.8022 104.4271 567.0807 -0.1068 -0.0153 -0.9942 0 0 0
298.4716 104.9281 573.5488 -0.3136 -0.1668 -0.9348 0 0 0
279.6703 107.8917 584.9049 -0.4733 -0.5022 -0.7238 0 0 0
251.6026 109.1644 596.6199 -0.4396 -0.2606 -0.8595 0 0 0
229.4961 111.9075 610.3035 -0.2750 -0.1303 -0.9526 0 0 0
199.3887 113.0543 623.9971 -0.6436 0.1377 -0.7529 0 0 0
189.1543 121.2234 656.7981 -0.7431 0.1673 -0.6479 0 0 0
352.0009 103.4267 559.1404 -0.0990 0.1260 -0.9871 0 0 0
329.4416 104.9295 565.4039 -0.2729 0.1734 -0.9463 0 0 0
304.1921 106.1114 572.3306 -0.3265 -0.2503 -0.9115 0 0 0
256.3140 109.8943 593.5931 -0.3436 -0.1839 -0.9209 0 0 0
235.1923 112.9750 607.5369 -0.4674 -0.1609 -0.8693 0 0 0
206.1149 114.7181 624.6555 -0.5362 0.1909 -0.8222 0 0 0
195.7342 122.8107 651.8574 -0.8385 -0.0982 -0.5360 0 0 0
358.3865 104.6112 558.2003 -0.1184 0.0677 -0.9907 0 0 0
336.4397 106.3838 565.0078 -0.2860 0.2864 -0.9144 0 0 0
308.6343 106.9835 569.6800 -0.2878 -0.2829 -0.9150 0 0 0
280.3604 107.6348 575.5683 -0.1895 -0.4514 -0.8720 0 0 0
261.5173 110.8018 591.4099 -0.2741 -0.0593 -0.9599 0 0 0
211.2779 115.5043 620.5612 -0.5881 0.1101 -0.8013 0 0 0
165.9975 123.6860 661.3037 0.3928 0.1762 -0.9026 0 0 0
364.0262 105.8060 557.4008 -0.0868 0.0358 -0.9956 0 0 0
341.4779 107.4485 562.4030 -0.1477 0.3202 -0.9358 0 0 0
311.6813 107.4927 566.1336 -0.1336 -0.2222 -0.9658 0 0 0
286.7057 108.9871 575.9649 -0.0590 -0.3066 -0.9500 0 0 0
266.9292 111.7539 588.8495 -0.3549 -0.1173 -0.9275 0 0 0
238.3549 113.1627 600.4166 -0.5960 -0.1533 -0.7883 0 0 0
215.6190 115.9040 614.5071 -0.5586 -0.1304 -0.8191 0 0 0
193.5167 119.6040 633.3167 -0.6589 0.0667 -0.7493 0 0 0
175.5001 126.5702 668.1987 0.1003 0.3563 -0.9290 0 0 0
367.9058 106.7624 556.0605 0.0130 -0.0351 -0.9993 0 0 0
292.6906 110.2422 575.9231 -0.2344 -0.2427 -0.9414 0 0 0
272.8062 113.1163 586.9962 -0.5728 -0.2475 -0.7814 0 0 0
243.8888 114.1929 597.7144 -0.4603 -0.1258 -0.8788 0 0 0
220.8759 116.8044 610.9014 -0.3226 -0.3556 -0.8772 0 0 0
184.3611 128.9822 673.1415 -0.3765 0.3908 -0.8400 0 0 0
347.0014 108.6556 559.5011 -0.1128 0.1966 -0.9740 0 0 0
324.5811 110.3096 566.4330 -0.0469 -0.0575 -0.9972 0 0 0
315.1790 108.0919 565.2263 0.0048 -0.1628 -0.9867 0 0 0
298.5986 111.4487 573.3601 -0.2708 -0.1784 -0.9459 0 0 0
248.8507 115.0264 593.7989 -0.3746 0.0043 -0.9272 0 0 0
208.1882 122.8508 625.8703 -0.5092 0.3375 -0.7917 0 0 0
199.1664 120.5409 626.3147 -0.5326 0.3141 -0.7860 0 0 0
189.5519 129.4308 661.4412 -0.7981 0.0246 -0.6020 0 0 0
350.8622 109.3551 558.6600 -0.1066 0.1010 -0.9892 0 0 0
328.7489 111.0700 565.2312 -0.1605 0.0289 -0.9866 0 0 0
301.2804 111.7281 570.4150 -0.2155 -0.1496 -0.9650 0 0 0
270.9579 111.9191 574.2267 -0.5385 -0.4144 -0.7337 0 0 0
254.0473 115.9146 591.9448 -0.3188 0.0355 -0.9472 0 0 0
234.9686 119.8975 609.1525 -0.2127 -0.2374 -0.9478 0 0 0
227.3208 118.0407 609.1923 -0.2002 -0.4969 -0.8444 0 0 0
173.6162 136.7986 697.5166 0.0000 0.0000 0.0000 0 0 0
359.8755 111.2461 558.3400 -0.1969 -0.0364 -0.9798 0 0 0
335.2216 112.4098 564.0125 0.0000 0.0000 0.0000 0 0 0
306.1595 112.6961 567.2820 -0.2586 -0.1427 -0.9554 0 0 0
277.5063 113.3460 573.2055 -0.1622 -0.3103 -0.9367 0 0 0
260.6174 117.3297 590.7369 -0.2351 0.1989 -0.9514 0 0 0
211.9278 122.8880 621.3593 -0.5080 0.3542 -0.7852 0 0 0
186.7566 125.4758 641.9010 -0.7777 -0.2069 -0.5936 0 0 0
356.7575 110.4712 556.4630 -0.1525 -0.0341 -0.9877 0 0 0
335.3111 112.4448 564.7791 -0.2702 0.0941 -0.9582 0 0 0
311.4315 113.7798 564.6794 -0.1417 -0.0519 -0.9885 0 0 0
285.9230 115.2798 575.1389 0.0352 -0.1675 -0.9853 0 0 0
267.9945 118.9585 590.2195 -0.4345 0.1185 -0.8928 0 0 0
236.9440 119.5432 600.3464 -0.2731 -0.0340 -0.9614 0 0 0
216.0146 123.2206 615.3203 -0.5196 0.2461 -0.8182 0 0 0
195.3618 128.0779 638.6262 -0.5749 0.3106 -0.7569 0 0 0
174.6884 133.4997 671.1521 0.2531 0.2052 -0.9454 0 0 0
366.4339 112.5605 555.4341 0.2609 0.1377 -0.9555 0 0 0
340.2159 113.3935 560.7237 -0.2991 0.1697 -0.9390 0 0 0
317.9786 115.1348 564.6498 0.0344 0.0054 -0.9994 0 0 0
290.6950 116.1674 574.0175 -0.1019 -0.1464 -0.9840 0 0 0
242.9814 120.6858 598.9669 -0.2365 0.2613 -0.9358 0 0 0
201.3430 129.0574 635.3757 -0.4635 0.3956 -0.7929 0 0 0
182.4532 135.9799 672.1421 -0.2331 0.2205 -0.9471 0 0 0
344.9493 114.3894 559.5628 -0.2180 0.2294 -0.9486 0 0 0
324.9062 116.6999 565.2583 0.0219 0.0976 -0.9950 0 0 0
295.3317 116.9798 571.2195 -0.3022 -0.1105 -0.9468 0 0 0
269.3500 118.6790 584.7653 -0.7248 -0.0446 -0.6875 0 0 0
248.9271 121.9233 595.1601 -0.4080 0.3299 -0.8513 0 0 0
217.3345 122.4009 602.3151 -0.2818 -0.1732 -0.9437 0 0 0
190.1753 137.9953 664.1642 -0.6979 -0.3794 -0.6074 0 0 0
349.5022 115.1712 558.2500 -0.1898 0.2323 -0.9540 0 0 0
328.5686 117.3721 565.2908 -0.0774 0.1532 -0.9852 0 0 0
302.0942 118.4624 570.8279 -0.2463 0.0164 -0.9691 0 0 0
271.0563 118.4850 575.8688 -0.6818 -0.2171 -0.6985 0 0 0
255.0370 123.0598 594.4435 -0.2069 0.4105 -0.8881 0 0 0
224.1601 123.7820 601.2559 -0.1277 -0.2134 -0.9686 0 0 0
206.0357 129.3879 631.0941 -0.4897 0.4108 -0.7691 0 0 0
355.6068 116.4770 557.8593 -0.2440 0.2085 -0.9471 0 0 0
336.2087 119.0218 566.2318 0.0000 0.0000 0.0000 0 0 0
336.6134 119.1118 565.1095 0.0000 0.0000 0.0000 0 0 0
311.1054 120.6090 570.2657 -0.2354 0.1160 -0.9650 0 0 0
278.0812 120.0784 572.7889 -0.2491 -0.2789 -0.9275 0 0 0
259.4526 123.7673 593.1838 -0.1726 0.4185 -0.8917 0 0 0
227.6761 124.0629 596.8516 -0.0400 -0.0224 -0.9989 0 0 0
207.0697 128.0760 621.2025 -0.6124 0.3664 -0.7006 0 0 0
187.8724 133.6987 644.4335 -0.6184 0.0720 -0.7825 0 0 0
357.1172 116.6546 553.2267 -0.0746 0.2445 -0.9668 0 0 0
334.9316 118.6670 565.3254 -0.1459 0.3058 -0.9409 0 0 0
281.7855 120.5282 573.0298 0.0891 -0.2220 -0.9710 0 0 0
268.1384 125.9879 592.9310 -0.4031 0.3849 -0.8303 0 0 0
237.6427 126.7950 604.2632 -0.0412 0.2413 -0.9696 0 0 0
215.6280 130.5064 622.2598 -0.3863 0.5309 -0.7543 0 0 0
193.6516 134.6700 639.3972 -0.5900 0.2187 -0.7772 0 0 0
174.0025 141.6726 673.7736 -0.1697 0.1533 -0.9735 0 0 0
372.4145 120.2076 558.1802 0.2331 0.4093 -0.8821 0 0 0
339.7674 119.5821 562.6515 -0.2412 0.3817 -0.8923 0 0 0
316.6705 121.1845 565.7905 0.0236 0.2278 -0.9734 0 0 0
307.5648 119.0257 563.9191 -0.1702 0.1703 -0.9706 0 0 0
290.4199 122.6423 576.0016 -0.0192 -0.1645 -0.9862 0 0 0
244.8320 128.4457 604.8261 -0.3293 0.4416 -0.8346 0 0 0
198.3962 134.9497 635.3183 0.0000 0.0000 0.0000 0 0 0
179.3217 142.0311 670.3459 0.0000 0.0000 0.0000 0 0 0
179.7677 142.2123 667.8708 -0.6320 0.0211 -0.7747 0 0 0
346.5881 121.1089 563.1436 -0.2688 0.4235 -0.8651 0 0 0
294.0116 123.1092 573.4922 -0.2365 -0.1626 -0.9579 0 0 0
270.1173 125.6676 586.0978 -0.7800 0.3248 -0.5349 0 0 0
248.3361 128.4627 599.6954 -0.3530 0.4806 -0.8028 0 0 0
228.1710 132.7056 611.7561 -0.0977 0.7015 -0.7060 0 0 0
220.0863 130.6021 611.1633 -0.3452 0.5874 -0.7320 0 0 0
209.0397 138.4011 637.7729 -0.5348 0.0479 -0.8436 0 0 0
199.9051 135.7344 637.4614 -0.5161 0.2436 -0.8211 0 0 0
350.8329 121.9089 561.9182 -0.2448 0.4482 -0.8597 0 0 0
323.0026 122.5621 566.4819 0.0503 0.2513 -0.9666 0 0 0
273.1787 125.8451 578.5589 -0.7179 0.2193 -0.6607 0 0 0
253.7037 129.4288 597.0276 -0.2520 0.4482 -0.8577 0 0 0
355.8813 122.8320 561.2492 -0.1895 0.5564 -0.8090 0 0 0
329.3364 123.8979 567.3340 0.0376 0.3355 -0.9413 0 0 0
305.1826 125.2946 571.6586 -0.0826 0.0389 -0.9958 0 0 0
297.4174 123.4676 570.5193 -0.1346 -0.0662 -0.9887 0 0 0
275.8606 125.9026 570.8692 -0.3194 0.0567 -0.9459 0 0 0
263.1415 132.0063 600.0464 -0.2044 0.3759 -0.9038 0 0 0
227.0593 130.6965 603.9359 -0.1003 0.6273 -0.7723 0 0 0
209.0679 136.3451 629.4383 -0.3758 0.2333 -0.8968 0 0 0
188.3110 142.0490 648.7549 -0.5602 0.0754 -0.8249 0 0 0
176.6479 136.9970 651.6328 -0.5515 0.0109 -0.8341 0 0 0
360.3464 123.7119 559.7150 -0.0284 0.5306 -0.8472 0 0 0
343.9955 127.1841 568.5287 -0.2026 0.4953 -0.8448 0 0 0
334.3479 124.8551 567.9182 -0.1042 0.4294 -0.8971 0 0 0
312.5050 126.9628 570.3999 -0.0858 0.1189 -0.9892 0 0 0
270.9467 133.9138 600.1132 -0.3960 0.2109 -0.8937 0 0 0
234.9736 132.5966 604.9514 -0.1166 0.4694 -0.8752 0 0 0
219.4412 139.5330 633.1513 -0.3621 -0.1440 -0.9209 0 0 0
193.7515 142.4823 645.6272 -0.6108 0.0730 -0.7884 0 0 0
173.1117 149.6375 678.2475 -0.6565 0.0578 -0.7521 0 0 0
368.5913 125.6203 563.7963 0.0000 0.0000 0.0000 0 0 0
368.1953 125.5377 561.9152 0.1103 0.5164 -0.8492 0 0 0
288.0129 128.3535 573.6657 0.1784 0.0380 -0.9832 0 0 0
280.1219 126.4688 567.7168 0.1081 -0.0762 -0.9912 0 0 0
244.0918 135.1131 607.1206 -0.3419 0.2614 -0.9027 0 0 0
222.2392 138.9700 628.1451 -0.3399 0.0352 -0.9398 0 0 0
179.3643 150.6102 675.9343 -0.6565 0.0578 -0.7521 0 0 0
344.2028 126.8562 565.0187 -0.2465 0.5130 -0.8223 0 0 0
314.6504 127.0102 568.1483 0.0310 0.2319 -0.9723 0 0 0
293.3994 129.3896 573.2646 0.0748 0.0676 -0.9949 0 0 0
269.6396 132.2816 588.7391 -0.6383 0.3675 -0.6764 0 0 0
251.3358 136.8893 605.5897 -0.2687 0.1225 -0.9554 0 0 0
197.1924 141.7292 634.8804 -0.5546 0.0295 -0.8316 0 0 0
351.6471 128.4959 566.3391 -0.1737 0.5381 -0.8248 0 0 0
329.9676 130.6170 570.5054 0.1288 0.2801 -0.9513 0 0 0
321.2683 128.5629 569.1423 0.0631 0.2409 -0.9685 0 0 0
271.6953 131.8970 579.3975 -0.6275 0.4547 -0.6320 0 0 0
257.7621 138.1839 604.8041 -0.0521 -0.0576 -0.9970 0 0 0
237.5211 142.7246 621.9617 -0.0653 -0.0536 -0.9964 0 0 0
226.4862 139.1422 619.3770 -0.0522 0.3205 -0.9458 0 0 0
205.7293 144.2459 634.0029 -0.6061 -0.1068 -0.7882 0 0 0
180.1796 147.0984 650.8077 -0.6445 0.1027 -0.7577 0 0 0
357.4011 129.5650 567.8091 -0.1440 0.5523 -0.8211 0 0 0
336.9748 132.1031 572.9276 0.0662 0.3542 -0.9328 0 0 0
298.5373 130.3279 570.6912 -0.1033 0.1894 -0.9765 0 0 0
273.5658 131.5930 573.7253 -0.4601 0.1956 -0.8660 0 0 0
244.1714 144.1302 615.8203 -0.3224 0.2471 -0.9138 0 0 0
209.0543 143.7412 628.9575 -0.4306 -0.2562 -0.8654 0 0 0
187.4131 149.0947 648.8301 -0.5327 0.1209 -0.8376 0 0 0
364.9187 131.3125 568.3742 -0.0283 0.4854 -0.8738 0 0 0
341.5032 132.9464 570.3456 0.0000 0.0000 0.0000 0 0 0
301.6870 130.6414 567.7779 -0.0823 0.1813 -0.9800 0 0 0
266.0417 138.9324 599.0775 -0.2162 -0.3370 -0.9163 0 0 0
257.9559 136.8361 598.5065 -0.0678 -0.1664 -0.9837 0 0 0
212.2742 143.2609 624.1125 -0.2824 -0.1404 -0.9490 0 0 0
193.2659 149.7720 644.7835 -0.6243 0.0000 -0.7812 0 0 0
370.2719 132.3330 566.1208 0.0238 0.4342 -0.9005 0 0 0
342.3125 133.1502 570.8542 -0.0682 0.4360 -0.8974 0 0 0
305.5812 131.2232 568.0244 -0.0564 0.1666 -0.9844 0 0 0
274.6348 130.9925 565.4881 0.0284 0.1162 -0.9928 0 0 0
244.2550 142.3335 607.7673 -0.3391 0.0531 -0.9392 0 0 0
356.0773 136.2109 569.9803 0.0000 0.0000 0.0000 0 0 0
347.5873 134.2674 571.8625 -0.1613 0.5075 -0.8464 0 0 0
323.9017 135.9255 571.5529 0.1808 0.1329 -0.9745 0 0 0
315.4122 133.7342 570.9113 0.0302 0.1630 -0.9862 0 0 0
279.6612 131.9462 567.6179 0.2240 0.2344 -0.9460 0 0 0
269.1445 138.9873 591.8604 -0.2623 -0.0988 -0.9599 0 0 0
246.1356 141.5324 602.2206 -0.1117 -0.3554 -0.9280 0 0 0
221.0375 145.5841 620.9579 -0.1819 -0.2417 -0.9532 0 0 0
198.1423 149.9757 640.2802 -0.6278 -0.0416 -0.7773 0 0 0
354.8790 135.8463 570.6583 -0.1461 0.5257 -0.8380 0 0 0
329.7080 137.0495 570.9797 0.2538 0.2403 -0.9369 0 0 0
290.1273 134.9148 573.1601 0.0838 0.5255 -0.8467 0 0 0
275.4761 140.2594 591.1115 -0.0667 0.1627 -0.9844 0 0 0
253.7531 143.4150 599.6296 0.0000 0.0000 0.0000 0 0 0
254.1787 143.6498 605.4877 -0.0292 -0.6074 -0.7939 0 0 0
226.2170 146.2210 612.0825 -0.0588 -0.3701 -0.9271 0 0 0
202.1586 149.6341 632.3983 -0.5915 -0.2326 -0.7720 0 0 0
181.7251 156.4339 656.0950 -0.6061 -0.0167 -0.7952 0 0 0
357.9964 136.1848 569.1125 -0.1686 0.4765 -0.8629 0 0 0
336.2717 138.4939 573.2463 0.1805 0.3175 -0.9309 0 0 0
309.7576 139.9490 575.0102 -0.2386 0.4942 -0.8359 0 0 0
296.4835 136.1915 573.3130 -0.1139 0.5624 -0.8190 0 0 0
280.9890 141.2184 587.9774 -0.0859 0.4802 -0.8729 0 0 0
260.0732 144.7603 596.7999 0.0000 0.0000 0.0000 0 0 0
232.6728 147.6757 613.9477 -0.0130 -0.2204 -0.9753 0 0 0
207.3368 150.2863 628.6223 -0.4612 -0.3343 -0.8219 0 0 0
185.6050 155.9478 648.2950 -0.4823 0.0133 -0.8759 0 0 0
367.4478 138.4078 568.9665 -0.1972 0.3809 -0.9034 0 0 0
314.8601 140.9090 571.0967 -0.1496 0.4301 -0.8903 0 0 0
287.6839 142.5900 585.4361 -0.1809 0.6380 -0.7485 0 0 0
257.6830 143.7166 599.0220 -0.0515 -0.6714 -0.7393 0 0 0
237.4514 148.0435 614.6241 -0.1317 -0.1289 -0.9829 0 0 0
213.1662 150.9906 624.4908 -0.2223 -0.2524 -0.9418 0 0 0
369.0906 138.4276 566.9750 -0.2307 0.2589 -0.9380 0 0 0
342.0346 139.5870 574.0204 -0.0555 0.3624 -0.9304 0 0 0
291.8438 143.0822 581.0593 -0.2699 0.6725 -0.6891 0 0 0
263.7648 144.9206 592.0524 -0.1374 -0.6566 -0.7416 0 0 0
224.0801 154.9250 628.6990 -0.2617 -0.1587 -0.9520 0 0 0
191.5418 156.6068 645.4548 -0.5983 -0.0075 -0.8012 0 0 0
348.6198 140.9546 575.2126 -0.1187 0.3518 -0.9285 0 0 0
315.3038 140.1365 567.6494 0.0603 0.3406 -0.9383 0 0 0
296.1172 143.6348 579.8286 -0.2793 0.6246 -0.7293 0 0 0
268.2447 145.3684 589.5655 -0.0210 -0.4655 -0.8848 0 0 0
234.5789 144.7096 603.3913 -0.7002 -0.1087 -0.7056 0 0 0
192.2610 153.8961 635.3968 -0.6894 -0.1798 -0.7017 0 0 0
354.1029 141.9492 574.5386 -0.1890 0.3235 -0.9271 0 0 0
315.6406 139.5464 567.2873 0.1711 0.1796 -0.9687 0 0 0
300.9759 144.4499 581.1042 -0.2070 0.4798 -0.8526 0 0 0
274.3814 146.6214 589.2426 0.1674 0.0505 -0.9846 0 0 0
240.4664 145.8617 592.9485 -0.4007 -0.5934 -0.6981 0 0 0
203.6158 158.4615 635.8121 -0.7445 -0.2442 -0.6213 0 0 0
181.2526 164.3940 655.2623 -0.7353 -0.1489 -0.6612 0 0 0
362.0951 143.9360 573.1667 -0.1824 0.2523 -0.9503 0 0 0
337.6194 145.4752 579.8429 -0.0474 0.4850 -0.8732 0 0 0
324.8110 141.8150 569.8383 0.0000 0.0000 0.0000 0 0 0
324.1020 141.6208 566.5068 0.2870 0.3305 -0.8991 0 0 0
305.2922 145.1675 580.6772 -0.3093 0.4177 -0.8543 0 0 0
281.2128 148.1350 591.3391 0.0677 0.2629 -0.9624 0 0 0
245.2990 146.4537 590.5012 -0.0722 -0.7496 -0.6579 0 0 0
228.2070 152.5130 610.8331 0.1140 -0.4438 -0.8889 0 0 0
213.5585 146.5981 609.1234 -0.5607 -0.4075 -0.7208 0 0 0
366.8160 144.7870 568.4642 -0.2805 0.2985 -0.9123 0 0 0
345.7049 147.2976 578.6868 -0.1784 0.4041 -0.8971 0 0 0
287.9047 149.6077 592.2502 -0.1796 0.3073 -0.9345 0 0 0
252.1287 148.1214 589.2726 -0.0429 -0.8066 -0.5896 0 0 0
238.2890 155.8710 616.4837 0.0610 -0.3515 -0.9342 0 0 0
203.6279 155.3501 623.4675 -0.5347 -0.3802 -0.7547 0 0 0
194.2908 166.3973 650.4014 -0.6005 -0.0188 -0.7994 0 0 0
183.3845 161.8848 646.5704 -0.5556 -0.0541 -0.8297 0 0 0
352.5821 149.0626 579.0388 -0.0050 0.2072 -0.9783 0 0 0
308.6936 145.2891 576.7164 -0.2077 0.4451 -0.8711 0 0 0
290.8132 149.6105 589.4644 -0.4871 0.2602 -0.8337 0 0 0
256.1188 148.3670 586.6219 0.0862 -0.6407 -0.7629 0 0 0
240.0896 154.7290 609.0273 -0.1629 0.0460 -0.9856 0 0 0
209.9064 156.7639 619.0315 -0.1927 -0.4707 -0.8610 0 0 0
360.1115 150.6514 575.7515 -0.2205 0.0680 -0.9730 0 0 0
333.8764 152.5127 582.9319 0.0100 0.5473 -0.8368 0 0 0
311.3192 145.4218 569.0869 -0.0147 0.4745 -0.8802 0 0 0
297.1509 150.9527 587.9250 -0.2078 0.2807 -0.9370 0 0 0
261.6385 149.2500 584.4833 0.0000 0.0000 0.0000 0 0 0
217.3944 158.4308 621.0229 -0.1381 -0.2076 -0.9684 0 0 0
194.0291 162.6741 640.6208 -0.6970 -0.1688 -0.6970 0 0 0
334.5971 151.7951 581.5373 -0.0151 0.4813 -0.8764 0 0 0
303.1752 151.9242 582.9641 -0.0993 0.0951 -0.9905 0 0 0
261.0003 148.9760 585.1410 0.1746 -0.4990 -0.8488 0 0 0
244.9645 155.1977 598.9592 -0.3767 0.3858 -0.8421 0 0 0
221.1119 158.2294 610.7305 -0.1511 -0.0800 -0.9853 0 0 0
198.9400 162.9320 628.8325 -0.7706 -0.2269 -0.5956 0 0 0
177.4474 169.5129 655.4136 -0.2067 0.0030 -0.9784 0 0 0
362.5474 150.7576 569.1877 -0.2130 0.0075 -0.9770 0 0 0
306.7326 152.2876 580.5978 -0.2237 0.2274 -0.9478 0 0 0
275.1709 152.3980 587.9774 0.2331 0.2087 -0.9498 0 0 0
267.3077 150.3304 585.1924 0.3389 -0.1934 -0.9207 0 0 0
245.1193 153.2933 591.0104 -0.3203 -0.1794 -0.9302 0 0 0
335.3534 151.3509 585.7109 -0.0790 0.3527 -0.9324 0 0 0
283.6266 154.8586 589.9248 0.0325 0.3885 -0.9209 0 0 0
223.4981 157.0843 600.7957 0.0592 -0.2183 -0.9741 0 0 0
201.8478 161.7328 620.7275 -0.5728 -0.3380 -0.7467 0 0 0
182.8777 170.0013 651.3990 -0.4580 -0.1744 -0.8717 0 0 0
333.9166 149.8617 582.4192 -0.0990 0.4755 -0.8741 0 0 0
308.9391 152.0979 576.5588 -0.0498 0.3459 -0.9370 0 0 0
287.6500 155.0337 588.9308 -0.1307 -0.1439 -0.9809 0 0 0
244.9818 151.3862 581.9216 -0.2545 -0.2224 -0.9411 0 0 0
242.2633 163.1790 608.7849 0.1831 -0.6633 -0.7256 0 0 0
232.9489 160.1712 605.0727 0.1695 -0.2480 -0.9538 0 0 0
209.8657 163.9220 617.5716 -0.2724 -0.3102 -0.9108 0 0 0
187.0418 169.0177 643.1757 -0.7222 -0.1476 -0.6758 0 0 0
338.8480 150.8593 575.7272 0.1749 0.1388 -0.9748 0 0 0
316.3192 153.9647 581.1585 0.2287 0.3819 -0.8954 0 0 0
266.1619 158.2378 584.2271 0.3304 -0.0666 -0.9415 0 0 0
255.2679 154.6788 580.9669 0.1345 -0.4267 -0.8943 0 0 0
251.7793 166.2127 608.7811 0.2378 -0.5476 -0.8022 0 0 0
213.8552 163.7056 613.5858 -0.2554 -0.1579 -0.9538 0 0 0
194.2302 170.8121 639.6443 -0.7999 -0.2858 -0.5277 0 0 0
323.1848 155.2535 585.3333 0.1737 0.5041 -0.8460 0 0 0
293.8328 156.2814 583.7183 0.0995 -0.3441 -0.9336 0 0 0
290.6657 166.5582 600.1055 0.1725 0.4288 -0.8868 0 0 0
276.7067 161.6327 593.4635 0.5517 0.1558 -0.8194 0 0 0
219.9127 164.9018 610.9666 -0.1547 0.0659 -0.9858 0 0 0
328.2295 146.0099 563.1003 0.0000 0.0000 0.0000 0 0 0
330.3415 157.2759 582.3527 -0.0056 0.4412 -0.8974 0 0 0
299.1546 157.1769 582.9321 -0.0984 -0.1392 -0.9854 0 0 0
305.7687 171.9378 611.5712 0.0000 0.0000 0.0000 0 0 0
228.9182 167.7064 612.6660 -0.0647 0.1276 -0.9897 0 0 0
195.0552 167.4901 626.7524 -0.7567 -0.1668 -0.6321 0 0 0
183.8778 179.0328 654.7810 -0.5928 -0.1724 -0.7867 0 0 0
171.0524 172.9928 658.9667 -0.5574 0.0705 -0.8273 0 0 0
328.0793 145.8361 563.1006 0.0000 0.0000 0.0000 0 0 0
302.0074 157.1923 577.3895 -0.0912 0.0264 -0.9955 0 0 0
257.7954 165.0301 606.7327 0.3252 -0.6689 -0.6684 0 0 0
202.6143 170.0042 621.8262 -0.5977 -0.1728 -0.7829 0 0 0
326.8287 164.8004 587.9723 -0.1138 0.0646 -0.9914 0 0 0
309.1357 158.9212 577.4156 0.1532 0.1883 -0.9701 0 0 0
207.1031 169.8439 616.4057 -0.4909 -0.1214 -0.8627 0 0 0
187.5809 177.3563 644.2553 -0.8314 -0.2094 -0.5148 0 0 0
328.9964 164.5633 585.9639 -0.1615 0.1006 -0.9817 0 0 0
230.4411 163.6684 597.8136 0.1819 -0.0184 -0.9831 0 0 0
216.8495 158.0116 588.5780 0.5120 -0.6884 -0.5138 0 0 0
190.5840 175.7955 633.7226 -0.8200 -0.2425 -0.5184 0 0 0
285.1143 159.1052 568.7087 -0.0007 0.4111 -0.9116 0 0 0
236.6019 164.7704 598.5247 0.1057 -0.2851 -0.9527 0 0 0
211.9112 169.7057 613.6884 -0.3530 -0.0716 -0.9329 0 0 0
295.5482 162.5205 578.1527 0.1716 0.1214 -0.9777 0 0 0
276.2128 166.6385 593.5458 0.5765 -0.1428 -0.8045 0 0 0
262.3333 161.5989 582.4089 0.3204 -0.1964 -0.9267 0 0 0
249.2274 156.7409 575.5071 0.3668 -0.4979 -0.7859 0 0 0
242.0354 165.6603 594.4194 0.2285 -0.1623 -0.9599 0 0 0
227.2019 174.0871 615.9714 0.0435 -0.2923 -0.9553 0 0 0
214.4957 168.4231 608.8603 -0.1368 -0.0580 -0.9889 0 0 0
193.4056 174.2579 625.1340 -0.7487 -0.2610 -0.6094 0 0 0
303.0305 164.2031 578.9248 0.0619 0.1353 -0.9889 0 0 0
288.0291 170.8936 602.1470 0.5069 -0.1073 -0.8553 0 0 0
256.0543 171.3530 602.1792 0.2749 0.0405 -0.9606 0 0 0
233.4030 175.3797 608.6565 -0.2532 -0.0981 -0.9624 0 0 0
201.6187 176.8452 623.4006 -0.6676 -0.1686 -0.7252 0 0 0
181.6233 185.0415 652.3524 -0.6092 -0.0373 -0.7921 0 0 0
151.1157 167.3903 636.7264 0.0000 0.0000 0.0000 0 0 0
308.8269 165.3564 580.8752 0.1841 0.0754 -0.9800 0 0 0
262.1964 172.4587 597.9461 0.4329 -0.2480 -0.8667 0 0 0
206.1109 176.7402 618.1364 -0.5473 -0.2366 -0.8028 0 0 0
184.9713 183.3584 641.6158 -0.9099 -0.1380 -0.3913 0 0 0
337.8075 175.4080 581.1584 -0.1071 -0.4164 -0.9028 0 0 0
320.3390 168.8615 584.5148 0.3084 -0.0923 -0.9468 0 0 0
284.7499 167.2708 581.3075 0.1831 0.4015 -0.8974 0 0 0
265.8043 172.3174 598.8450 0.0752 0.4381 -0.8958 0 0 0
233.1458 172.3206 600.4164 0.0396 0.1051 -0.9937 0 0 0
212.5474 177.7373 615.0889 -0.2620 -0.2666 -0.9275 0 0 0
351.3389 167.3440 572.9864 -0.2276 0.4585 -0.8590 0 0 0
326.1407 158.3512 547.9902 0.0000 0.0000 0.0000 0 0 0
330.8727 170.9079 580.7509 -0.1691 -0.2468 -0.9542 0 0 0
305.3574 173.8506 585.1353 -0.0545 0.1030 -0.9932 0 0 0
292.5408 169.3503 584.0565 0.0802 0.2632 -0.9614 0 0 0
242.4776 175.4614 603.7759 0.0857 0.1183 -0.9893 0 0 0
220.9784 180.6395 613.2988 0.0289 -0.3697 -0.9287 0 0 0
189.0196 182.3872 632.3030 -0.8584 -0.1254 -0.4975 0 0 0
266.4842 170.4581 583.3511 0.2051 0.0629 -0.9767 0 0 0
194.2647 182.7596 628.3796 -0.7621 -0.1726 -0.6241 0 0 0
301.3059 170.1902 577.7337 -0.0050 0.1136 -0.9935 0 0 0
288.8407 178.2180 603.7223 -0.6087 -0.4809 -0.6310 0 0 0
271.0832 170.9337 580.9771 0.6309 -0.3198 -0.7069 0 0 0
240.7068 171.7916 592.3635 0.0137 -0.0575 -0.9983 0 0 0
217.1283 174.7584 602.3162 0.1304 -0.0917 -0.9872 0 0 0
198.4622 182.0994 621.3170 0.0000 0.0000 0.0000 0 0 0
180.0009 192.5123 653.8329 -0.3053 -0.0341 -0.9517 0 0 0
352.4191 176.0201 578.5167 -0.0108 0.3704 -0.9288 0 0 0
309.5943 172.5702 579.0554 0.1840 -0.0535 -0.9815 0 0 0
258.1119 177.2416 595.3448 0.4532 -0.3727 -0.8098 0 0 0
244.8310 171.7420 585.0773 0.2769 -0.0321 -0.9604 0 0 0
226.0266 177.8529 603.0067 0.0030 -0.0870 -0.9962 0 0 0
195.7164 180.0849 624.2516 -0.6954 -0.1991 -0.6905 0 0 0
184.7941 191.2160 644.4890 -0.9378 -0.0212 -0.3465 0 0 0
315.2137 173.5874 580.4944 0.2252 -0.1901 -0.9556 0 0 0
273.5824 183.7481 606.4023 0.4495 -0.2649 -0.8531 0 0 0
204.1689 183.0599 614.1375 -0.5399 -0.3194 -0.7787 0 0 0
353.7349 175.0751 580.0095 -0.1394 0.2330 -0.9624 0 0 0
322.0642 175.2799 581.8524 -0.0197 -0.3753 -0.9267 0 0 0
290.1075 175.1868 579.8367 0.0293 -0.0202 -0.9994 0 0 0
269.6651 166.5157 575.6906 0.1901 0.4057 -0.8940 0 0 0
239.7701 181.1640 600.7886 -0.0148 -0.0381 -0.9992 0 0 0
229.3990 177.0651 592.8934 0.0168 0.0897 -0.9958 0 0 0
205.6317 180.0572 604.6819 -0.4378 -0.3224 -0.8393 0 0 0
187.2822 188.9674 631.9782 -0.8660 -0.0759 -0.4942 0 0 0
353.3669 173.6350 578.4577 0.0209 0.1486 -0.9887 0 0 0
295.7503 176.0126 579.9500 0.0124 0.0045 -0.9999 0 0 0
210.7744 180.6524 602.4160 -0.2076 -0.3485 -0.9140 0 0 0
193.7979 190.0220 629.0006 -0.7977 -0.1877 -0.5731 0 0 0
348.7469 182.5686 586.5567 0.2663 -0.2226 -0.9378 0 0 0
332.2584 176.6665 579.6211 0.0115 -0.3408 -0.9401 0 0 0
302.0303 177.3344 578.8295 -0.0275 0.0285 -0.9992 0 0 0
250.7588 168.7343 581.6503 0.2688 -0.7067 -0.6545 0 0 0
219.9954 184.1843 605.4481 0.0492 -0.2385 -0.9699 0 0 0
370.4603 178.2724 580.7434 0.2109 -0.1332 -0.9684 0 0 0
306.0309 177.6543 579.2859 0.0724 0.0200 -0.9972 0 0 0
277.7242 179.5300 583.4687 -0.0189 0.1906 -0.9815 0 0 0
258.7855 171.1488 572.9105 0.3922 -0.2112 -0.8953 0 0 0
229.0920 187.4547 607.0088 -0.1716 -0.1792 -0.9687 0 0 0
196.1747 188.0099 618.9005 -0.7730 -0.2036 -0.6008 0 0 0
184.0008 198.8906 644.9019 -0.9408 0.0524 -0.3349 0 0 0
341.8327 177.9782 579.6915 0.0978 -0.0711 -0.9927 0 0 0
312.0112 178.7204 579.1483 0.0503 -0.1115 -0.9925 0 0 0
282.1623 179.7193 581.7541 0.0129 -0.0904 -0.9958 0 0 0
250.8102 180.1626 589.8591 0.3393 -0.2238 -0.9137 0 0 0
232.9620 171.6947 578.5441 0.2553 -0.8654 -0.4311 0 0 0
202.4787 189.0607 612.6068 -0.6689 -0.1654 -0.7247 0 0 0
351.4362 180.7889 580.1860 -0.0233 -0.1244 -0.9920 0 0 0
319.8806 181.0433 579.6841 -0.0738 -0.2976 -0.9518 0 0 0
288.4815 181.2142 579.7095 -0.0504 -0.0717 -0.9962 0 0 0
258.7226 182.2977 594.3198 0.1467 -0.5608 -0.8148 0 0 0
223.4559 180.3221 587.8586 -0.1736 0.0392 -0.9840 0 0 0
207.9987 189.6789 610.5706 -0.6272 -0.0823 -0.7745 0 0 0
187.9489 197.6870 636.4971 -0.8899 -0.1222 -0.4396 0 0 0
353.4886 180.3694 577.6512 0.0000 0.0000 0.0000 0 0 0
355.9379 181.5684 580.5380 0.0735 -0.1135 -0.9908 0 0 0
324.1547 181.4113 578.5722 -0.1144 -0.3897 -0.9138 0 0 0
292.6507 181.3664 579.6693 0.0195 0.0432 -0.9989 0 0 0
267.3951 185.1813 588.0460 -0.1750 -0.3722 -0.9115 0 0 0
231.6339 182.9462 590.9672 0.0493 -0.0462 -0.9977 0 0 0
210.9621 188.3777 604.4260 -0.4433 -0.0944 -0.8914 0 0 0
190.2349 194.9511 626.6870 -0.8720 -0.1042 -0.4782 0 0 0
361.6483 182.5980 577.5386 0.0768 -0.0992 -0.9921 0 0 0
331.7503 183.2704 579.0942 0.0353 -0.3722 -0.9275 0 0 0
298.7420 182.5786 580.3503 -0.0037 0.0458 -0.9989 0 0 0
270.0944 184.3643 583.8319 0.0029 -0.0619 -0.9981 0 0 0
240.6438 186.1561 595.1764 -0.1842 -0.3140 -0.9314 0 0 0
368.8727 184.3138 579.1352 0.0002 -0.1923 -0.9813 0 0 0
335.1192 183.1694 578.5825 0.1335 -0.3187 -0.9384 0 0 0
306.7206 184.8219 581.4160 0.0000 0.0000 0.0000 0 0 0
306.5501 184.7028 581.7143 -0.0151 0.0667 -0.9977 0 0 0
276.3564 185.6593 582.9702 -0.0225 0.1014 -0.9946 0 0 0
244.4040 185.5934 589.7685 -0.2595 -0.1612 -0.9522 0 0 0
212.6594 186.2364 594.1309 -0.2761 -0.0968 -0.9562 0 0 0
194.7951 194.6695 617.3847 -0.7649 -0.2463 -0.5952 0 0 0
344.7688 186.2647 579.7184 0.0685 -0.4504 -0.8902 0 0 0
312.7083 186.0207 579.6606 -0.1004 -0.0308 -0.9945 0 0 0
282.7614 187.1039 582.7043 -0.1736 0.0146 -0.9847 0 0 0
253.2424 188.7347 588.9081 0.0551 -0.0857 -0.9948 0 0 0
221.8018 189.5914 596.7481 0.0090 0.0537 -0.9985 0 0 0
200.4099 194.9282 612.0782 -0.6832 -0.1573 -0.7130 0 0 0
348.0273 186.0910 576.9905 -0.0198 -0.4099 -0.9119 0 0 0
319.2349 187.5257 578.3855 -0.1610 -0.1463 -0.9761 0 0 0
286.4760 187.0357 580.3847 -0.1665 -0.0052 -0.9860 0 0 0
257.4662 188.7523 586.3155 -0.1678 -0.1334 -0.9768 0 0 0
229.7546 192.0882 598.9745 -0.0820 -0.0189 -0.9965 0 0 0
204.5411 194.2655 609.6884 -0.6094 -0.0862 -0.7881 0 0 0
186.3113 204.0316 636.0624 -0.9394 0.1213 -0.3207 0 0 0
321.5629 186.7187 576.1416 -0.1316 -0.2562 -0.9576 0 0 0
293.6593 188.8763 581.1726 -0.0338 -0.0133 -0.9993 0 0 0
262.4937 189.2394 585.2168 -0.1046 -0.1647 -0.9808 0 0 0
235.6990 193.0526 595.2748 -0.0945 0.0423 -0.9946 0 0 0
209.7732 194.8877 606.7773 -0.5495 0.1146 -0.8276 0 0 0
363.0165 189.8532 580.5938 0.0747 -0.2291 -0.9705 0 0 0
353.9774 187.2003 577.4658 0.0905 -0.2475 -0.9647 0 0 0
299.9425 190.0735 582.0413 0.0000 0.0000 0.0000 0 0 0
300.1883 190.3279 582.2831 0.0398 -0.0827 -0.9958 0 0 0
