# .PCD v0.7 - Point Cloud Data file format
VERSION 0.7
FIELDS x y z
SIZE 4 4 4
TYPE F F F
COUNT 1 1 1
WIDTH 1317
HEIGHT 1
VIEWPOINT 0 0 0 1 0 0 0
POINTS 1317
DATA ascii
-0.075217426 0.13110141 0.049387805
-0.072523996 0.10501245 0.043510541
-0.059041705 0.11978506 0.043276086
-0.087531202 0.11877193 0.043598965
-0.07320971 0.1327751 0.049196992
-0.051140159 0.12002668 0.037726171
-0.058776934 0.13851236 0.037307274
-0.068211697 0.11317581 0.045627873
-0.074850813 0.13206187 0.047430646
-0.05635684 0.12627319 0.040808301
-0.067388982 0.14297448 0.042817548
-0.071392551 0.11545303 0.048349731
-0.083615914 0.13129708 0.046676736
-0.054264288 0.10735466 0.041689906
-0.054547261 0.12744455 0.036765836
-0.075030878 0.10905265 0.04330517
-0.071378671 0.12882078 0.048511144
-0.081115067 0.1049149 0.038254779
-0.061093796 0.1042046 0.043782584
-0.081532232 0.1232943 0.048009261
-0.06156138 0.12480533 0.042989276
-0.085685939 0.13957244 0.043059085
-0.091003314 0.12027417 0.038052034
-0.067115359 0.13361128 0.047689583
-0.073413111 0.11462771 0.048853848
-0.090159766 0.11569582 0.036460996
-0.072064042 0.10700633 0.045634549
-0.083761483 0.1326005 0.048580464
-0.064924523 0.12586939 0.04659396
-0.089706615 0.13729399 0.039548863
-0.091190651 0.11715189 0.033175543
-0.072827756 0.13363948 0.049952637
-0.076192558 0.1139046 0.047940996
-0.091560654 0.11621535 0.032627471
-0.093090929 0.13621949 0.034152586
-0.078608997 0.11618091 0.047921073
-0.078415357 0.13618046 0.047785778
-0.091946937 0.12213892 0.035079326
-0.082012601 0.10458644 0.039587993
-0.080177471 0.13098438 0.049577072
-0.066877395 0.11596145 0.046795711
-0.088368937 0.1075043 0.033753991
-0.093254171 0.12712362 0.031135317
-0.074369624 0.11327761 0.047062527
-0.083090723 0.13131501 0.048110154
-0.048608232 0.14627318 0.018295819
-0.063740641 0.15937753 0.017660782
-0.056066602 0.13836145 0.035143033
-0.071454361 0.15119492 0.034228142
-0.047668763 0.14674152 0.015661843
-0.062275559 0.16050082 0.014465711
-0.055161435 0.13998686 0.033061627
-0.070367262 0.15320612 0.031275854
-0.025219804 0.16650696 -0.0074252132
-0.033579919 0.18471125 -0.0054244385
-0.040498082 0.15841272 0.0026298482
-0.049120519 0.17647804 0.0041072434
-0.026397716 0.16667759 -0.0067375912
-0.034806978 0.18485585 -0.0048348713
-0.041754205 0.15854193 0.0031614243
-0.050467219 0.17655927 0.0044581071
-0.024998249 0.16414183 -0.0067790239
-0.033947486 0.18204693 -0.0053523546
-0.040041119 0.15583059 0.0034531015
-0.049477044 0.17346682 0.0039190901
-0.021190494 0.15268873 -0.0043637138
-0.031737626 0.16968273 -0.0047013494
-0.035618365 0.14392763 0.006400892
-0.046747807 0.16056803 0.0048818858
-0.059537444 0.16134398 3.7089219e-05
-0.039836474 0.15557598 0.0039765248
-0.063607424 0.15410376 0.019233547
-0.047584832 0.14179215 0.016780205
-0.028818615 0.16577037 -0.0030156823
-0.045208331 0.17746259 -0.0076931627
-0.040771667 0.15253644 0.0060419068
-0.057277773 0.1640998 0.001012641
-0.060140669 0.16709512 -0.0045971377
-0.040881012 0.17305161 -0.0032548474
-0.058201503 0.15606202 0.012101046
-0.0364011 0.14756262 0.0056642122
-0.03024818 0.15575448 -0.0030221376
-0.045927431 0.16820753 -0.0017985825
-0.040559616 0.14141299 0.0068597714
-0.054608487 0.15613364 0.011650805
-0.061451919 0.16311534 -0.00074544043
-0.041568074 0.16594838 0.00042443658
-0.06106776 0.15538923 0.018034233
-0.040321313 0.14087385 0.0081728026
-0.071042128 0.15826638 0.021384491
-0.052892812 0.1498293 0.021917488
-0.075918391 0.14874414 0.038307887
-0.058462031 0.13895388 0.037778657
-0.081654347 0.15527217 0.02318291
-0.061637923 0.15734001 0.024556937
-0.081733391 0.14495255 0.040316373
-0.061755907 0.14193639 0.03854521
-0.071268231 0.16022211 0.016083434
-0.052497268 0.15320215 0.016921163
-0.074934103 0.15204845 0.034127012
-0.057112288 0.14291222 0.033442367
-0.082132541 0.15586592 0.016886197
-0.062289774 0.16020744 0.018622153
-0.081856355 0.14894025 0.035760682
-0.061789092 0.14765216 0.03473955
-0.088286407 0.14993969 0.019318717
-0.070908517 0.16318952 0.026108773
-0.086226307 0.14139782 0.03779852
-0.066924214 0.14666924 0.038260411
-0.089768447 0.14637868 0.012100688
-0.07359001 0.16181877 0.017632106
-0.088526942 0.14233842 0.032616418
-0.070791148 0.15271039 0.035217099
-0.091991805 0.14191005 0.0074441889
-0.082364447 0.16249628 0.013632775
-0.090422213 0.13979535 0.028988816
-0.076435208 0.15450786 0.030982966
-0.066825591 0.15884256 -0.0008082221
-0.045903072 0.16174883 0.0036947145
-0.067558981 0.15502048 0.020604301
-0.04915721 0.14478979 0.016245294
-0.068294257 0.16002977 -0.0019417998
-0.048970811 0.16658308 8.1495447e-05
-0.068017796 0.15787372 0.019335495
-0.046315406 0.14587423 0.01199688
-0.09253487 0.14165565 0.0054565906
-0.083917074 0.16217802 0.010268688
-0.090933613 0.13982579 0.026553612
-0.078009494 0.15542702 0.028144553
-0.047391895 0.14026384 0.020896226
-0.059889462 0.15588304 0.02061368
-0.05601361 0.13363403 0.037720613
-0.069359452 0.14860095 0.0366548
-0.044220895 0.13033411 0.024171559
-0.055245694 0.14702672 0.023791624
-0.055917606 0.12296934 0.038653933
-0.065335467 0.14067374 0.03993148
-0.045621544 0.14096111 0.016341571
-0.057228047 0.15724935 0.016436944
-0.05387117 0.1349989 0.033645209
-0.066480912 0.15056209 0.03285988
-0.033493105 0.13022077 0.016351895
-0.048172005 0.14403534 0.014087955
-0.044993874 0.12071419 0.02982839
-0.056952894 0.13677703 0.030744174
-0.040398873 0.13247567 0.018077215
-0.052405979 0.1484793 0.01767057
-0.051126085 0.1248673 0.033203132
-0.061477706 0.1420451 0.034338016
-0.0091911824 0.1286051 0.021261744
-0.028981794 0.12568641 0.021691911
-0.0072444808 0.11712997 0.037893426
-0.026863642 0.11320064 0.037304088
-0.013231302 0.12485863 0.027378509
-0.032899357 0.12119222 0.028002795
-0.010247201 0.11089355 0.041472834
-0.029694872 0.10619578 0.040841769
-0.022092657 0.1231998 0.025953012
-0.042106565 0.1235702 0.027036561
-0.021758154 0.10873253 0.039944209
-0.041725036 0.10706906 0.0383812
-0.031920094 0.12891097 0.016276062
-0.011870635 0.12954511 0.014779517
-0.030633235 0.11711353 0.032626789
-0.010886387 0.1205219 0.033835687
-0.02207645 0.12848417 0.014482105
-0.041909598 0.1317672 0.01687027
-0.022774728 0.11737189 0.032257345
-0.042766269 0.11813424 0.031678244
-0.015606123 0.12783068 0.020062875
-0.035587262 0.12650478 0.021257147
-0.014214923 0.11592452 0.036892008
-0.033967804 0.11264513 0.035742123
-0.021607535 0.12647583 0.019979835
-0.0415719 0.12828445 0.021791138
-0.021897422 0.11359213 0.0361287
-0.041912887 0.11312973 0.034912553
-0.041564591 0.12157815 0.028371742
-0.052842334 0.13823014 0.025745107
-0.056511924 0.11360728 0.039224081
-0.064049549 0.13225375 0.041859515
-0.02995326 0.12061899 0.026801959
-0.048931453 0.12704645 0.0286022
-0.034095999 0.10539667 0.039175082
-0.053451348 0.11043829 0.038852964
-0.03804522 0.11666923 0.031577699
-0.052591495 0.13040611 0.030613678
-0.051118664 0.10355876 0.039463364
-0.063996702 0.1189686 0.042685702
-0.030266661 0.12662114 0.017118586
-0.047517087 0.1367843 0.018311096
-0.036548261 0.11472658 0.032388553
-0.053787805 0.12491035 0.033610899
-0.035331398 0.12493733 0.022164283
-0.049800795 0.13889231 0.019720763
-0.047323037 0.11478478 0.034548603
-0.059024438 0.13108324 0.036479268
-0.030004701 0.12343165 0.022561606
-0.047909416 0.13236755 0.023565281
-0.03628923 0.10973462 0.036064256
-0.054342892 0.1183459 0.036520727
-0.033906039 0.12188339 0.025237054
-0.050105926 0.13361797 0.024678297
-0.043716218 0.10885406 0.036832117
-0.058902778 0.12193448 0.038819361
-0.022416977 0.14949328 -0.0033819831
-0.034538604 0.16541915 -0.0021385609
-0.035208963 0.13897392 0.007879422
-0.04806212 0.15429822 0.0075588026
-0.038195375 0.14431265 0.0074784593
-0.051574446 0.15925589 0.0062324861
-0.048712909 0.13624142 0.022470582
-0.060650699 0.1522907 0.022717319
-0.031576052 0.13297676 0.014380434
-0.047444183 0.14554876 0.011752403
-0.043175694 0.12227623 0.02725191
-0.055668794 0.13796167 0.02846821
-0.034796894 0.13669521 0.011704973
-0.048922431 0.15113014 0.0095238145
-0.046962224 0.1277325 0.025294378
-0.057152744 0.14506653 0.026906576
-0.030414317 0.14788681 -0.00097289315
-0.043726645 0.16291949 0.0011485654
-0.041084033 0.13658901 0.011623415
-0.054152526 0.15187989 0.014166048
-0.034391042 0.14687242 0.0037349323
-0.049669042 0.15978552 0.0033251003
-0.04449537 0.13539925 0.016722655
-0.057483513 0.15091242 0.019803081
-0.033471838 0.13233799 0.010842986
-0.013317785 0.13135833 0.0083187744
-0.032516483 0.12103184 0.027636349
-0.012667313 0.12366031 0.028531415
-0.020721016 0.13186881 0.010991188
-0.040391594 0.13569488 0.012380326
-0.022207219 0.12045937 0.028095117
-0.04215844 0.12213096 0.027075857
-0.028037444 0.13168205 0.012432374
-0.045447364 0.14152719 0.012262651
-0.034997474 0.11962602 0.026793441
-0.05178519 0.13054891 0.027809171
-0.067745999 0.15615578 0.027163686
-0.05168407 0.14396244 0.024978289
-0.074411012 0.14454135 0.04203172
-0.058113135 0.13275917 0.040247664
-0.082000524 0.153465 0.0284563
-0.062143248 0.15610513 0.029472277
-0.08104039 0.14079422 0.043925393
-0.060679018 0.1367819 0.038954657
-0.048836451 0.13334583 0.028781634
-0.060453411 0.14966483 0.030059749
-0.059486654 0.12482482 0.043557461
-0.07225088 0.14022592 0.043164913
-0.090788722 0.14215341 0.02164446
-0.076569431 0.15869279 0.028576681
-0.087612577 0.1355826 0.041400533
-0.069609605 0.14429425 0.04140738
-0.084006965 0.15497731 0.024950875
-0.09218131 0.13456923 0.017750127
-0.075427882 0.14598133 0.040618509
-0.089951709 0.13223128 0.040676005
-0.087397411 0.14923543 0.02867116
-0.093439698 0.1292198 0.023427408
-0.076413475 0.14189804 0.043689899
-0.088781975 0.12610839 0.04499279
-0.091541506 0.14140484 0.011793373
-0.080547705 0.16174412 0.020612311
-0.089636557 0.13829564 0.034145035
-0.073983423 0.15103011 0.036183275
-0.092049748 0.13554506 0.0099995043
-0.085237533 0.15703543 0.016483132
-0.091413938 0.13490766 0.033004221
-0.079008125 0.15079047 0.034551933
-0.092258342 0.12715465 0.011694825
-0.089938991 0.14820333 0.014497093
-0.093064129 0.12753852 0.03361493
-0.085293621 0.14599027 0.033985708
-0.048153132 0.12270281 0.032185018
-0.056110337 0.14106016 0.031464659
-0.063063279 0.1167266 0.044106368
-0.069506727 0.13569069 0.045497838
-0.047147024 0.10640664 0.04033298
-0.052211981 0.12598875 0.033151381
-0.068352766 0.10420826 0.041226633
-0.068544842 0.12429553 0.045699883
-0.092607416 0.117649 0.026965873
-0.093465954 0.1376345 0.027264431
-0.084383264 0.11783873 0.045801345
-0.083493225 0.13786459 0.044785701
-0.08951132 0.10675431 0.028280297
-0.093031533 0.12670152 0.026093919
-0.078482538 0.11057712 0.044528171
-0.086629719 0.12892053 0.045680631
-0.093355358 0.11720876 0.015077691
-0.093732007 0.13720694 0.015127959
-0.089785799 0.117229 0.034757424
-0.089817904 0.13722914 0.034741905
-0.092145883 0.11083189 0.014131934
-0.0923253 0.13112611 0.013332046
-0.087257348 0.11171919 0.03351045
-0.091614857 0.13125505 0.03369572
-0.09203545 0.13439658 0.0078110648
-0.089041665 0.15506901 0.0099170953
-0.092683226 0.13469875 0.029247148
-0.082395427 0.15196872 0.028540265
-0.091390699 0.12627839 0.0087218089
-0.091399409 0.14737387 0.010489025
-0.093570828 0.12700878 0.030009469
-0.087175854 0.14595889 0.029997919
-0.092863455 0.10626522 0.0090383086
-0.091614969 0.12670122 0.0082649905
-0.086807057 0.10720909 0.028265487
-0.091201559 0.12676565 0.028500387
0.035961177 0.098970376 0.033093974
0.023800753 0.11486442 0.033915631
0.024790611 0.089782514 0.046950918
0.011212048 0.10451014 0.045631785
0.041222431 0.084880672 0.030664006
0.035031289 0.10393734 0.031844627
0.028934455 0.08004348 0.045716301
0.021405585 0.098573551 0.045505088
0.037572637 0.09066084 0.034871146
0.028288055 0.10838929 0.035723023
0.024671098 0.08331126 0.04829618
0.014030917 0.10026746 0.047270682
0.041164648 0.078210913 0.032188669
0.037068538 0.097786963 0.032190885
0.027334254 0.075315438 0.046342924
0.023100059 0.09486258 0.046203159
0.037191104 0.078997083 0.037311517
0.032271799 0.09839005 0.03796779
0.022236466 0.074774675 0.049902562
0.016389621 0.093905747 0.0493773
0.040708311 0.069048949 0.032892235
0.038988598 0.088978253 0.032503493
0.025647985 0.06802737 0.046037197
0.024942772 0.088025495 0.046725485
0.035240393 0.06677375 0.038055681
0.035542391 0.086771488 0.038086649
0.019270197 0.066996574 0.05009418
0.019424669 0.086996369 0.049926333
0.02715791 0.091898553 0.044330534
0.012863215 0.1058865 0.044268392
0.014628887 0.079135418 0.053283531
0.0003978415 0.093188204 0.053399019
0.020330671 0.096678585 0.046412028
0.0029996822 0.10666794 0.045559801
0.01082068 0.080894969 0.054205082
-0.0062998477 0.091233626 0.054248638
0.029605381 0.10529495 0.035725098
0.013518467 0.11718652 0.036344491
0.020520804 0.092415094 0.04806399
0.0038247572 0.10344306 0.047213469
0.020216927 0.11097595 0.037656043
0.0013754343 0.11768402 0.037674181
0.014700227 0.095450081 0.048992425
-0.0042928481 0.10173155 0.048353162
0.030840933 0.095502421 0.04029097
0.016662762 0.10960955 0.040567216
0.019075248 0.083464786 0.051092204
0.0046270834 0.097295687 0.050769877
0.021410141 0.10242576 0.042808015
0.0034075559 0.11114432 0.042198326
0.013465914 0.086681731 0.052242778
-0.0044275271 0.095616594 0.052086014
0.0082573872 0.10320473 0.047014326
-0.011731509 0.1038731 0.046897806
0.0075934557 0.084786065 0.054792088
-0.012385588 0.085727766 0.055286985
-0.0056055565 0.10634216 0.046281569
-0.023853386 0.098151989 0.046881199
0.0020138239 0.089917302 0.054828625
-0.016093904 0.081425123 0.054627646
0.0084511582 0.11519451 0.038454261
-0.011544592 0.11568957 0.038031131
0.0078004897 0.098283701 0.049115647
-0.012180536 0.099161454 0.049283702
-0.0040999833 0.11729094 0.037436698
-0.023547525 0.11262257 0.037471093
-0.00021151875 0.10117492 0.048623931
-0.019654421 0.096487328 0.048629083
0.008671267 0.10939243 0.042588647
-0.011311849 0.11022546 0.042337906
0.0078178821 0.091821156 0.052103542
-0.012152865 0.092908874 0.052318357
-0.0057396889 0.11183491 0.041803744
-0.024823269 0.10584973 0.041935168
-0.00051458256 0.095386408 0.051919069
-0.019510809 0.089126244 0.051533755
0.02815802 0.080390863 0.045813009
0.019649679 0.098490827 0.045861512
0.011884434 0.072718263 0.054550625
0.003192062 0.090731457 0.054168709
0.021380994 0.086425669 0.049782559
0.0066358652 0.099940129 0.049048644
0.0082274722 0.072421178 0.055387013
-0.0061060074 0.086373918 0.056461971
0.026059328 0.067280672 0.045980655
0.025531655 0.08727546 0.046532482
0.0081530949 0.06657099 0.054865059
0.007199374 0.086548895 0.054527596
0.017503064 0.066882044 0.051605344
0.017310223 0.086881541 0.05105105
-0.0018486005 0.066822015 0.05668018
-0.002068307 0.086821429 0.056012046
0.03199311 0.082472764 0.042735398
0.023593735 0.10062375 0.04288879
0.016399959 0.075172938 0.052914064
0.0075920289 0.09313266 0.052286901
0.029635046 0.065434918 0.042758152
0.030590223 0.08541292 0.043060981
0.012563251 0.066096373 0.053157307
0.013120478 0.08608979 0.052793793
0.0086629819 0.095356047 0.051855709
-0.01131101 0.096375875 0.051781323
0.0076492452 0.075869597 0.056284256
-0.012317898 0.077021055 0.056719232
-0.01016282 0.099764027 0.050229821
-0.025081553 0.08644361 0.05038511
0.0024498433 0.08569973 0.056934252
-0.012282885 0.072171904 0.056096174
0.0087549072 0.0860596 0.054626141
-0.011189254 0.087553091 0.055549685
0.0072724423 0.066127039 0.055864293
-0.012672811 0.067605846 0.055446532
-0.021974612 0.085902214 0.052005328
-0.019679483 0.066034161 0.051669389
-0.0024921657 0.088069409 0.05606208
-0.00069850107 0.068145573 0.057731722
0.039189965 0.056639913 0.033215482
0.040979497 0.0765808 0.032058626
0.022871528 0.058861904 0.044635564
0.02667154 0.07852903 0.046037797
0.033682749 0.055329435 0.036858633
0.037522875 0.07496573 0.036101103
0.017682109 0.058938839 0.048328612
0.022529272 0.078347966 0.048931241
0.029709928 0.045909397 0.035379671
0.037453622 0.064354189 0.035956688
0.014885512 0.051771566 0.047464941
0.02244064 0.070290923 0.047762286
0.023536727 0.035541434 0.032316826
0.035575096 0.05156732 0.034157727
0.010750975 0.043885142 0.045342959
0.022196751 0.060297735 0.046199527
0.02031363 0.055016443 0.046370611
0.027230432 0.073783405 0.045920089
0.003249964 0.061502494 0.054541502
0.010402019 0.080180034 0.054650776
0.0096749002 0.053427387 0.050840799
0.021023048 0.069900423 0.049630493
-0.0060999482 0.064737484 0.055773448
0.0056619337 0.080913879 0.056202311
0.015583293 0.045836285 0.045104735
0.026406737 0.062656477 0.044579118
0.00034589868 0.055919807 0.053265806
0.011724479 0.07237263 0.054104585
0.0075321551 0.043606497 0.047828611
0.021003032 0.058396667 0.046597246
-0.0063942974 0.056892235 0.053464044
0.0079007186 0.070896178 0.055266928
0.025256628 0.053899471 0.042570338
0.031325668 0.072957106 0.042310372
0.0088258963 0.059279956 0.052645631
0.015115147 0.078265473 0.05275492
0.020248283 0.044090867 0.041232724
0.030181052 0.061450075 0.041300971
0.0053423201 0.052575439 0.051553145
0.015563698 0.069770373 0.052124854
0.012416539 0.039640911 0.043982733
0.025211407 0.055030063 0.042498283
-0.0011982063 0.051828708 0.052147228
0.012452447 0.066451766 0.052994646
-0.011426154 0.05673562 0.05292749
0.0085587464 0.057513978 0.052579924
-0.012151592 0.076522261 0.055758666
0.0078346711 0.077263415 0.055694744
-0.023612762 0.072809368 0.048745397
-0.01644068 0.054132275 0.050668217
-0.0065206736 0.079889864 0.056935009
0.001852985 0.061710533 0.054066934
-0.01286396 0.048318114 0.050564032
0.0070416508 0.046359055 0.049152907
-0.010680118 0.067831539 0.054367278
0.0092021031 0.065663479 0.054067597
-0.023753414 0.063152961 0.046446953
-0.017317232 0.044197038 0.050544031
-0.0065354165 0.069843873 0.055759341
0.0017384191 0.051602062 0.050539091
-0.027349228 0.059123635 0.04430145
-0.022590462 0.039628185 0.050715871
-0.0099133234 0.064933993 0.053138874
-0.0028075289 0.046220668 0.049928751
0.0034754134 0.036908589 0.046629716
0.019344268 0.049122065 0.044191301
-0.007552973 0.052814025 0.052133814
0.0091767143 0.063785985 0.053398781
0.017307473 0.034507077 0.035821673
0.030448716 0.04961079 0.037094429
0.0049445871 0.044320498 0.04813822
0.017702574 0.059728429 0.048720878
0.0073296377 0.031771537 0.042921491
0.021794608 0.045635264 0.040909823
-0.0048369295 0.04609124 0.050459772
0.010853842 0.058512237 0.051623624
0.015109456 0.028727639 0.033341102
0.028836608 0.043297786 0.03449475
0.0033043579 0.038938321 0.045873366
0.017117782 0.053433847 0.047181688
0.0058265468 0.026109003 0.041265924
0.020725342 0.039541952 0.038765151
-0.0056200079 0.040976837 0.048965372
0.010535346 0.052777655 0.049777038
-0.0080135213 0.037274178 0.05018523
0.010685155 0.044438202 0.046618599
-0.014415635 0.056800008 0.050894275
0.0048201317 0.062325954 0.053590741
-0.019777961 0.058553323 0.047953665
-0.024656534 0.039143432 0.051796712
-0.00058123807 0.054474343 0.051807877
-0.0043883743 0.034836788 0.049945649
-0.0204817 0.051962174 0.047734376
-0.027200334 0.033065718 0.057547465
-0.0012688269 0.046700384 0.049767721
-0.0069961324 0.027532434 0.052805539
-0.0066586644 0.030354409 0.051407438
0.010972978 0.039975189 0.044949647
-0.015049062 0.049812898 0.050072242
0.0035201891 0.057259236 0.051866204
-0.019438006 0.058737434 0.04814538
-0.02426869 0.039317366 0.05173343
-0.00021647841 0.054653183 0.051867511
-0.0039766687 0.035005655 0.049755305
-0.0045054895 0.023887925 0.052840725
0.011412162 0.036389932 0.043628242
-0.015207747 0.042952795 0.05060567
0.0022016799 0.052797373 0.050420668
-0.020227514 0.028679738 0.057621971
-0.00017834893 0.028259218 0.050482757
-0.01813337 0.050871979 0.048488222
0.0017500686 0.048695199 0.049946263
0.048327874 0.085019492 0.012100275
0.040944085 0.10365764 0.011365074
0.041644562 0.082890645 0.03102587
0.035874095 0.10204268 0.031193577
0.042322174 0.097639605 0.021562183
0.033172257 0.11545858 0.022415049
0.033944983 0.092732109 0.039320938
0.023018597 0.10951038 0.038594712
0.038359743 0.10231385 0.027290616
0.026485253 0.11841452 0.027733272
0.028618971 0.0947586 0.0431174
0.01517049 0.10963844 0.041741718
0.043284841 0.088457972 0.025082562
0.036992081 0.10745449 0.025607146
0.033052981 0.084676407 0.041922767
0.025271293 0.10312264 0.041228078
0.04060097 0.092922948 0.028945271
0.031795025 0.1109263 0.030192381
0.029612876 0.086641088 0.044526655
0.019137215 0.10368987 0.043915119
0.043092877 0.098642498 0.015927058
0.034096334 0.11653442 0.016540525
0.037006546 0.095179409 0.035036914
0.026317099 0.11210808 0.034489118
0.040480651 0.1043156 0.018575294
0.02910463 0.12079823 0.019342879
0.0336769 0.099075519 0.037083872
0.020741304 0.11435701 0.03640496
0.046383489 0.088473029 0.016356908
0.039214976 0.10714733 0.016159195
0.038912542 0.085750826 0.034861263
0.031860277 0.10446748 0.03473505
0.05139878 0.078093573 0.015400578
0.043555431 0.096675694 0.013690869
0.040866006 0.075182788 0.032151379
0.036782015 0.094803825 0.032996342
0.06250722 0.064307407 0.012637701
0.052837271 0.082355686 0.0092037246
0.048282657 0.060279872 0.026464231
0.043792099 0.079794645 0.027243571
0.055195402 0.068927087 0.016871948
0.047198996 0.08748363 0.014698968
0.041929111 0.0653423 0.031557113
0.038802784 0.085214823 0.033191957
0.045302365 0.078218579 0.026540779
0.039944325 0.097490519 0.026258338
0.032558449 0.074908391 0.041604474
0.028489523 0.094515175 0.042425487
0.046027709 0.067788079 0.028219633
0.041752227 0.087361217 0.027085179
0.030659368 0.065367334 0.04100319
0.029810546 0.085480221 0.043209709
0.049184334 0.078758769 0.019202067
0.042345472 0.097629048 0.018005123
0.038028426 0.075750753 0.035526823
0.03422948 0.095440701 0.036559235
0.051730022 0.068492152 0.021805936
0.045097213 0.087537393 0.0196342
0.037285388 0.065469593 0.0355331
0.035283443 0.085483856 0.037326273
0.047878772 0.087023921 0.0047250446
0.039649561 0.10535759 0.0038633312
0.044298839 0.085820884 0.024911815
0.037787881 0.10473197 0.02484688
0.046604849 0.086999863 -0.0022789806
0.0374658 0.10503691 -0.00331118
0.046121389 0.086838976 0.018713037
0.039263785 0.10563526 0.018514765
0.043450933 0.096865751 0.0062960656
0.03510033 0.11505877 0.0066890642
0.041309416 0.095770709 0.027225474
0.031977888 0.11346215 0.027107755
0.04535269 0.090546444 0.0062275892
0.038057134 0.10916913 0.0061582862
0.042953696 0.089630336 0.026755979
0.035654407 0.10825159 0.026685065
0.053942345 0.079774268 0.0072280713
0.043674767 0.09739542 0.0052035535
0.045726877 0.076954514 0.025248053
0.039989311 0.096130483 0.025653049
0.064332247 0.064871758 0.010495149
0.053800963 0.082662925 0.0065143406
0.050443787 0.060903046 0.024637859
0.045235205 0.080215201 0.024864396
0.060876746 0.066865452 0.012359882
0.051137023 0.08486826 0.0089695519
0.04738462 0.062963411 0.026771829
0.042919639 0.082491718 0.02765643
0.056496456 0.079488717 0.0020444547
0.043529797 0.096068323 -0.0012065815
0.048897304 0.076742046 0.020361381
0.041975986 0.095506705 0.020296611
0.031443283 0.1086577 0.031566411
0.01592553 0.12127776 0.031857904
0.02247574 0.097335488 0.045423452
0.0060358006 0.10879122 0.044038869
0.023404127 0.1140174 0.03383331
0.0051052151 0.12208899 0.033866644
0.017128823 0.099739991 0.046355486
-0.0015046103 0.10705048 0.045335177
0.050579272 0.046048678 0.022978885
0.053954203 0.065784827 0.021718156
0.034291461 0.049638115 0.03407995
0.038796518 0.069125205 0.034352399
0.063651994 0.057598423 0.015798492
0.055714652 0.076445587 0.011582965
0.047250144 0.054472137 0.027417656
0.044400722 0.074289083 0.028317817
0.056917358 0.057388645 0.020550866
0.05218064 0.077198029 0.016418537
0.040275861 0.056649715 0.032012966
0.040244028 0.076668009 0.032931156
0.061228007 0.046826739 0.016220888
0.061677948 0.06685099 0.01480084
0.04455597 0.048105817 0.027276658
0.046546757 0.068011858 0.027882682
0.055017989 0.045870364 0.019984959
0.057581238 0.065720543 0.018969402
0.038553894 0.048647854 0.031072473
0.042165555 0.068321168 0.031451013
0.043023553 0.055797882 0.030073931
0.044796214 0.075794406 0.02794157
0.026938254 0.058639433 0.041686565
0.030984316 0.078234345 0.042394821
0.038033865 0.053422842 0.032992229
0.04147191 0.073139258 0.032058921
0.022195768 0.056797724 0.044765607
0.026938187 0.076236196 0.045499716
0.04288828 0.04490285 0.026669431
0.047979884 0.064243965 0.026741026
0.027324211 0.048953217 0.03857404
0.032996472 0.068143226 0.039406974
0.033540986 0.042989891 0.031305175
0.041501567 0.061347142 0.032107946
0.018961273 0.048799716 0.04371405
0.026763497 0.067220069 0.044288594
0.051391173 0.056087106 0.024386747
0.049329646 0.076159552 0.02134726
0.034786996 0.056595221 0.035783604
0.036570467 0.076550007 0.03711585
0.048771147 0.049462508 0.025124583
0.050724372 0.069421619 0.023244422
0.032124765 0.052341644 0.035995208
0.036441568 0.071891956 0.037168562
0.046685651 0.039313518 0.019642871
0.053662941 0.058283191 0.023639219
0.030989975 0.042616941 0.031591356
0.037902072 0.061600335 0.035496552
0.055981733 0.040015709 0.0065491311
0.063438557 0.059451997 0.01593467
0.042278171 0.041185267 0.022359556
0.048200056 0.060752559 0.029242299
0.048779964 0.037078984 0.01218292
0.058641143 0.05551992 0.020659545
0.034211978 0.039950836 0.025787311
0.042794306 0.058643878 0.032455087
0.039371487 0.03722075 0.021458725
0.049358234 0.054885734 0.02614815
0.025607187 0.042160157 0.035340834
0.034062166 0.060374826 0.03780736
0.028501911 0.0354027 0.027399575
0.040494155 0.051632974 0.030900603
0.016170656 0.04218182 0.041911356
0.026395096 0.059383947 0.042786777
0.024081297 0.029516764 0.023568597
0.037862848 0.044502858 0.028444856
0.013314354 0.036197081 0.039835867
0.025001677 0.052482534 0.041557617
0.036455017 0.033248391 0.015606221
0.050639834 0.048360586 0.022932025
0.025437267 0.039099749 0.032353859
0.036699042 0.055764332 0.035222191
0.031236351 0.032244921 0.018867539
0.045449696 0.047189813 0.025619609
0.020319134 0.038403358 0.035513442
0.031838171 0.054868121 0.038118593
0.032679483 0.031076033 0.009720658
0.049395569 0.044771232 0.020699009
0.023597188 0.035990342 0.029330874
0.036401734 0.051802024 0.034343623
0.026972855 0.029570498 0.013384351
0.043593779 0.04286126 0.022954293
0.018206475 0.034914888 0.032928344
0.031229744 0.050398953 0.036954228
0.068868019 0.060240373 0.010241693
0.058586281 0.078085326 0.0057291584
0.053881064 0.055902526 0.023068087
0.048273254 0.07510031 0.023022955
0.059225366 0.06435176 0.015615308
0.050908122 0.082879215 0.012599643
0.044740517 0.060693681 0.029155791
0.041437924 0.080487564 0.03056179
0.064608179 0.048077643 0.0062990133
0.064682879 0.068132453 0.0087227197
0.051237874 0.047135934 0.022711072
0.051225781 0.067184627 0.024992641
0.055542346 0.039192889 -0.0049699428
0.06320931 0.059405811 0.012371138
0.04445339 0.038895342 0.018345214
0.049233425 0.059030801 0.029583668
0.046837881 0.035357594 -0.0059874249
0.061516423 0.054096714 0.016804632
0.036574267 0.036297787 0.016398754
0.046536863 0.055468909 0.030828798
0.023636676 0.035569236 0.032473139
0.035423476 0.051779125 0.034298353
0.010625812 0.043795712 0.045335542
0.021938417 0.06030542 0.046372857
0.018821478 0.028799992 0.027124695
0.033480253 0.042608317 0.030254744
0.0084888106 0.037468113 0.042463679
0.022156959 0.052107479 0.043875672
-0.01631413 0.10607271 0.044568308
-0.032353193 0.094119839 0.045411225
-0.0054435986 0.092006825 0.053908568
-0.020806497 0.079179034 0.052090015
-0.014593784 0.11691457 0.035893686
-0.033618946 0.11073501 0.03644995
-0.0093294811 0.1016956 0.047777638
-0.028021934 0.094554186 0.046841163
-0.024347235 0.11494526 0.035203867
-0.043593541 0.10936555 0.037451882
-0.018765382 0.099384502 0.04663289
-0.037227172 0.091617756 0.044690344
-0.01829371 0.11027263 0.040224053
-0.035994861 0.10091978 0.041888893
-0.0098984847 0.095976025 0.051615499
-0.026460355 0.084683031 0.049109947
-0.027183495 0.1093435 0.038473073
-0.045305118 0.10080049 0.041271631
-0.019073365 0.094466724 0.049786273
-0.035680469 0.083145574 0.045036256
-0.031642877 0.11093665 0.036414225
-0.051203448 0.11510804 0.036779191
-0.035388011 0.092805378 0.044054229
-0.055135768 0.096070565 0.04178717
-0.038176224 0.10475777 0.038940575
-0.053321723 0.11782184 0.03770924
-0.051148254 0.090074807 0.042965118
-0.066279307 0.10315524 0.041847058
-0.035509594 0.10887677 0.038125299
-0.054674018 0.10307542 0.040999979
-0.029362828 0.091617957 0.046395529
-0.047860324 0.08394403 0.043347117
-0.044745926 0.10872795 0.03884488
-0.064159252 0.10390105 0.042104051
-0.039663944 0.089978337 0.044582769
-0.058878817 0.08441925 0.04195274
-0.025105059 0.098651923 0.046868823
-0.031837165 0.079818241 0.046464372
-0.0074777436 0.092181072 0.053811971
-0.014794189 0.073561884 0.054884307
-0.035373919 0.093318388 0.044754677
-0.03572315 0.073320493 0.044206638
-0.016230609 0.092797868 0.050592214
-0.017413348 0.07282263 0.052394155
-0.030468332 0.085691497 0.047034498
-0.026698999 0.066049233 0.046659697
-0.011957305 0.089087963 0.05390567
-0.009101578 0.069278069 0.055672061
-0.02905467 0.10246726 0.043239642
-0.038774606 0.084977843 0.044975802
-0.012870663 0.094095282 0.051753663
-0.0216396 0.076113909 0.050378468
-0.03951513 0.098830238 0.04217862
-0.043910291 0.079316229 0.043240845
-0.020881211 0.094962478 0.048328992
-0.024971003 0.075385086 0.048409723
-0.037382949 0.082122654 0.043962952
-0.031737354 0.062928319 0.042605657
-0.01911265 0.08696162 0.050564356
-0.014632903 0.06745851 0.052220784
-0.045419686 0.082703643 0.04220828
-0.03790763 0.064150162 0.040057577
-0.026951099 0.089320667 0.046875082
-0.021045474 0.070191629 0.04923328
-0.052744403 0.095911473 0.042427465
-0.050634678 0.076022699 0.041554827
-0.032887761 0.097897857 0.044113919
-0.031208891 0.077965982 0.046402391
-0.06469132 0.092281386 0.04262751
-0.056565065 0.074002229 0.040230412
-0.045991328 0.10014568 0.042607009
-0.038709909 0.081511229 0.045639638
-0.055738501 0.07933636 0.040663358
-0.043686274 0.063353844 0.038044393
-0.039376829 0.090635926 0.044136751
-0.028538922 0.073814794 0.046147697
-0.06522581 0.077311762 0.038152032
-0.050438546 0.063839331 0.03698713
-0.052030679 0.091208808 0.04394953
-0.037623554 0.077336013 0.044346102
-0.057374973 0.090110675 0.04347859
-0.047918554 0.10774405 0.038220961
-0.075292818 0.10042292 0.038713049
-0.064822294 0.11747264 0.043710999
-0.085003011 0.10924409 0.035745442
-0.069869004 0.09587159 0.042345352
-0.075992368 0.12286626 0.048450015
-0.057588082 0.11443773 0.041097209
-0.07528498 0.095495917 0.037707645
-0.059739478 0.082890369 0.041985769
-0.063698791 0.11093248 0.043435279
-0.047474239 0.099231653 0.041259721
-0.082088187 0.099584214 0.03352676
-0.071183532 0.082743824 0.037195794
-0.068318576 0.11013246 0.04380748
-0.055586763 0.094691753 0.042146754
-0.089873709 0.11658465 0.0338361
-0.080421895 0.09882465 0.036731493
-0.078184687 0.12454153 0.048305791
-0.064247251 0.10983496 0.043995664
-0.074732989 0.090178259 0.039102215
-0.063459344 0.073657595 0.038621549
-0.058367632 0.10114928 0.043304481
-0.047490217 0.084362991 0.044214398
-0.080996104 0.093553819 0.034491781
-0.072730541 0.075341195 0.034262195
-0.064362474 0.10096444 0.043022975
-0.056397833 0.082617752 0.043340053
-0.073951118 0.078810394 0.035557218
-0.059157915 0.065343857 0.034842823
-0.061129052 0.092298813 0.043431502
-0.046943668 0.078192867 0.044176452
-0.079976588 0.084306702 0.033356644
-0.067816608 0.068412878 0.032343846
-0.065459825 0.094637416 0.042731076
-0.054381292 0.077973992 0.043661054
-0.029371122 0.075412601 0.045588866
-0.024716778 0.055959214 0.046400305
-0.011905556 0.079880208 0.054431945
-0.0063681547 0.060652703 0.052870534
-0.028203828 0.066530086 0.043949936
-0.024475887 0.046835817 0.04781482
-0.011081373 0.070963211 0.054023538
-0.0050594099 0.051862884 0.050988249
-0.034329567 0.075130537 0.042292655
-0.031966992 0.055270404 0.042477753
-0.016668051 0.077304177 0.051515792
-0.013621615 0.057528213 0.050127238
-0.045923464 0.075642355 0.039360493
-0.041431814 0.056142431 0.037829749
-0.027426142 0.079275146 0.046136823
-0.02348537 0.059667032 0.0459291
-0.031968277 0.065645151 0.041752931
-0.031464607 0.045606956 0.045594059
-0.014262552 0.067274988 0.051514681
-0.011786888 0.047418319 0.049658887
-0.044549402 0.071866393 0.037948854
-0.04685824 0.051998783 0.037373167
-0.025806159 0.069469787 0.044558764
-0.028366521 0.049634337 0.044618681
-0.053020861 0.073779494 0.037586238
-0.046597671 0.054830916 0.036101259
-0.035024382 0.079330146 0.044323087
-0.028607199 0.060379714 0.042854983
-0.061685089 0.073872522 0.035824761
-0.050028361 0.05762073 0.035806444
-0.046801768 0.084539153 0.04388063
-0.034457743 0.06877993 0.041821644
-0.047878712 0.070926234 0.037089746
-0.050901659 0.051152054 0.03606068
-0.028797407 0.067621931 0.042451963
-0.032798503 0.048017137 0.044006169
-0.026052944 0.057109334 0.04475227
-0.034527626 0.038909942 0.049968012
-0.0080223922 0.050550837 0.050440524
-0.015978444 0.032162793 0.054004882
-0.03013039 0.056194138 0.042632088
-0.04240945 0.040335957 0.047180317
-0.014381593 0.045788098 0.049251992
-0.027848139 0.030714553 0.058108971
-0.025804648 0.052050497 0.046008319
-0.035473298 0.034346163 0.053886116
-0.0074072983 0.044935573 0.050083209
-0.016596137 0.027045676 0.056421105
-0.026730662 0.052058119 0.045266267
-0.043418426 0.041022845 0.046543941
-0.016010374 0.03670954 0.052311797
-0.034068931 0.027636878 0.059603382
-0.030095842 0.060701575 0.042452715
-0.033803362 0.040971611 0.047877986
-0.011726213 0.058874886 0.050385561
-0.013991446 0.039001502 0.051283825
-0.032962434 0.060223386 0.040550761
-0.045473989 0.044612557 0.041858755
-0.0181433 0.048927397 0.047823604
-0.032331422 0.034594543 0.054795995
-0.032833796 0.052533168 0.04167185
-0.04916909 0.040910419 0.044737063
-0.021958284 0.039295912 0.05232067
-0.040109843 0.029883849 0.06169834
-0.041159056 0.058299672 0.037373941
-0.055610795 0.04447335 0.037648313
-0.028830972 0.045594934 0.046681769
-0.046232626 0.034808654 0.055177987
-0.049503326 0.056440495 0.034535807
-0.063594162 0.042246617 0.034280747
-0.037328809 0.044192504 0.04467345
-0.056583293 0.03519344 0.0584612
-0.039566517 0.052658379 0.03941337
-0.0560483 0.041282266 0.041255336
-0.029704483 0.039837576 0.051461175
-0.048582535 0.031576656 0.060317829
-0.047533758 0.050292045 0.037494574
-0.064426579 0.039512645 0.039518964
-0.038800512 0.03832411 0.051567487
-0.059499878 0.032761153 0.064048618
-0.057478607 0.054898866 0.02911691
-0.069689758 0.038988058 0.032049268
-0.043799512 0.045947224 0.041064959
-0.062737137 0.034438238 0.059656095
-0.054767959 0.049138125 0.035659336
-0.071548216 0.038086899 0.032951243
-0.048320722 0.036945913 0.050776511
-0.067950346 0.031283058 0.056642361
-0.016298344 0.11982177 0.032113392
-0.03587098 0.11566038 0.032988504
-0.012641717 0.10496431 0.045077961
-0.031856559 0.099349126 0.043895289
-0.023105325 0.11776814 0.032182515
-0.043066666 0.11646575 0.032766771
-0.021775236 0.10208357 0.044628516
-0.041546907 0.098544598 0.041841418
-0.029941764 0.11537301 0.032723632
-0.049592506 0.11915131 0.033808898
-0.03264283 0.098341659 0.042856947
-0.052534092 0.10060336 0.041392699
-0.037426274 0.10879382 0.03707391
-0.051864486 0.12266662 0.034359016
-0.051528364 0.095456354 0.04216928
-0.065286316 0.10997252 0.042109814
-0.053782213 0.095834546 0.044571333
-0.049907535 0.11555318 0.03591245
-0.074598193 0.10208401 0.039141539
-0.067593776 0.12086301 0.04492658
-0.084938303 0.10771184 0.032981854
-0.074032523 0.090707615 0.038968649
-0.072835237 0.11814538 0.045956735
-0.058052093 0.10448367 0.041161411
-0.085239835 0.10409728 0.031310249
-0.078224316 0.085346714 0.032570519
-0.070627637 0.11032254 0.043486651
-0.061271761 0.092569038 0.041164704
-0.089367189 0.11095033 0.024115719
-0.08333762 0.091500752 0.028990267
-0.080401599 0.11572848 0.043563988
-0.068859972 0.099216521 0.040481742
-0.088275 0.10440582 0.024123386
-0.082751662 0.085115343 0.02587585
-0.077455901 0.1084753 0.041079044
-0.069089912 0.090254053 0.039549377
-0.087126307 0.093284875 0.019768357
-0.090405561 0.11369082 0.015115928
-0.076786973 0.097830735 0.036495697
-0.086245917 0.11551967 0.037870131
-0.088434935 0.092421934 0.011587474
-0.090039022 0.11275531 0.009225185
-0.081588708 0.094362743 0.030611223
-0.088242263 0.11326467 0.031346645
-0.085426435 0.08641728 0.017935133
-0.089757837 0.10608523 0.016014596
-0.07605841 0.089672491 0.035646189
-0.083549857 0.10824239 0.036443282
-0.086313888 0.086555593 0.012034732
-0.090305001 0.10622398 0.011064296
-0.080196641 0.088336453 0.031469677
-0.085636586 0.10758305 0.031378418
-0.084118053 0.093120396 0.029814886
-0.076400504 0.074669346 0.029863779
-0.069653824 0.099205099 0.042226356
-0.061688527 0.080858268 0.041953389
-0.075794846 0.077577122 0.031018956
-0.063170232 0.062041111 0.029859139
-0.062666617 0.087334245 0.042540479
-0.050120264 0.071740068 0.041511375
-0.082646042 0.081122361 0.027473619
-0.069692269 0.065841615 0.026184315
-0.07087636 0.089999221 0.040994115
-0.059007619 0.073900133 0.041240834
-0.07109502 0.063938618 0.01743475
-0.084694885 0.078634642 0.018141007
-0.06438192 0.069575906 0.035805296
-0.077384971 0.084773101 0.035940658
-0.081029058 0.076349229 0.024584008
-0.086799264 0.095498957 0.024656605
-0.068519846 0.080059983 0.039742596
-0.074201234 0.099236056 0.039736908
-0.076509334 0.069271252 0.021862822
-0.086864546 0.086397834 0.022465602
-0.066810846 0.07465478 0.038619731
-0.075978123 0.092440777 0.038118463
-0.083774768 0.076550998 0.016167177
-0.089656219 0.095666662 0.016178746
-0.07607884 0.078911819 0.034920204
-0.080215514 0.098562717 0.033667848
-0.08561603 0.079484768 0.011193162
-0.091926299 0.098485783 0.011754186
-0.079725474 0.081142709 0.030869113
-0.083103061 0.10096914 0.029584918
-0.076856479 0.068049476 0.014510425
-0.087893032 0.084782161 0.015364603
-0.070645802 0.07157518 0.033680607
-0.080613568 0.088914603 0.033749741
-0.089671656 0.096673034 0.010433912
-0.087798476 0.11780364 0.0068873023
-0.083352752 0.098296322 0.029536223
-0.089869723 0.11727156 0.030333977
-0.089207411 0.094220012 0.0080890758
-0.089960165 0.11465603 0.0056373673
-0.083516195 0.095654815 0.027783656
-0.08954595 0.11476046 0.028459681
-0.085479163 0.08918038 0.0058233812
-0.089073882 0.10894769 0.0048601036
-0.083534777 0.089729749 0.027194193
-0.088290565 0.10916901 0.026837712
-0.081971921 0.074050322 0.0070412974
-0.09010186 0.092347153 0.0075024646
-0.079115354 0.075163327 0.027836787
-0.085424826 0.09416946 0.027331883
-0.085858546 0.079740748 0.0075450386
-0.092732869 0.098561771 0.008149256
-0.081611902 0.081004746 0.027670065
-0.08530274 0.10077331 0.026628554
-0.076645568 0.068197131 0.0061981673
-0.087756842 0.084846996 0.0065821828
-0.074345194 0.06959904 0.02700945
-0.084789522 0.086655349 0.027029274
-0.073535636 0.068708956 -0.0043671886
-0.085189171 0.084967077 -0.0042666853
-0.075697228 0.067218095 0.017115865
-0.087066896 0.083672002 0.017120736
-0.038517322 0.073166475 0.040373556
-0.036883675 0.053233281 0.040449221
-0.020465175 0.074674822 0.048891563
-0.018366052 0.05478052 0.047854338
-0.042559206 0.074763693 0.03958736
-0.03974105 0.054955587 0.038468309
-0.024390308 0.076840237 0.047722477
-0.021616904 0.057027008 0.046694964
-0.036723159 0.067016497 0.039983884
-0.03844668 0.047073722 0.04224544
-0.018455176 0.066196539 0.048211209
-0.01941023 0.046219271 0.048370574
-0.041461568 0.067985728 0.038306348
-0.044324748 0.048188835 0.039085429
-0.022909766 0.065622747 0.045452543
-0.026131418 0.045871511 0.047062442
-0.057440642 0.071284279 0.035035163
-0.050969433 0.052356202 0.03419742
-0.039923839 0.076898456 0.042904876
-0.033172987 0.058060009 0.041428812
-0.064657234 0.07065592 0.031738523
-0.054183166 0.053615544 0.032327939
-0.050532959 0.079616137 0.043101192
-0.03849956 0.063564971 0.039855167
-0.048200469 0.068454906 0.036682099
-0.054101106 0.049292546 0.033583924
-0.029647896 0.061268732 0.041272048
-0.038827289 0.043376368 0.045850784
-0.059333526 0.067782231 0.032558173
-0.057808664 0.047577403 0.027675444
-0.03991108 0.066112712 0.039365347
-0.043664996 0.046361636 0.042443436
-0.06771341 0.065946162 0.0231751
-0.058940921 0.04762968 0.026532896
-0.057576854 0.073202424 0.038920697
-0.045932151 0.056942012 0.038917068
-0.065454431 0.064039834 0.020266395
-0.061361503 0.043814566 0.025008602
-0.055186521 0.068980098 0.036989275
-0.047774933 0.05035156 0.03829404
-0.037857056 0.064361691 0.038752701
-0.048592012 0.047486704 0.038923107
-0.021839382 0.054246884 0.045224249
-0.034179684 0.038385637 0.050251774
-0.044134449 0.063330151 0.036553975
-0.055177089 0.046652671 0.035918757
-0.028416246 0.052603308 0.042967156
-0.042504866 0.038004544 0.050701089
-0.056363486 0.060122464 0.029194165
-0.061863907 0.040624123 0.033191439
-0.037878938 0.057991419 0.037989948
-0.049948633 0.039250437 0.050168082
-0.065781608 0.039750662 0.028444007
-0.060978234 0.060324002 0.022088906
-0.052874941 0.041028492 0.043696791
-0.046658218 0.061741766 0.036015715
-0.068859883 0.033982426 0.016220234
-0.06656123 0.058745574 0.0059583997
-0.057757434 0.040696822 0.031559803
-0.058804695 0.063436471 0.024012538
-0.073022299 0.052874416 0.0065648425
-0.068552144 0.0305648 0.015002614
-0.061026607 0.062871665 0.019756852
-0.050506283 0.045604274 0.022069242
-0.07001175 0.04036713 0.0048336973
-0.068461597 0.060307246 0.0048066839
-0.066111349 0.040084697 0.024476368
-0.058765393 0.059605133 0.022968305
-0.068578847 0.041492801 0.0019647037
-0.071721219 0.061772708 0.0031368064
-0.064159676 0.041172806 0.021474808
-0.061688244 0.061046209 0.021212371
-0.072834015 0.072490014 0.027869439
-0.060992334 0.056366436 0.027269119
-0.060352329 0.081239186 0.040899456
-0.047981828 0.065486282 0.039421901
-0.079247467 0.075532198 0.023429599
-0.066413067 0.060090799 0.021744596
-0.06890361 0.082682349 0.039067671
-0.056700625 0.066804484 0.038110387
-0.062116809 0.051658031 0.018916037
-0.072646789 0.068691611 0.018189263
-0.052874628 0.058038395 0.035473973
-0.064202793 0.074520946 0.035444051
-0.066556066 0.057224572 0.015524716
-0.07991381 0.072125889 0.015081021
-0.059224196 0.064268991 0.032763612
-0.073641814 0.078151986 0.033262607
-0.062062178 0.047138739 0.016808713
-0.07031998 0.065958612 0.013437562
-0.05325707 0.053773548 0.0335108
-0.063971363 0.070742413 0.032331526
-0.063737512 0.051689923 0.010250373
-0.073987044 0.068903513 0.0096065952
-0.057662424 0.05580445 0.029044649
-0.069174364 0.072163045 0.029242329
-0.071619019 0.063733995 0.0094027519
-0.085223787 0.078474127 0.010233067
-0.067965023 0.06662108 0.029619474
-0.081142381 0.081698909 0.030155441
-0.073208578 0.033238776 0.034955058
-0.060060363 0.055602305 0.022502767
-0.05799076 0.035678696 0.048383564
-0.045048598 0.058009189 0.036088545
-0.080169775 0.032577451 0.034362886
-0.06179367 0.04893424 0.025052698
-0.075252183 0.031467974 0.054939207
-0.048599306 0.045957405 0.040114794
-0.086610593 0.033706009 0.030421924
-0.062267028 0.046259988 0.02151815
-0.087078631 0.033872876 0.052806653
-0.053960238 0.043298401 0.039470557
-0.069762178 0.05421197 0.010050122
-0.082624592 0.069541462 0.0096508646
-0.061309766 0.06179259 0.026556147
-0.075556748 0.075880319 0.027282711
-0.063031457 0.046201952 0.012086849
-0.069050714 0.066148885 0.0086210556
-0.05628109 0.050597601 0.030562969
-0.064730376 0.068962164 0.028817941
-0.064431779 0.051274449 0.0097439922
-0.074967757 0.068375334 0.0086012054
-0.057624079 0.056393478 0.027986243
-0.07016591 0.071986064 0.028388184
-0.068637796 0.037116483 0.0096127447
-0.048007835 0.045319851 -0.0020593924
-0.067199469 0.05745874 0.016326809
-0.047466438 0.05297685 0.020055598
-0.071750589 0.063844651 0.0060087196
-0.085055761 0.07880079 0.0064030197
-0.069341518 0.065812111 0.02662828
-0.082598537 0.080807574 0.02699356
-0.077877194 0.037500679 0.0031575754
-0.060536247 0.054490674 0.00098280876
-0.078280576 0.037579495 0.023470748
-0.056223605 0.053648043 0.020536581
-0.095660888 0.036163613 -0.0019077562
-0.060089272 0.05134755 0.00086691539
-0.084651664 0.034611885 0.019094244
-0.055153012 0.050651796 0.021354871
-0.093821354 0.03472444 0.0052608312
-0.059571896 0.049562111 0.0026932803
-0.090934008 0.034268331 0.025088944
-0.05518654 0.048869364 0.022397835
-0.1008019 0.036980502 0.00083810894
-0.060848027 0.046819493 0.0021338018
-0.092889823 0.034823813 0.021146573
-0.057874285 0.046008904 0.022257838
-0.066839501 0.038854457 -0.0033707866
-0.051004991 0.054242305 -0.00071270211
-0.069535866 0.039876103 0.016601585
-0.060261797 0.057749685 0.017266314
-0.090770513 0.040448964 -0.0098115532
-0.05819932 0.050622713 0.00027613022
-0.077388667 0.03596231 0.016627861
-0.057783592 0.050483327 0.021725809
-0.11699302 0.040813293 -0.0071267826
-0.064382367 0.048522457 -0.0009515417
-0.092539899 0.034825992 0.016185207
-0.055709429 0.046398908 0.020324128
-0.0071802037 0.17739458 -0.028639248
-0.011454602 0.1977189 -0.02241696
-0.019547513 0.17095208 -0.014236279
-0.02391923 0.19122572 -0.008135939
-0.0033880919 0.16972011 -0.02486157
-0.012592671 0.18747926 -0.024461919
-0.016014021 0.16290638 -0.010840103
-0.025408531 0.18056302 -0.010698812
-0.0021193654 0.15799676 -0.011534231
-0.015159246 0.17401068 -0.018560763
-0.017435957 0.15094367 -0.00070968264
-0.029236946 0.16752808 -0.0058739474
-0.0014033446 0.15638635 -0.010080215
-0.014834786 0.17222744 -0.017763708
-0.016941564 0.1492541 0.00041757576
-0.029123364 0.16566879 -0.0053788563
0.00049951393 0.1630173 -0.018444218
-0.012449848 0.17880253 -0.023549318
-0.01244113 0.15620549 -0.0047151232
-0.025550963 0.17190625 -0.010045696
0.0013559154 0.15689494 -0.01099421
-0.012719314 0.17257561 -0.019806787
-0.014249631 0.15008879 -0.00035622882
-0.026815705 0.16642766 -0.0069813216
-0.0044189156 0.17762229 -0.032280963
-0.0094772382 0.1974685 -0.027647518
-0.01612165 0.17172697 -0.017039396
-0.020844635 0.19174211 -0.012011549
-0.00035533489 0.17158937 -0.029956533
-0.0091363313 0.18956609 -0.029381333
-0.012249423 0.1653934 -0.014960584
-0.021209296 0.18327692 -0.014609531
0.0044994066 0.16569035 -0.025151594
-0.0081999367 0.18162587 -0.02948636
-0.0074898014 0.15944482 -0.010274836
-0.020478627 0.17522955 -0.014972344
-0.015895026 0.17690845 -0.019412056
-0.020562705 0.19748239 -0.010239093
-0.028945876 0.1689613 -0.0064261663
-0.034977235 0.18870485 0.00056535151
-0.017008718 0.17706816 -0.018307051
-0.021529719 0.19773142 -0.0088994475
-0.030243691 0.1690089 -0.0056156954
-0.036163509 0.18882036 0.0015542487
-0.015801117 0.17382158 -0.018324086
-0.021628667 0.19368924 -0.01100654
-0.028864244 0.16586697 -0.0053578364
-0.036073249 0.1848934 -0.00025016669
-0.020235127 0.17044811 -0.012503492
-0.027374823 0.18931985 -0.0085287932
-0.034818854 0.16258858 -0.0012986799
-0.042133268 0.18136618 0.002380332
-0.011203685 0.17818616 -0.024567951
-0.014702911 0.19914621 -0.016124995
-0.024001051 0.17102548 -0.010939793
-0.028135821 0.19162992 -0.0033530793
-0.010155851 0.17121486 -0.021546727
-0.017239727 0.19015509 -0.017682584
-0.023111563 0.16403444 -0.0080063259
-0.030710116 0.18268941 -0.004903805
-0.014713831 0.1676361 -0.015106357
-0.0229406 0.18591674 -0.013102139
-0.028861579 0.16007201 -0.0031319957
-0.037145946 0.17832184 -0.0012237345
-0.026889345 0.1686586 -0.0070756664
-0.035086215 0.18695755 -0.0045669954
-0.042186908 0.16045094 0.0028551093
-0.050763749 0.17854603 0.0046065212
-0.0099004582 0.15947829 -0.011666905
-0.020610394 0.17646207 -0.014317195
-0.024511592 0.15198119 -0.00024631375
-0.035034973 0.16906069 -0.0025835859
-0.018932089 0.16149057 -0.0090261213
-0.027638655 0.17949615 -0.0091349818
-0.03428077 0.15413469 0.001482068
-0.042800486 0.17222981 0.0016965239
-0.0096774148 0.15433352 -0.0075693117
-0.021058232 0.17102362 -0.011920956
-0.025067655 0.14676079 0.0027434661
-0.036104642 0.16362007 -0.0010216282
-0.017692177 0.15324327 -0.0057401857
-0.028003691 0.17039636 -0.0070281741
-0.032685891 0.14497368 0.0046011955
-0.043152019 0.16204147 0.0030079966
